-0.084642 0.139002 0.001303 -0.774794 0.319704 -0.545421 
-0.016347 0.159993 -0.010244 0.633598 -0.762175 0.132829 
-0.062085 0.166243 -0.051592 0.995203 -0.034694 0.091476 
-0.012194 0.163667 -0.013623 0.873579 -0.183447 0.450785 
-0.062148 0.161550 -0.039598 0.997927 0.005088 -0.064152 
-0.031039 0.154131 -0.001575 0.455356 -0.814995 0.358376 
-0.061665 0.174109 -0.057590 0.951347 0.265412 0.156510 
-0.030150 0.171175 -0.017028 -0.450969 0.026652 -0.892141 
-0.061620 0.156864 -0.021589 0.993166 0.086150 0.078734 
-0.062465 0.163086 -0.049589 0.987270 -0.158941 0.005916 
-0.062857 0.145948 -0.010577 0.938947 -0.299393 -0.169537 
-0.064398 0.155173 -0.041604 -0.878804 0.436042 0.193835 
-0.062413 0.150637 -0.017576 0.971261 -0.233786 -0.044678 
-0.062519 0.150622 -0.018575 0.963620 -0.262990 -0.047663 
-0.062529 0.150617 -0.019578 0.958839 -0.279747 -0.048668 
-0.062227 0.163125 -0.034593 0.962002 0.271522 0.028761 
-0.010793 0.180280 -0.026745 -0.888329 -0.454139 -0.068038 
-0.010315 0.180354 -0.028878 -0.555469 -0.406460 0.725427 
-0.063069 0.153725 -0.010595 0.933820 0.291299 0.207666 
-0.067938 0.162368 -0.054978 -0.882441 -0.095714 -0.460583 
-0.062703 0.150609 -0.023578 0.933113 -0.351748 -0.074661 
-0.089702 0.151503 0.017122 -0.773668 0.632896 -0.029675 
-0.062446 0.163101 -0.045594 0.996989 -0.075614 -0.017186 
-0.062071 0.166240 -0.052589 0.994454 -0.051247 0.091843 
-0.062413 0.161536 -0.041601 0.995089 -0.072156 -0.067756 
-0.062284 0.161545 -0.040598 0.996830 -0.042121 -0.067502 
-0.011675 0.164119 -0.017600 0.816968 -0.576426 0.017216 
-0.090780 0.150219 0.019125 -0.860371 0.508104 0.039904 
-0.030811 0.153953 -0.002483 0.412266 -0.894532 0.172769 
-0.062408 0.147544 -0.009571 0.992278 -0.086603 -0.088798 
-0.018142 0.159077 -0.009325 -0.528262 0.848789 -0.022297 
-0.061885 0.158437 -0.021585 0.968847 0.215031 0.122870 
-0.062163 0.163132 -0.039593 0.990740 0.134934 -0.015052 
-0.062923 0.149038 -0.018580 0.940579 -0.330105 -0.079641 
-0.063685 0.169395 -0.045591 0.864063 0.451705 0.222165 
-0.063394 0.159891 -0.048589 0.945586 -0.320128 -0.058178 
-0.061466 0.174127 -0.058598 0.962864 0.269986 -0.000117 
-0.040043 0.149481 0.002420 0.601417 -0.614251 0.510876 
-0.063220 0.150553 -0.027592 -0.871489 0.468231 0.145829 
-0.010723 0.165105 -0.018811 0.869317 -0.492005 0.047115 
-0.061825 0.164563 -0.057680 0.841721 -0.390871 -0.372458 
-0.062051 0.164652 -0.054587 0.977919 -0.207614 0.023918 
-0.062199 0.164660 -0.052589 0.989245 -0.136409 0.052784 
-0.062220 0.164668 -0.051589 0.991107 -0.122246 0.052559 
-0.062083 0.174072 -0.055623 0.924631 0.280371 0.257777 
-0.062172 0.160005 -0.022587 0.936909 0.318099 0.144964 
-0.063051 0.152177 -0.008587 -0.954741 -0.266765 -0.131553 
-0.073056 0.145480 -0.015959 -0.643982 -0.732800 -0.219753 
-0.061855 0.155289 -0.029587 0.979752 -0.187161 -0.071109 
-0.072667 0.155437 -0.033911 -0.986266 0.031605 -0.162111 
-0.047127 0.159118 -0.007655 -0.520455 -0.058000 -0.851917 
-0.061060 0.172553 -0.060609 0.787319 0.081918 -0.611079 
-0.061982 0.166238 -0.053592 0.992663 -0.080686 0.090059 
-0.061997 0.147610 -0.004622 -0.840156 -0.315532 0.441109 
-0.063195 0.163133 -0.026589 0.860658 0.482056 0.163981 
-0.061505 0.167821 -0.055568 0.992945 -0.051365 0.106873 
-0.011886 0.163867 -0.016851 0.807990 -0.588531 0.027993 
-0.063084 0.164691 -0.032592 -0.888506 -0.447240 -0.102637 
-0.062219 0.164671 -0.050589 0.993782 -0.100129 0.048701 
-0.062358 0.164673 -0.048592 0.997851 -0.053043 0.038473 
-0.062476 0.163084 -0.051589 0.978746 -0.204374 0.016966 
-0.062384 0.163016 -0.055604 0.940431 -0.325121 -0.099431 
-0.010363 0.180289 -0.027734 -0.770172 -0.470092 0.431102 
-0.010418 0.179993 -0.029525 0.443872 0.319911 -0.837039 
-0.068282 0.156606 -0.053267 -0.496834 -0.571024 -0.653519 
-0.036617 0.151060 0.000397 0.565487 -0.714213 0.412460 
-0.062337 0.164670 -0.049590 0.996873 -0.067156 0.041647 
-0.062360 0.164675 -0.047593 0.999098 -0.025513 0.033931 
-0.046670 0.166955 -0.005905 -0.719189 0.505952 -0.476213 
-0.023646 0.184410 -0.015053 0.478968 -0.877832 0.001077 
-0.067809 0.180556 -0.058790 -0.280724 0.698298 -0.658463 
-0.061680 0.166235 -0.055592 0.988805 -0.138102 0.056495 
-0.061836 0.166237 -0.054593 0.989977 -0.120283 0.074009 
-0.061520 0.167807 -0.056588 0.995165 -0.086971 0.045630 
-0.070586 0.166615 -0.049003 -0.885523 -0.251028 -0.390940 
-0.090639 0.147509 0.013158 -0.938847 0.093630 -0.331360 
-0.078089 0.159705 -0.022918 -0.979574 -0.189746 -0.066565 
-0.073245 0.144163 -0.010945 -0.621067 -0.700778 -0.350979 
-0.061813 0.161554 -0.031593 0.975058 0.220278 0.027206 
-0.062157 0.163143 -0.037593 0.983643 0.179992 -0.006957 
-0.026155 0.155801 -0.005687 -0.396395 0.914092 -0.085480 
-0.072329 0.177884 -0.055015 -0.748524 0.156949 -0.644266 
-0.072526 0.149972 -0.042469 0.669937 0.620130 0.408195 
-0.070776 0.162402 -0.045956 -0.947448 -0.143111 -0.286115 
-0.025294 0.179999 -0.017997 -0.657411 0.377410 -0.652206 
-0.081752 0.140386 -0.000790 -0.763296 0.207288 -0.611891 
-0.062602 0.174089 -0.054604 0.903426 0.309906 0.296277 
-0.011946 0.163588 -0.014675 0.884321 -0.331162 0.329101 
-0.061483 0.166203 -0.057627 0.924403 -0.273269 -0.266090 
-0.061618 0.166220 -0.056593 0.982343 -0.184979 -0.028020 
-0.062488 0.161561 -0.025589 0.924535 0.359516 0.126427 
-0.072234 0.147352 -0.024232 0.538506 0.829457 0.148364 
-0.061586 0.155307 -0.023582 0.997747 -0.065844 0.012853 
-0.062289 0.152203 -0.014578 0.997921 -0.002795 0.064389 
-0.061854 0.174099 -0.056596 0.941527 0.267976 0.204242 
-0.071945 0.159605 -0.039933 -0.964570 -0.132047 -0.228402 
-0.075582 0.148590 -0.014867 -0.940781 -0.316668 -0.121048 
-0.071114 0.162407 -0.044950 -0.944742 -0.159283 -0.286517 
-0.074325 0.179234 -0.053985 -0.605012 0.714932 -0.350476 
-0.009910 0.175697 -0.024754 0.922430 0.247346 0.296553 
-0.063865 0.166212 -0.033602 -0.836549 -0.532363 -0.129525 
-0.062022 0.161552 -0.038596 0.997572 0.036165 -0.059510 
-0.062754 0.166279 -0.042585 0.944511 0.314377 0.095214 
-0.062641 0.163129 -0.029590 0.921256 0.376240 0.098646 
-0.073221 0.156852 -0.030909 -0.969881 -0.147585 -0.193779 
-0.072488 0.172225 -0.050033 -0.726123 -0.444441 -0.524611 
-0.062874 0.175671 -0.055595 -0.871028 -0.385529 -0.304431 
-0.069235 0.176505 -0.057035 -0.682269 -0.087676 -0.725825 
-0.083488 0.143210 0.003161 -0.848991 0.227952 -0.476709 
-0.070351 0.158156 -0.046917 -0.970030 0.005485 -0.242922 
-0.076402 0.150045 -0.006923 -0.973317 -0.041699 -0.225646 
-0.069708 0.163800 -0.049970 -0.939653 -0.095751 -0.328456 
-0.077685 0.163860 -0.032946 -0.949119 -0.290886 -0.120659 
-0.072323 0.163826 -0.041961 -0.889481 -0.316613 -0.329516 
-0.027575 0.181449 -0.013034 -0.594149 0.768327 -0.238034 
-0.062191 0.163125 -0.040592 0.994478 0.103587 -0.016815 
-0.063555 0.166233 -0.035597 0.864523 0.490798 0.108250 
-0.063710 0.166224 -0.034597 0.842567 0.524297 0.123262 
-0.063359 0.166271 -0.037590 0.903685 0.419943 0.083669 
-0.061915 0.161553 -0.037594 0.996475 0.066086 -0.051682 
-0.063341 0.155276 -0.011594 0.904298 0.346170 0.249822 
-0.062252 0.147555 -0.005575 0.910030 0.230012 -0.344877 
-0.062261 0.152178 -0.022580 0.966887 -0.252435 -0.037500 
-0.062394 0.164686 -0.040594 0.975560 0.217394 0.031994 
-0.063297 0.144361 -0.009605 -0.874081 0.361704 0.324272 
-0.061723 0.155313 -0.019580 0.996270 0.026986 0.081962 
-0.062948 0.163113 -0.027594 0.893613 0.428461 0.133705 
-0.066531 0.155586 -0.052333 0.094253 -0.788755 -0.607439 
-0.062392 0.152158 -0.026581 0.932865 -0.346706 -0.097764 
-0.062794 0.155220 -0.035611 0.929084 -0.318172 -0.188599 
-0.069370 0.141497 -0.008934 -0.086676 -0.586970 -0.804955 
-0.070267 0.176516 -0.055987 -0.718905 -0.177473 -0.672070 
-0.069468 0.158126 -0.050938 -0.921153 -0.118977 -0.370569 
-0.082300 0.143183 0.001156 -0.826926 0.199168 -0.525857 
-0.079388 0.147286 -0.001825 -0.832400 0.167046 -0.528399 
-0.077617 0.145877 -0.003847 -0.847252 -0.041423 -0.529574 
-0.077449 0.163906 -0.022952 -0.912921 0.345443 0.217358 
-0.063482 0.166302 -0.036694 0.878825 0.466761 0.098999 
-0.063239 0.166259 -0.038593 0.906853 0.412909 0.084397 
-0.062673 0.158367 -0.039604 0.964634 -0.219302 -0.146244 
-0.063425 0.163107 -0.025461 0.839122 0.511815 0.184173 
-0.062218 0.153696 -0.029594 0.951452 -0.288594 -0.107017 
-0.062713 0.161593 -0.024579 0.909577 0.390074 0.143219 
-0.061600 0.158430 -0.027586 0.996422 0.080069 0.027064 
-0.062752 0.145959 -0.009578 0.957852 -0.208708 -0.197383 
-0.062003 0.158406 -0.035597 0.986235 -0.115442 -0.118382 
-0.061868 0.158412 -0.034594 0.991469 -0.084199 -0.099502 
-0.063114 0.144370 -0.008630 0.881138 -0.277373 -0.382962 
-0.061636 0.158429 -0.024589 0.988370 0.139361 0.060851 
-0.009094 0.175718 -0.026774 0.803027 -0.096484 -0.588080 
-0.061642 0.158426 -0.023592 0.983613 0.162803 0.077467 
-0.027753 0.155598 -0.002531 0.441447 -0.825252 0.352256 
-0.063039 0.155290 -0.012589 0.925302 0.301988 0.229389 
-0.061360 0.172535 -0.058591 0.987920 0.153202 0.023313 
-0.077600 0.156937 -0.014911 -0.995102 -0.091263 0.037988 
-0.045898 0.166944 -0.006885 -0.686138 0.369201 -0.626821 
-0.074091 0.144362 -0.008886 -0.741202 -0.484256 -0.464881 
-0.068962 0.177928 -0.058005 -0.567777 0.216306 -0.794255 
-0.062529 0.164689 -0.038593 0.961142 0.273986 0.033721 
-0.063027 0.166296 -0.040584 0.909472 0.403420 0.100563 
-0.063190 0.166285 -0.039588 0.902679 0.419565 0.095582 
-0.062204 0.163118 -0.041593 0.997532 0.067752 -0.018420 
-0.061258 0.167808 -0.057601 0.988514 -0.129815 -0.077387 
-0.062428 0.159959 -0.040598 0.981146 -0.158613 -0.110425 
-0.030192 0.153974 -0.003571 -0.387008 0.918276 -0.083635 
-0.062618 0.145978 -0.008581 0.963354 -0.137872 -0.230088 
-0.063440 0.158343 -0.044597 0.936900 -0.327803 -0.121506 
-0.063278 0.158345 -0.043601 0.941797 -0.309522 -0.131201 
-0.008697 0.172706 -0.025779 0.880482 -0.258807 -0.397204 
-0.061726 0.158412 -0.033595 0.993977 -0.066711 -0.086948 
-0.062519 0.144437 -0.006582 -0.869097 0.019164 0.494270 
-0.063342 0.155193 -0.037616 0.886227 -0.409271 -0.217024 
-0.009777 0.174183 -0.023754 0.913258 0.223286 0.340740 
-0.062388 0.149093 -0.012575 0.991541 -0.126319 -0.029842 
-0.061857 0.156837 -0.032592 0.985256 -0.143194 -0.093626 
-0.045111 0.146112 0.003459 0.604698 -0.789359 0.106080 
-0.062474 0.163093 -0.048588 0.990432 -0.137991 -0.001940 
-0.010386 0.174149 -0.022799 0.824782 0.303338 0.477201 
-0.068258 0.156305 0.016442 0.022273 0.999320 -0.029387 
-0.070398 0.156305 0.015682 0.001381 0.999432 -0.033680 
-0.076661 0.163806 -0.033980 -0.891917 -0.397188 -0.216162 
-0.084640 0.153647 0.013659 -0.425749 0.884843 -0.189182 
-0.068737 0.155896 0.010463 0.029101 0.995364 -0.091668 
-0.062750 0.178179 -0.059812 0.767675 0.562562 -0.306918 
-0.063438 0.179008 -0.059875 0.543467 0.708624 -0.449995 
-0.073679 0.145791 -0.012854 -0.779038 -0.585657 -0.223841 
-0.069357 0.156301 0.016052 0.008499 0.999423 -0.032893 
-0.074284 0.155582 0.008489 -0.088420 0.991810 -0.092165 
-0.062574 0.177270 -0.058170 0.857159 0.514595 0.021701 
-0.063114 0.178334 -0.058358 0.776288 0.625953 -0.074562 
-0.063719 0.179242 -0.058592 0.588368 0.780641 -0.210765 
-0.064438 0.179950 -0.058883 0.395022 0.849539 -0.349631 
-0.065311 0.180421 -0.059314 0.264040 0.857511 -0.441539 
-0.053407 0.152198 0.018908 0.851625 0.498617 0.161603 
-0.075207 0.156095 0.018364 -0.096686 0.995081 0.021580 
-0.063592 0.178326 -0.057078 0.758989 0.634332 0.146827 
-0.064191 0.179229 -0.057299 0.592370 0.805393 0.020975 
-0.064903 0.179945 -0.057573 0.436253 0.890840 -0.126838 
-0.065725 0.180452 -0.057864 0.236518 0.930631 -0.279260 
-0.066597 0.180807 -0.058192 -0.038412 0.881069 -0.471425 
-0.067453 0.180926 -0.058380 0.229851 -0.762722 0.604502 
-0.074102 0.156119 0.018748 -0.084576 0.996156 0.022827 
-0.063120 0.176032 -0.055462 0.852158 0.411934 0.322702 
-0.063628 0.177112 -0.055645 0.795936 0.519440 0.310913 
-0.064169 0.178174 -0.055840 0.687375 0.669060 0.282620 
-0.064783 0.179003 -0.056055 0.577823 0.790098 0.204613 
-0.065473 0.179780 -0.056304 0.444248 0.891700 0.086687 
-0.066211 0.180426 -0.056583 0.269757 0.959312 -0.083382 
-0.067036 0.180898 -0.056888 0.086493 0.962731 -0.256257 
-0.067962 0.181138 -0.057225 -0.163702 0.849519 -0.501517 
-0.063195 0.174736 -0.054040 0.848903 0.395084 0.351101 
-0.063666 0.175908 -0.054211 0.807775 0.454567 0.375324 
-0.064203 0.176904 -0.054403 0.755493 0.529532 0.385781 
-0.064783 0.177875 -0.054614 0.648008 0.661396 0.377678 
-0.065390 0.178765 -0.054830 0.557846 0.759468 0.334688 
-0.066059 0.179544 -0.055075 0.454480 0.854575 0.251295 
-0.066758 0.180263 -0.055320 0.331895 0.933113 0.138365 
-0.067570 0.180805 -0.055597 0.167725 0.985287 -0.032819 
-0.068351 0.181259 -0.055895 0.063421 0.990584 -0.121334 
-0.069485 0.181423 -0.056396 -0.219628 0.874918 -0.431605 
-0.070359 0.181312 -0.056519 -0.297077 0.860422 -0.414028 
-0.085987 0.153017 0.013201 -0.524848 0.812981 -0.252184 
-0.065547 0.154522 0.002885 0.192286 0.958612 -0.209973 
-0.063727 0.174609 -0.052785 0.818577 0.433442 0.376909 
-0.064222 0.175708 -0.052957 0.769819 0.491725 0.406921 
-0.064792 0.176686 -0.053164 0.686349 0.583662 0.433895 
-0.065403 0.177571 -0.053385 0.614424 0.657638 0.435884 
-0.066088 0.178333 -0.053642 0.539563 0.733123 0.414008 
-0.066707 0.179209 -0.053865 0.458658 0.809294 0.366982 
-0.067405 0.179923 -0.054108 0.357279 0.889794 0.283933 
-0.068157 0.180556 -0.054371 0.238853 0.954433 0.178907 
-0.068973 0.181022 -0.054646 0.087441 0.996065 0.014457 
-0.069828 0.181394 -0.054927 -0.084723 0.986725 -0.138552 
-0.071055 0.181198 -0.055488 -0.283745 0.913499 -0.291561 
-0.071802 0.181053 -0.055655 0.370565 -0.858718 0.353957 
-0.057193 0.155255 0.017494 0.392392 0.915571 0.088080 
-0.058653 0.154964 0.024223 0.331126 0.929578 0.161989 
-0.067990 0.154859 0.029665 0.014174 0.949522 0.313381 
-0.063728 0.173384 -0.051356 0.826114 0.434564 0.358734 
-0.064273 0.174473 -0.051536 0.788230 0.476353 0.389591 
-0.064815 0.175482 -0.051724 0.734214 0.530531 0.423635 
-0.065413 0.176380 -0.051937 0.647799 0.609358 0.457208 
-0.066027 0.177263 -0.052159 0.583295 0.664717 0.466816 
-0.066725 0.178008 -0.052422 0.521548 0.718517 0.460132 
-0.067401 0.178779 -0.052675 0.452496 0.778848 0.434330 
-0.068100 0.179488 -0.052919 0.373386 0.841726 0.389975 
-0.068820 0.180176 -0.053179 0.269293 0.910547 0.313665 
-0.069582 0.180796 -0.053446 0.193993 0.947858 0.252846 
-0.070470 0.181218 -0.053775 0.023171 0.993902 0.107805 
-0.071558 0.181081 -0.054200 -0.250463 0.955144 -0.158012 
-0.072655 0.180933 -0.054676 -0.440826 0.841093 -0.313425 
-0.053936 0.153495 0.015797 0.662181 0.706959 0.248446 
-0.056727 0.154780 0.022008 0.486829 0.865201 0.120102 
-0.010362 0.179472 -0.029571 -0.396912 -0.223807 0.890153 
-0.077158 0.158311 -0.022906 -0.948397 -0.284966 -0.139058 
-0.064084 0.156142 0.017922 0.070851 0.997486 -0.001575 
-0.053998 0.153168 0.018682 0.713922 0.687236 0.134242 
-0.064259 0.173261 -0.050097 0.796421 0.482308 0.364819 
-0.064798 0.174285 -0.050277 0.747987 0.530794 0.398463 
-0.065408 0.175187 -0.050486 0.674629 0.591438 0.441676 
-0.066012 0.176151 -0.050705 0.613976 0.636213 0.467190 
-0.066703 0.176899 -0.050971 0.556795 0.677156 0.481082 
-0.067363 0.177688 -0.051207 0.503560 0.716407 0.482895 
-0.068057 0.178404 -0.051447 0.442905 0.761987 0.472452 
-0.068747 0.179151 -0.051713 0.368996 0.815979 0.444995 
-0.069513 0.179740 -0.051989 0.281045 0.871904 0.400996 
-0.070280 0.180333 -0.052262 0.165381 0.931308 0.324522 
-0.071153 0.180791 -0.052560 0.064652 0.966262 0.249317 
-0.072014 0.180999 -0.052838 -0.157149 0.986178 0.052504 
-0.073516 0.180650 -0.053593 -0.418465 0.887980 -0.190731 
-0.074133 0.180484 -0.053671 -0.507326 0.817660 -0.272127 
-0.054181 0.154195 0.014253 0.507149 0.788202 0.348623 
-0.082689 0.152358 0.029168 -0.417789 0.835995 0.355759 
-0.081412 0.152728 0.029584 -0.323005 0.881857 0.343505 
-0.085182 0.152725 0.010545 -0.554270 0.754718 -0.350978 
-0.043803 0.167379 0.003343 -0.052413 0.596281 0.801063 
-0.076906 0.154074 0.029548 -0.169400 0.931795 0.321031 
-0.061222 0.155927 0.013144 0.062286 0.997292 0.039113 
-0.069376 0.155378 0.027700 -0.003954 0.965099 0.261856 
-0.068331 0.155325 0.028068 0.014716 0.962563 0.270659 
-0.044905 0.167415 0.003016 -0.186152 0.673697 0.715178 
-0.045979 0.167363 0.002591 0.267005 -0.708730 -0.653001 
-0.010691 0.181260 -0.028669 0.559745 0.513812 -0.650141 
-0.011364 0.182132 -0.028821 -0.444603 -0.572844 0.688605 
-0.061988 0.156033 0.018666 0.137812 0.990005 0.029975 
-0.071833 0.156164 0.022455 -0.055526 0.994126 0.092896 
-0.037369 0.173381 -0.001503 0.025815 0.658182 0.752416 
-0.064778 0.173212 -0.048836 0.739002 0.556413 0.379843 
-0.065361 0.174136 -0.049035 0.710009 0.579436 0.400176 
-0.066023 0.174935 -0.049270 0.638284 0.629880 0.442542 
-0.066687 0.175728 -0.049503 0.581112 0.665440 0.468507 
-0.067333 0.176600 -0.049736 0.533031 0.693827 0.484233 
-0.068015 0.177312 -0.049976 0.482752 0.724476 0.492021 
-0.068733 0.178002 -0.050235 0.450488 0.744815 0.492251 
-0.069469 0.178653 -0.050518 0.362222 0.800453 0.477567 
-0.070203 0.179305 -0.050798 0.281812 0.847579 0.449657 
-0.071016 0.179813 -0.051082 0.173805 0.901551 0.396230 
-0.071835 0.180364 -0.051356 0.079004 0.937305 0.339436 
-0.072742 0.180568 -0.051639 -0.162800 0.972271 0.167887 
-0.073995 0.180200 -0.052196 -0.515967 0.842165 -0.156640 
-0.055948 0.153959 0.025207 0.551913 0.808183 0.205506 
-0.065703 0.155342 0.027533 0.069115 0.966171 0.248468 
-0.070502 0.155741 0.008376 0.026057 0.996135 -0.083877 
-0.073564 0.156227 0.017478 -0.061044 0.998135 0.000912 
-0.055832 0.154614 0.019381 0.538558 0.837052 0.096436 
-0.052871 0.152590 0.014748 0.757966 0.555390 0.342097 
-0.071105 0.153963 -0.045914 -0.847380 -0.350401 -0.398956 
-0.073175 0.154066 -0.031910 -0.985092 0.075996 -0.154329 
-0.063951 0.156212 0.020869 0.096876 0.993754 0.055389 
-0.055517 0.154658 0.015223 0.420251 0.881807 0.214021 
-0.071792 0.153989 -0.042899 -0.946289 -0.142427 -0.290263 
-0.063539 0.151731 -0.003618 0.785581 0.607565 -0.117165 
-0.054929 0.154823 0.013977 0.391498 0.858683 0.330745 
-0.064112 0.152654 -0.003857 0.767720 0.640544 -0.017592 
-0.084148 0.153650 0.012354 -0.434511 0.870840 -0.229863 
-0.072840 0.156111 0.011906 -0.032911 0.996717 -0.073974 
-0.064780 0.153444 -0.004107 0.765556 0.639736 0.068275 
-0.065446 0.154232 -0.004360 0.736265 0.659268 0.152575 
-0.066360 0.156090 0.014217 0.031504 0.997778 -0.058701 
-0.066119 0.156294 0.017196 0.043596 0.998892 -0.017745 
-0.061654 0.155990 0.014436 0.091932 0.995665 0.014137 
-0.083777 0.153466 0.011019 -0.448594 0.854027 -0.263442 
-0.082319 0.154091 0.011523 -0.361738 0.910785 -0.199037 
-0.081009 0.154578 0.011977 -0.292204 0.944341 -0.151118 
-0.078483 0.155333 0.012849 -0.184974 0.978687 -0.089197 
-0.077278 0.155614 0.013267 -0.147376 0.986429 -0.072373 
-0.066033 0.155202 -0.004586 0.678744 0.687719 0.257583 
-0.066712 0.155932 -0.004840 0.618940 0.716120 0.322623 
-0.049890 0.161248 0.007014 -0.117995 0.641569 0.757936 
-0.067389 0.156703 -0.005097 0.579701 0.734297 0.353205 
-0.078147 0.155117 0.024688 -0.192280 0.963232 0.187650 
-0.073615 0.155479 0.026224 -0.095186 0.971473 0.217210 
-0.068050 0.157495 -0.005349 0.476097 0.780778 0.404620 
-0.010589 0.180273 -0.027211 0.832532 0.495377 -0.247977 
-0.010983 0.181570 -0.027366 0.728611 0.560222 -0.394053 
-0.011427 0.182822 -0.027637 0.552227 0.647358 -0.525332 
-0.069522 0.143851 -0.015008 -0.156182 -0.942429 -0.295695 
-0.048653 0.162759 0.005999 -0.109311 0.621797 0.775512 
-0.083614 0.154208 0.018401 -0.317033 0.947939 0.030032 
-0.068747 0.158212 -0.005601 0.395788 0.811405 0.430087 
-0.063609 0.170093 -0.046994 0.867814 0.429662 0.249580 
-0.064141 0.171114 -0.047178 -0.821235 -0.493208 -0.286912 
-0.064702 0.172123 -0.047367 0.772565 0.543598 0.328093 
-0.065325 0.173014 -0.047584 0.701046 0.604980 0.377536 
-0.065961 0.173890 -0.047811 0.673744 0.622522 0.398166 
-0.066615 0.174697 -0.048037 0.602706 0.667517 0.437227 
-0.067264 0.175508 -0.048264 0.553048 0.693904 0.461125 
-0.067957 0.176267 -0.048521 0.506214 0.717232 0.478880 
-0.068689 0.176906 -0.048767 0.460506 0.739664 0.490747 
-0.069405 0.177621 -0.049052 0.408698 0.765517 0.496940 
-0.070161 0.178224 -0.049321 0.349582 0.795891 0.494317 
-0.070933 0.178806 -0.049606 0.305811 0.818507 0.486340 
-0.071704 0.179379 -0.049890 0.219184 0.859597 0.461574 
-0.072570 0.179840 -0.050172 0.073683 0.914909 0.396877 
-0.073478 0.180121 -0.050484 -0.192638 0.952272 0.236787 
-0.074698 0.179765 -0.051007 -0.619025 0.779158 -0.098597 
-0.075916 0.179384 -0.051606 0.748028 -0.619123 0.239041 
-0.082178 0.153468 0.026301 -0.337525 0.901113 0.272162 
-0.087801 0.151251 0.024537 -0.630253 0.716783 0.298332 
-0.069473 0.158882 -0.005876 0.312435 0.837603 0.448114 
-0.078047 0.153854 0.029137 -0.198090 0.928236 0.314863 
-0.049691 0.162854 0.005641 -0.231247 0.691348 0.684517 
-0.069786 0.156365 0.017350 0.004053 0.999871 -0.015549 
-0.070350 0.159267 -0.006191 0.261181 0.850684 0.456203 
-0.071237 0.159654 -0.006501 0.197182 0.863728 0.463781 
-0.067937 0.165269 -0.019772 0.416598 0.830137 0.370565 
-0.061595 0.155290 0.026080 0.176357 0.963722 0.200344 
-0.062533 0.155555 0.025743 0.144003 0.970751 0.192106 
-0.078884 0.153282 0.030395 -0.211232 0.910516 0.355447 
-0.082410 0.154634 0.015875 -0.285179 0.957203 -0.049352 
-0.056334 0.154371 0.023609 0.536169 0.829011 0.158942 
-0.087864 0.152463 0.016998 -0.654139 0.755172 -0.042629 
-0.084942 0.153745 0.017958 -0.383548 0.923494 -0.007027 
-0.079876 0.155212 0.019678 -0.208641 0.975834 0.064931 
-0.075130 0.155996 0.021306 -0.107577 0.990943 0.080375 
-0.074032 0.156054 0.021688 -0.086750 0.992665 0.084205 
-0.072308 0.159721 -0.006871 0.040348 0.879306 0.474546 
-0.082132 0.152650 0.005763 -0.565345 0.710343 -0.419282 
-0.069775 0.155761 0.026098 -0.011708 0.977321 0.211439 
-0.073584 0.159386 -0.007312 -0.295003 0.837134 0.460629 
-0.074748 0.158885 -0.007836 0.655961 -0.653203 -0.378208 
-0.083035 0.153941 0.023011 -0.341757 0.920870 0.187616 
-0.011087 0.180248 -0.025982 -0.882982 -0.427228 -0.194470 
-0.011512 0.181449 -0.026132 0.859641 0.493496 0.132206 
-0.011927 0.182669 -0.026287 0.733031 0.673311 -0.096528 
-0.012349 0.183911 -0.026432 0.539760 0.786613 -0.299830 
-0.055495 0.154378 0.018105 0.512496 0.852307 0.104506 
-0.081893 0.154016 0.010210 -0.369465 0.904095 -0.214725 
-0.064060 0.170094 -0.045706 0.832844 0.494549 0.248581 
-0.064597 0.171184 -0.045883 0.791289 0.539227 0.288263 
-0.065189 0.172101 -0.046087 0.717688 0.609971 0.335944 
-0.065854 0.172894 -0.046325 0.663211 0.650441 0.370240 
-0.066522 0.173689 -0.046566 0.613190 0.681048 0.400214 
-0.067172 0.174543 -0.046799 0.569806 0.703396 0.424917 
-0.067929 0.175140 -0.047072 0.523116 0.724827 0.448302 
-0.068633 0.175846 -0.047322 0.496226 0.736274 0.460066 
-0.069359 0.176521 -0.047588 0.430619 0.762946 0.482162 
-0.070102 0.177167 -0.047872 0.376639 0.784507 0.492637 
-0.070856 0.177779 -0.048135 0.324206 0.805150 0.496613 
-0.071614 0.178389 -0.048400 0.253913 0.833122 0.491362 
-0.072441 0.178857 -0.048708 0.197272 0.854268 0.480947 
-0.073267 0.179344 -0.049006 0.038524 0.903250 0.427383 
-0.074253 0.179540 -0.049342 -0.243123 0.927844 0.282837 
-0.075431 0.179188 -0.049859 -0.655846 0.753699 -0.042466 
-0.076524 0.178854 -0.050295 0.771284 -0.613619 0.169093 
-0.072877 0.154609 0.029419 -0.073722 0.946987 0.312699 
-0.078444 0.154274 0.027518 -0.207759 0.939517 0.272294 
-0.083439 0.153089 0.025871 -0.391942 0.876884 0.278308 
-0.086930 0.151358 0.010227 0.655949 -0.621551 0.428259 
-0.079235 0.153789 0.028772 -0.220850 0.924189 0.311608 
-0.077566 0.155252 0.010250 -0.183344 0.975529 -0.121357 
-0.080576 0.154494 0.010664 -0.297417 0.939963 -0.167369 
-0.076365 0.155962 0.017962 -0.120110 0.992596 0.018087 
-0.062481 0.156041 0.019941 0.132930 0.989963 0.047977 
-0.079643 0.148681 -0.000844 -0.840151 0.230275 -0.491039 
-0.056729 0.155485 0.013304 0.245938 0.927548 0.281369 
-0.079459 0.155317 0.015430 -0.195871 0.979875 -0.038475 
-0.058741 0.154535 0.027100 0.347220 0.904837 0.246390 
-0.059733 0.154693 0.026749 0.275933 0.934237 0.225971 
-0.053757 0.152473 0.020233 0.836361 0.527660 0.148578 
-0.065552 0.155937 0.024666 0.077454 0.983400 0.164092 
-0.066553 0.156088 0.024318 0.054889 0.987073 0.150582 
-0.074659 0.156170 0.017091 -0.082395 0.996599 -0.001177 
-0.065038 0.153613 0.000197 0.433569 0.876402 -0.209614 
-0.078844 0.154658 0.025905 -0.216400 0.949314 0.227978 
-0.073591 0.154201 0.030681 -0.087395 0.932946 0.349247 
-0.080675 0.155074 0.015012 -0.233893 0.970559 -0.057526 
-0.060304 0.155837 0.010569 -0.066308 0.987419 0.143551 
-0.069224 0.156340 0.019005 0.006721 0.999955 0.006621 
-0.067599 0.156142 0.023950 0.021583 0.991272 0.130054 
-0.075904 0.154928 -0.000893 -0.714764 0.693493 0.090444 
-0.064369 0.155314 0.007677 -0.020447 0.990585 -0.135366 
-0.065114 0.155569 0.026283 0.086767 0.973240 0.212780 
-0.069215 0.155426 0.004472 0.135122 0.990428 -0.028187 
-0.058101 0.158247 0.004154 0.683528 -0.725368 0.081433 
-0.070200 0.155611 0.004113 0.110733 0.993809 0.009026 
-0.071242 0.155684 0.003739 0.063439 0.997180 0.040092 
-0.072336 0.155599 0.003343 -0.009981 0.998080 0.061130 
-0.012591 0.182249 -0.025090 0.802801 0.536216 0.260733 
-0.013069 0.183424 -0.025278 0.739146 0.662965 0.118913 
-0.013580 0.184570 -0.025503 0.534365 0.827152 -0.173992 
-0.014276 0.185348 -0.025788 0.488431 0.849175 -0.200837 
-0.065886 0.154050 -0.000118 0.462971 0.880681 -0.100294 
-0.073470 0.155395 0.002931 -0.112774 0.991745 0.061023 
-0.063913 0.169258 -0.044194 0.846965 0.488082 0.210774 
-0.064466 0.170264 -0.044386 0.803325 0.541896 0.247016 
-0.065086 0.171096 -0.044609 0.756045 0.591452 0.280321 
-0.065712 0.171986 -0.044827 0.677924 0.657713 0.328379 
-0.066350 0.172859 -0.045054 0.623187 0.694679 0.359247 
-0.067084 0.173532 -0.045319 0.578809 0.719216 0.384329 
-0.067805 0.174210 -0.045584 0.535557 0.739153 0.408449 
-0.068538 0.174870 -0.045857 0.493860 0.755789 0.429983 
-0.069255 0.175557 -0.046116 0.446745 0.772778 0.450814 
-0.070012 0.176166 -0.046386 0.397439 0.789437 0.467795 
-0.070769 0.176767 -0.046658 0.346844 0.805360 0.480724 
-0.071539 0.177351 -0.046938 0.287671 0.823594 0.488812 
-0.072367 0.177806 -0.047252 0.246417 0.835538 0.491076 
-0.073184 0.178324 -0.047534 0.141725 0.863568 0.483905 
-0.074064 0.178692 -0.047864 -0.030712 0.897077 0.440806 
-0.075154 0.178820 -0.048244 -0.319529 0.900523 0.294889 
-0.076236 0.178558 -0.048710 -0.724456 0.689321 0.000481 
-0.074749 0.155081 0.002487 -0.266500 0.963404 0.028821 
-0.066687 0.154580 -0.000433 0.481935 0.876162 0.008888 
-0.075035 0.154671 0.028699 -0.124138 0.948281 0.292152 
-0.073920 0.154660 0.029056 -0.098476 0.948246 0.301880 
-0.079609 0.154132 0.027128 -0.241111 0.932775 0.267948 
-0.084789 0.152650 0.025447 -0.452607 0.843555 0.289072 
-0.067451 0.155183 -0.000721 0.459877 0.873775 0.158209 
-0.064165 0.156160 0.014993 0.055954 0.998007 -0.029159 
-0.080511 0.153427 0.028351 -0.278253 0.908556 0.311610 
-0.068218 0.155770 -0.001012 0.419231 0.878083 0.230684 
-0.072096 0.156364 0.000514 0.034170 0.975816 0.215904 
-0.080407 0.155064 0.020957 -0.233491 0.967298 0.099077 
-0.082061 0.151973 0.004324 0.618241 -0.631394 0.468102 
-0.067401 0.156127 0.013847 0.026989 0.997578 -0.064109 
-0.081144 0.153633 0.007546 -0.421170 0.861001 -0.285119 
-0.082555 0.152911 0.007066 -0.553754 0.734525 -0.392210 
-0.061461 0.155749 0.023210 0.180086 0.974816 0.131539 
-0.076316 0.155546 0.023817 -0.144821 0.977490 0.153431 
-0.058599 0.155538 0.018434 0.309532 0.948680 0.064778 
-0.089461 0.148789 0.011184 -0.857998 0.274423 -0.434203 
-0.068761 0.173680 -0.056030 -0.763529 -0.257274 -0.592312 
-0.047199 0.162132 -0.007333 -0.610824 0.137660 -0.779707 
-0.075908 0.150006 -0.008888 -0.977703 -0.123264 -0.170010 
-0.076069 0.150008 -0.009875 -0.977721 -0.141532 -0.155018 
-0.077810 0.148638 -0.003885 -0.921507 0.042622 -0.386016 
-0.068990 0.156345 -0.001302 0.356847 0.890002 0.283825 
-0.057136 0.158766 0.005959 -0.573504 0.800610 0.173540 
-0.077651 0.154407 0.005851 -0.337011 0.923711 -0.182159 
-0.079025 0.153836 0.005364 -0.438720 0.851208 -0.288046 
-0.013225 0.182074 -0.023933 0.800016 0.417793 0.430608 
-0.013723 0.183161 -0.024107 -0.794953 -0.474382 -0.378168 
-0.014166 0.184338 -0.024256 0.681582 0.727015 0.083042 
-0.014630 0.185817 -0.024474 0.567719 0.820964 -0.060937 
-0.015348 0.186173 -0.024595 0.532675 0.842088 -0.084536 
-0.063441 0.156071 0.022505 0.107935 0.989435 0.096789 
-0.063742 0.168365 -0.042688 0.860063 0.479522 0.174212 
-0.064311 0.169365 -0.042882 0.818036 0.535748 0.209265 
-0.064922 0.170267 -0.043097 0.771924 0.587176 0.243635 
-0.065560 0.171143 -0.043321 0.695399 0.658904 0.286821 
-0.066215 0.171945 -0.043554 0.639521 0.700482 0.316762 
-0.066881 0.172737 -0.043792 0.590476 0.730833 0.342376 
-0.067620 0.173390 -0.044064 0.546317 0.753313 0.366138 
-0.068422 0.173931 -0.044369 0.520965 0.764339 0.379975 
-0.069123 0.174646 -0.044619 0.458897 0.787445 0.411513 
-0.069849 0.175309 -0.044889 0.409053 0.803156 0.433147 
-0.070614 0.175903 -0.045183 0.358682 0.817208 0.451129 
-0.071418 0.176406 -0.045459 0.304618 0.830884 0.465660 
-0.072191 0.176974 -0.045748 0.268565 0.839147 0.472975 
-0.073060 0.177343 -0.046073 0.187579 0.855954 0.481826 
-0.073933 0.177709 -0.046406 0.058021 0.876478 0.477933 
-0.074938 0.177982 -0.046777 -0.164500 0.885835 0.433862 
-0.075940 0.177963 -0.047144 -0.468667 0.828926 0.305340 
-0.077105 0.177652 -0.047624 -0.834782 0.550147 0.021839 
-0.075723 0.155771 0.022564 -0.125754 0.985364 0.115085 
-0.068694 0.154419 0.030892 -0.000078 0.936754 0.349990 
-0.070732 0.154624 0.030169 -0.030659 0.942105 0.333913 
-0.076144 0.154623 0.028318 -0.149765 0.946993 0.284211 
-0.065688 0.156227 0.015899 0.045050 0.998514 -0.030661 
-0.081725 0.153192 0.027965 -0.307021 0.900930 0.306696 
-0.087602 0.152029 0.012650 -0.631750 0.720678 -0.285509 
-0.081944 0.154696 0.014580 -0.279418 0.956489 -0.083995 
-0.069971 0.156225 0.014384 0.010707 0.998689 -0.050056 
-0.071309 0.156055 0.010997 -0.000090 0.996674 -0.081485 
-0.079696 0.154266 0.008054 -0.331367 0.918223 -0.216939 
-0.085829 0.151702 0.008931 -0.633314 0.643251 -0.430281 
-0.079248 0.154932 0.011125 -0.230366 0.964157 -0.131655 
-0.060535 0.155832 0.017737 0.187382 0.981624 0.036098 
-0.059544 0.155728 0.018094 0.243177 0.968647 0.050878 
-0.055692 0.159448 0.006485 -0.472660 0.801800 0.365663 
-0.085429 0.151325 0.028294 0.541065 -0.761629 -0.356609 
-0.065246 0.154114 0.001570 0.308076 0.925162 -0.221731 
-0.069822 0.156776 -0.001626 0.314534 0.898887 0.305076 
-0.072409 0.155986 0.010607 -0.023574 0.996214 -0.083681 
-0.067594 0.162379 -0.055989 -0.801412 -0.173826 -0.572296 
-0.073128 0.155734 0.008896 -0.045955 0.995174 -0.086704 
-0.072697 0.155649 0.007593 -0.032500 0.996704 -0.074329 
-0.076212 0.155059 0.006350 -0.220215 0.968069 -0.119778 
-0.070595 0.157132 -0.001878 0.220884 0.915793 0.335459 
-0.071624 0.157487 -0.002256 0.071655 0.931735 0.356000 
-0.067266 0.155709 0.009543 0.036807 0.993807 -0.104846 
-0.015026 0.185694 -0.023164 0.628303 0.772032 0.095922 
-0.015646 0.186781 -0.023370 0.525965 0.849921 0.031542 
-0.080070 0.154441 0.025509 -0.253110 0.941141 0.224031 
-0.081729 0.154617 0.020513 -0.264064 0.959734 0.095811 
-0.054422 0.152991 0.022875 0.780617 0.602170 0.167415 
-0.063593 0.167459 -0.041189 0.870817 0.470561 0.142302 
-0.064155 0.168532 -0.041368 0.831104 0.528303 0.173673 
-0.064759 0.169439 -0.041581 0.787909 0.581244 0.203357 
-0.065380 0.170330 -0.041801 0.710875 0.657952 0.248506 
-0.066043 0.171124 -0.042039 0.654260 0.703247 0.278186 
-0.066717 0.171901 -0.042283 0.601880 0.738431 0.304071 
-0.067433 0.172594 -0.042540 0.557360 0.763455 0.326323 
-0.068166 0.173216 -0.042851 0.515598 0.783041 0.347859 
-0.068936 0.173831 -0.043096 0.471516 0.800233 0.370540 
-0.069711 0.174400 -0.043385 0.422394 0.816371 0.393855 
-0.070483 0.174975 -0.043674 0.367053 0.831714 0.416562 
-0.071252 0.175550 -0.043960 0.312330 0.844422 0.435202 
-0.072070 0.176015 -0.044271 0.250469 0.856340 0.451606 
-0.072895 0.176495 -0.044573 0.206044 0.863492 0.460356 
-0.073687 0.176894 -0.044917 0.099604 0.876476 0.471030 
-0.074679 0.177203 -0.045212 -0.079289 0.882223 0.464108 
-0.075702 0.177226 -0.045623 -0.351539 0.848004 0.396622 
-0.076889 0.176966 -0.046083 -0.782107 0.596399 0.180600 
-0.081346 0.154098 0.025084 -0.305679 0.926679 0.218693 
-0.072466 0.156284 0.017861 -0.049289 0.998783 0.001460 
-0.081792 0.143171 0.000172 -0.815185 0.185266 -0.548772 
-0.072726 0.157431 -0.002653 -0.158172 0.921274 0.355297 
-0.074028 0.157006 -0.003168 -0.563907 0.781375 0.267324 
-0.067092 0.155954 0.025585 0.045624 0.980080 0.193291 
-0.061204 0.154834 0.027675 0.200235 0.948254 0.246416 
-0.060270 0.154572 0.028012 0.260733 0.927761 0.266980 
-0.068140 0.156014 0.025219 0.021771 0.983409 0.180094 
-0.068981 0.155012 0.029311 -0.000847 0.951871 0.306499 
-0.070209 0.156071 0.011388 0.015701 0.996595 -0.080943 
-0.057214 0.154757 0.023288 0.445445 0.883479 0.145067 
-0.062263 0.155951 0.012772 0.038415 0.999261 0.001590 
-0.062003 0.154899 0.004205 0.188204 -0.925554 0.328524 
-0.077127 0.155133 0.008945 -0.188263 0.973557 -0.129395 
-0.052557 0.150877 0.017800 0.916609 0.344754 0.202415 
-0.086242 0.143270 0.008160 -0.869512 0.100162 -0.483649 
-0.080949 0.144539 -0.000826 -0.808786 0.165303 -0.564393 
-0.073715 0.158251 -0.029920 -0.923625 -0.306748 -0.229831 
-0.075430 0.152593 -0.013887 -0.985745 -0.154286 -0.067099 
-0.080094 0.138964 -0.003792 -0.649019 0.138247 -0.748106 
-0.068605 0.155434 -0.051807 0.470204 0.613559 0.634393 
-0.071973 0.155857 0.009308 -0.013024 0.996241 -0.085642 
-0.070735 0.156208 0.022837 -0.029440 0.994245 0.103004 
-0.066222 0.155662 0.009917 0.030730 0.993781 -0.107030 
-0.065123 0.155698 0.010309 0.017762 0.994528 -0.102946 
-0.068361 0.155780 0.009136 0.040497 0.994548 -0.096092 
-0.015482 0.185702 -0.021917 0.696821 0.646231 0.311169 
-0.015977 0.186924 -0.022154 0.547091 0.818773 0.174074 
-0.089317 0.151601 0.019497 0.715943 -0.691981 -0.092667 
-0.084714 0.152577 0.009252 -0.566465 0.735244 -0.372200 
-0.063411 0.166723 -0.039650 0.884922 0.452192 0.111519 
-0.063945 0.167747 -0.039840 0.843572 0.517827 0.142270 
-0.064548 0.168715 -0.040043 0.800707 0.573951 0.171609 
-0.065176 0.169540 -0.040275 0.725593 0.654774 0.211625 
-0.065839 0.170333 -0.040511 0.668455 0.703744 0.240651 
-0.066518 0.171112 -0.040755 0.614004 0.742677 0.267262 
-0.067208 0.171872 -0.041005 0.567351 0.770794 0.289810 
-0.067993 0.172429 -0.041298 0.522801 0.793288 0.312047 
-0.068744 0.173038 -0.041570 0.497354 0.804288 0.325207 
-0.069504 0.173637 -0.041847 0.435819 0.826691 0.355870 
-0.070281 0.174210 -0.042129 0.384132 0.841845 0.379131 
-0.071054 0.174778 -0.042423 0.328449 0.855289 0.400751 
-0.071865 0.175275 -0.042717 0.257136 0.868741 0.423285 
-0.072696 0.175719 -0.043036 0.210341 0.875346 0.435345 
-0.073544 0.175947 -0.043363 0.121366 0.883726 0.451994 
-0.074497 0.176396 -0.043695 -0.021702 0.887478 0.460338 
-0.075614 0.176488 -0.044188 -0.249128 0.865555 0.434453 
-0.076708 0.176155 -0.044565 -0.652357 0.691456 0.310352 
-0.077704 0.175863 -0.045075 0.887206 -0.436707 -0.148836 
-0.076284 0.155844 0.020905 -0.129968 0.988530 0.076920 
-0.067054 0.154574 0.029991 0.022814 0.948111 0.317120 
-0.073489 0.156164 0.020416 -0.070536 0.996156 0.051942 
-0.074588 0.156108 0.020033 -0.091497 0.994569 0.049601 
-0.078001 0.155773 0.018849 -0.161750 0.986031 0.039753 
-0.077098 0.150031 -0.005897 -0.963628 0.035553 -0.264870 
-0.029999 0.178534 -0.014005 -0.626562 0.625874 -0.464437 
-0.071989 0.163815 -0.042969 -0.901869 -0.285366 -0.324342 
-0.078672 0.155640 0.017157 -0.174135 0.984715 0.003563 
-0.073472 0.155984 0.023345 -0.084180 0.988248 0.127589 
-0.062196 0.154993 0.027320 0.143878 0.962586 0.229624 
-0.064488 0.156133 0.022136 0.079336 0.993731 0.078775 
-0.069113 0.156051 0.011784 0.024708 0.996390 -0.081216 
-0.076631 0.155099 0.007666 -0.201263 0.970821 -0.130386 
-0.078386 0.154762 0.008506 -0.249016 0.954691 -0.162961 
-0.071047 0.156278 0.000878 0.139771 0.971071 0.193613 
-0.073438 0.145781 -0.013854 -0.750288 -0.625175 -0.214998 
-0.090960 0.148814 0.014154 -0.930973 0.272728 -0.242710 
-0.074303 0.151276 -0.030884 -0.980774 -0.108941 -0.161909 
-0.071569 0.153984 -0.043905 -0.927915 -0.192175 -0.319441 
-0.077280 0.155549 -0.016903 -0.973270 -0.217899 -0.072571 
-0.076201 0.149986 -0.013876 -0.973646 -0.207089 -0.095543 
-0.090518 0.148805 0.013155 -0.913648 0.267903 -0.305739 
-0.070877 0.155921 0.009697 0.010186 0.996169 -0.086856 
-0.076573 0.153595 0.031171 -0.161989 0.916027 0.366953 
-0.076978 0.155918 0.016285 -0.131564 0.991216 -0.013461 
-0.061831 0.155872 0.011475 -0.009090 0.999584 0.027356 
-0.064027 0.155773 0.010696 0.003205 0.996659 -0.081615 
-0.080771 0.153393 0.006282 -0.476148 0.809437 -0.343649 
-0.079395 0.154018 0.006696 -0.381522 0.889367 -0.251928 
-0.016015 0.185636 -0.020710 0.710673 0.569879 0.412531 
-0.016379 0.186908 -0.020844 0.534057 0.793931 0.290614 
-0.017221 0.187225 -0.021155 -0.436692 -0.878118 -0.195471 
-0.063712 0.167032 -0.038322 0.860943 0.495551 0.114922 
-0.064297 0.167953 -0.038534 0.819777 0.555547 0.139045 
-0.064932 0.168832 -0.038757 0.741123 0.647112 0.178836 
-0.065597 0.169628 -0.038993 0.682599 0.701149 0.206031 
-0.066272 0.170413 -0.039235 0.626592 0.744196 0.231419 
-0.066990 0.171097 -0.039496 0.576321 0.776524 0.254684 
-0.067715 0.171772 -0.039762 0.529076 0.801920 0.277495 
-0.068490 0.172346 -0.040060 0.487497 0.820604 0.298254 
-0.069232 0.172989 -0.040344 0.443890 0.836747 0.320649 
-0.070025 0.173518 -0.040612 0.399311 0.850417 0.342552 
-0.070851 0.173984 -0.040918 0.365083 0.859342 0.358114 
-0.071633 0.174549 -0.041208 0.304846 0.872610 0.381603 
-0.072495 0.174948 -0.041523 0.226642 0.885160 0.406355 
-0.073438 0.175304 -0.041835 0.095815 0.895010 0.435634 
-0.074295 0.175550 -0.042218 0.002142 0.895393 0.445273 
-0.075275 0.175704 -0.042592 -0.103147 0.887908 0.448307 
-0.076447 0.175411 -0.043065 -0.535313 0.755650 0.377402 
-0.077626 0.175005 -0.043567 -0.831846 0.510296 0.218242 
-0.074262 0.155148 0.027465 -0.109270 0.960595 0.255574 
-0.071237 0.156366 0.021201 -0.034263 0.997679 0.058838 
-0.084995 0.141833 0.004186 -0.856473 0.302912 -0.417970 
-0.075966 0.179251 -0.052045 -0.767088 0.586682 -0.259576 
-0.053805 0.159768 -0.001836 -0.724040 0.338214 -0.601146 
-0.061435 0.156032 0.020314 0.167339 0.983888 0.062943 
-0.084218 0.153993 0.019669 -0.347544 0.934287 0.079505 
-0.079256 0.155246 0.021357 -0.203774 0.973630 0.102572 
-0.074066 0.155757 0.024601 -0.100680 0.980631 0.168007 
-0.068016 0.156066 0.012179 0.028781 0.996276 -0.081280 
-0.070638 0.156126 0.012691 0.007994 0.997688 -0.067492 
-0.068352 0.155277 0.001869 0.280968 0.956704 0.075990 
-0.076200 0.149980 -0.014877 -0.971735 -0.215025 -0.097447 
-0.076579 0.154230 -0.001897 -0.836672 0.546710 0.032974 
-0.026447 0.181471 -0.015030 -0.640812 0.684961 -0.346682 
-0.079196 0.168010 -0.037984 -0.995363 0.086054 0.042987 
-0.073559 0.155830 0.010201 -0.055406 0.994567 -0.088134 
-0.069632 0.156261 0.023220 -0.010992 0.993692 0.111602 
-0.060790 0.155834 0.011847 0.009098 0.996453 0.083655 
-0.082980 0.153189 0.008374 -0.491319 0.808806 -0.323170 
-0.062133 0.155990 0.015719 0.091542 0.995800 -0.001633 
-0.016968 0.186741 -0.019667 0.529240 0.773974 0.347662 
-0.054091 0.152763 0.021558 0.809192 0.568189 0.149569 
-0.064042 0.167322 -0.036999 0.831547 0.541322 0.124501 
-0.064651 0.168222 -0.037216 0.760459 0.630533 0.155338 
-0.065302 0.169027 -0.037454 0.699329 0.692070 0.178825 
-0.065981 0.169803 -0.037696 0.640647 0.741053 0.201027 
-0.066705 0.170483 -0.037960 0.587818 0.778003 0.221770 
-0.067435 0.171149 -0.038225 0.539769 0.806254 0.242085 
-0.068210 0.171724 -0.038520 0.495967 0.827870 0.262010 
-0.068978 0.172299 -0.038801 0.448294 0.847028 0.285614 
-0.069789 0.172796 -0.039100 0.419222 0.856934 0.299861 
-0.070616 0.173275 -0.039406 0.349648 0.875629 0.333196 
-0.071427 0.173765 -0.039705 0.315957 0.882810 0.347588 
-0.072247 0.174258 -0.040001 0.242206 0.894888 0.374848 
-0.073124 0.174613 -0.040337 0.144849 0.904068 0.402095 
-0.074108 0.174769 -0.040707 0.020747 0.904831 0.425264 
-0.075085 0.174913 -0.041088 -0.073551 0.897532 0.434773 
-0.076328 0.174543 -0.041565 -0.374025 0.828786 0.416196 
-0.077378 0.174262 -0.042068 -0.765076 0.580406 0.278904 
-0.060180 0.155861 0.013515 0.100160 0.991945 0.077542 
-0.068050 0.156343 0.022324 0.017661 0.996608 0.080383 
-0.071716 0.163822 -0.043957 -0.907844 -0.268123 -0.322381 
-0.078142 0.141688 -0.004736 -0.616058 0.102385 -0.781019 
-0.027072 0.179993 -0.016007 -0.654245 0.562307 -0.505742 
-0.056762 0.154944 0.019095 0.455916 0.885852 0.086064 
-0.066971 0.156006 0.012552 0.029880 0.996416 -0.079132 
-0.063129 0.155254 0.026987 0.127814 0.965922 0.225075 
-0.069541 0.156150 0.013084 0.018633 0.997613 -0.066488 
-0.054758 0.161266 0.001057 -0.738216 0.648779 -0.184725 
-0.084275 0.141807 0.003201 -0.844278 0.296782 -0.446223 
-0.072932 0.156105 0.022075 -0.066984 0.993751 0.089288 
-0.087273 0.151714 0.011303 -0.665955 0.636051 -0.389799 
-0.054413 0.159808 0.006941 -0.431628 0.789867 0.435670 
-0.071740 0.156144 0.012297 -0.009002 0.997524 -0.069750 
-0.062929 0.155832 0.011087 -0.010553 0.999580 -0.027004 
-0.085741 0.151793 0.026648 -0.538912 0.772548 0.335774 
-0.084314 0.152356 0.007931 -0.599454 0.686482 -0.411580 
-0.068445 0.156174 0.013471 0.024825 0.997563 -0.065210 
-0.064456 0.155894 0.011990 0.022114 0.997007 -0.074076 
-0.064999 0.156251 0.020501 0.062549 0.997456 0.034187 
-0.054713 0.153591 0.021308 0.717262 0.684085 0.132526 
-0.063800 0.166551 -0.035494 -0.842550 -0.524851 -0.121000 
-0.064406 0.167520 -0.035695 0.800495 0.583182 0.138228 
-0.065047 0.168333 -0.035932 0.722052 0.671981 0.164567 
-0.065697 0.169193 -0.036156 0.657826 0.730548 0.183207 
-0.066407 0.169883 -0.036417 0.600959 0.773940 0.199664 
-0.067157 0.170490 -0.036697 0.549975 0.806929 0.215390 
-0.067905 0.171131 -0.036968 0.504215 0.832001 0.231390 
-0.068716 0.171626 -0.037271 0.476864 0.844950 0.242200 
-0.069532 0.172114 -0.037573 0.429866 0.863891 0.262502 
-0.070349 0.172644 -0.037875 0.353037 0.887170 0.297143 
-0.071189 0.173044 -0.038195 0.317292 0.895398 0.312391 
-0.072065 0.173384 -0.038531 0.242797 0.907910 0.341685 
-0.072956 0.173805 -0.038840 0.153339 0.916201 0.370219 
-0.073859 0.174047 -0.039196 0.030547 0.916595 0.398649 
-0.074830 0.174171 -0.039585 -0.126190 0.900138 0.416927 
-0.076078 0.173825 -0.040050 -0.396608 0.823317 0.406018 
-0.077229 0.173502 -0.040542 -0.672312 0.662634 0.330019 
-0.076784 0.155599 0.011980 -0.142582 0.985631 -0.090565 
-0.081434 0.154656 0.013286 -0.288447 0.949223 -0.125596 
-0.067006 0.156281 0.022694 0.037693 0.994958 0.092945 
-0.061969 0.155933 0.021579 0.160361 0.983033 0.089051 
-0.065929 0.156005 0.012920 0.030023 0.996700 -0.075411 
-0.052401 0.152599 0.013460 0.690951 0.515642 0.506656 
-0.046022 0.166062 0.004012 -0.147957 0.630495 0.761961 
-0.082362 0.154598 0.018831 -0.273485 0.960655 0.048453 
-0.047170 0.165970 0.003632 0.203760 -0.658046 -0.724884 
-0.036283 0.173420 -0.001089 0.125250 0.593664 0.794906 
-0.073199 0.145774 -0.014855 -0.710623 -0.671468 -0.210110 
-0.079464 0.141716 -0.003767 -0.693672 0.148944 -0.704723 
-0.071332 0.151217 -0.043920 0.704723 0.558624 0.437383 
-0.071321 0.156784 -0.042915 -0.979007 0.033638 -0.201034 
-0.059694 0.155857 0.012237 0.041416 0.989577 0.137923 
-0.073854 0.155510 0.007182 -0.080801 0.993783 -0.076590 
-0.066182 0.154393 0.001218 0.359437 0.924872 -0.124170 
-0.058810 0.157344 0.005300 -0.599035 0.798548 -0.058981 
-0.065129 0.156206 0.017551 0.052827 0.998532 -0.011929 
-0.086644 0.152376 0.023363 -0.564547 0.788042 0.245514 
-0.072963 0.155811 0.024981 -0.079423 0.980976 0.177140 
-0.059054 0.155341 0.022621 0.297306 0.946629 0.124511 
-0.021514 0.185205 -0.018445 -0.566770 0.778595 -0.269371 
-0.060061 0.155861 0.016459 0.192329 0.980441 0.041768 
-0.055473 0.154191 0.021018 0.577013 0.809321 0.109793 
-0.078196 0.163891 -0.025949 -0.988722 0.097423 0.113743 
-0.064157 0.166823 -0.034174 0.809509 0.570056 0.140471 
-0.064787 0.167644 -0.034408 0.765314 0.624524 0.155769 
-0.065431 0.168513 -0.034631 0.682488 0.708809 0.178327 
-0.066103 0.169296 -0.034874 0.618519 0.761823 0.192508 
-0.066829 0.169972 -0.035138 0.561093 0.802040 0.204710 
-0.067593 0.170560 -0.035421 0.509462 0.832839 0.216398 
-0.068398 0.171087 -0.035707 0.463897 0.855937 0.228412 
-0.069191 0.171601 -0.036014 0.436445 0.868014 0.236787 
-0.070019 0.172057 -0.036324 0.384249 0.887213 0.255355 
-0.070882 0.172457 -0.036647 0.322294 0.904826 0.278238 
-0.071761 0.172825 -0.036973 0.247087 0.919565 0.305528 
-0.072708 0.173064 -0.037335 0.161206 0.928863 0.333505 
-0.073631 0.173473 -0.037670 0.033378 0.930318 0.365231 
-0.074583 0.173457 -0.038075 -0.123676 0.912129 0.390800 
-0.075832 0.173116 -0.038532 -0.334342 0.855139 0.396173 
-0.063805 0.152122 -0.002245 -0.675571 -0.711402 0.193681 
-0.064486 0.152894 -0.002507 0.683149 0.723183 -0.101557 
-0.077524 0.155819 0.017560 -0.144629 0.989410 0.012227 
-0.078907 0.155396 0.014159 -0.189105 0.979743 -0.065901 
-0.066016 0.156182 0.023046 0.051052 0.993524 0.101512 
-0.065189 0.153592 -0.002787 0.678953 0.734182 -0.000947 
-0.065860 0.154377 -0.003046 0.671288 0.735047 0.095278 
-0.055881 0.154815 0.016521 0.464890 0.874176 0.140334 
-0.056816 0.155074 0.016183 0.389701 0.912056 0.127619 
-0.057706 0.155408 0.015858 0.317732 0.941639 0.111185 
-0.058643 0.155634 0.015520 0.245557 0.965212 0.089826 
-0.064831 0.156078 0.013307 0.033280 0.997479 -0.062670 
-0.053007 0.153493 0.013225 0.647433 0.584375 0.489220 
-0.058623 0.156199 0.009715 -0.121315 0.945315 0.302758 
-0.057472 0.156359 0.010123 -0.071315 0.919364 0.386891 
-0.056364 0.156406 0.010511 0.002358 0.886933 0.461892 
-0.054449 0.156028 0.011241 0.173939 0.817596 0.548891 
-0.053575 0.155622 0.011532 0.290474 0.750799 0.593234 
-0.055385 0.156280 0.010891 0.074833 0.866563 0.493425 
-0.087033 0.152942 0.018755 -0.527291 0.849058 0.032633 
-0.066541 0.155108 -0.003311 0.637202 0.746701 0.190815 
-0.080453 0.143139 -0.001812 -0.789945 0.167056 -0.589982 
-0.087655 0.144675 0.009177 -0.852402 -0.045031 -0.520945 
-0.069118 0.165207 -0.051981 -0.923205 -0.103418 -0.370132 
-0.058709 0.155741 0.012590 0.095062 0.976853 0.191627 
-0.067196 0.155910 -0.003559 0.564609 0.770622 0.295564 
-0.054554 0.160714 0.005405 0.553083 -0.783649 -0.282831 
-0.053175 0.160014 0.007336 -0.266496 0.742464 0.614595 
-0.050881 0.161419 0.006662 -0.219991 0.697763 0.681711 
-0.067948 0.156599 -0.003850 0.492236 0.795745 0.352837 
-0.069835 0.155896 0.010068 0.019651 0.995884 -0.088486 
-0.068604 0.157344 -0.004099 0.418730 0.820957 0.388194 
-0.083879 0.153353 0.024235 -0.393333 0.887871 0.238692 
-0.069396 0.157876 -0.004377 0.328815 0.847969 0.415727 
-0.019589 0.186548 -0.016332 0.520485 0.646166 0.558181 
-0.020343 0.186558 -0.016601 0.476647 0.693445 0.540316 
-0.022279 0.185099 -0.017182 -0.485253 0.867623 -0.108447 
-0.070269 0.156361 0.018637 -0.007230 0.999967 0.003757 
-0.056300 0.154681 0.020716 0.517410 0.849598 0.102324 
-0.070184 0.158483 -0.004654 0.272268 0.861695 0.428196 
-0.063362 0.165109 -0.032456 0.863597 0.489522 0.120700 
-0.063950 0.166025 -0.032672 0.825135 0.547050 0.141029 
-0.064550 0.166996 -0.032877 0.779353 0.606097 0.158916 
-0.065168 0.167884 -0.033097 0.703591 0.686794 0.182412 
-0.065851 0.168603 -0.033351 0.641505 0.741647 0.196036 
-0.066549 0.169315 -0.033608 0.579729 0.788128 0.206806 
-0.067278 0.169987 -0.033870 0.521824 0.825277 0.215913 
-0.068055 0.170560 -0.034159 0.470702 0.853317 0.224252 
-0.068851 0.171089 -0.034453 0.421164 0.876358 0.233704 
