157.76 38.537 -619.12 -0.081283 0.20159 0.97609
158.32 38.409 -619.13 0.049019 0.16907 0.98438
158.87 38.184 -619.19 0.23399 0.1501 0.96058
159.45 37.714 -619.4 0.43664 0.21484 0.87361
160.01 37.174 -619.64 0.63483 0.11914 0.76341
160.6 36.094 -620.17 0.70088 0.077081 0.7091
161.19 35.143 -620.63 0.72616 0.062154 0.68471
161.79 33.798 -621.31 0.68807 -0.035409 0.72478
162.38 32.748 -621.84 0.59961 -0.016233 0.80013
162.97 31.645 -622.37 0.45712 0.0066717 0.88938
163.55 31.192 -622.56 0.39617 0.080312 0.91466
164.13 30.811 -622.72 0.30694 0.084871 0.94794
164.7 30.383 -622.89 0.22076 0.12375 0.96745
165.26 30.215 -622.92 0.15139 0.11895 0.98129
165.83 29.972 -622.99 0.082513 0.12035 0.9893
166.4 29.809 -623.02 0.10708 0.14683 0.98335
166.97 29.638 -623.06 0.13568 0.21428 0.9673
167.54 29.437 -623.1 0.23051 0.2252 0.94665
168.11 29.236 -623.15 0.33485 0.23915 0.91142
168.69 28.757 -623.35 0.45792 0.24563 0.85439
169.27 28.224 -623.59 0.57329 0.28561 0.76796
169.87 27.457 -623.94 0.70451 0.37384 0.60325
170.47 26.787 -624.24 0.74195 0.39777 0.53971
171.08 25.89 -624.68 0.83959 0.34978 0.41562
171.69 24.855 -625.19 0.89665 0.30007 0.32556
172.34 23.279 -625.99 0.90439 0.31499 0.28785
172.95 22.414 -626.4 0.91052 0.31494 0.26791
-47.144 -1.0427 -662.87 0.22359 -0.91616 0.33265
-46.421 -0.7832 -662.64 0.18099 -0.97279 0.14461
-45.684 -0.44758 -662.38 0.12853 -0.96933 0.20949
-45.055 -0.46119 -662.31 -0.10918 -0.97784 0.17865
-44.497 -0.66996 -662.37 -0.1245 -0.98439 0.12441
-42.449 -4.0563 -664.02 -0.57251 -0.80158 0.17231
-41.951 -4.4611 -664.19 -0.58811 -0.79073 0.16991
-38.756 -12.413 -668.24 0.79621 0.36371 0.48349
-38.251 -12.868 -668.44 0.85603 0.30907 0.41434
-37.888 -13.743 -668.89 -0.8659 -0.41312 -0.28205
-37.538 -14.673 -669.36 0.96454 0.21204 0.15716
-37.393 -16.285 -670.24 -0.98397 -0.15836 0.082054
-37.012 -21.341 -673 -0.90609 -0.31675 0.28048
-6.2203 -15.249 -666.25 0.55415 -0.77 0.31624
-5.3668 -14.416 -665.7 0.53312 -0.77833 0.33165
-4.5628 -13.764 -665.25 0.52455 -0.78649 0.326
-3.6454 -12.653 -664.53 0.55214 -0.78802 0.27235
-2.8921 -12.206 -664.2 0.56308 -0.78787 0.24939
-2.024 -11.286 -663.6 0.50775 -0.8362 0.20727
-1.2827 -10.868 -663.29 0.50625 -0.84681 0.16318
-0.54185 -10.458 -662.98 0.48627 -0.86849 0.096268
0.2529 -9.7885 -662.52 0.57646 -0.81709 -0.0074402
1.0462 -9.1517 -662.09 -0.57817 0.8142 0.052949
1.7878 -8.7256 -661.76 -0.53526 0.84252 0.060555
21.4 -2.4517 -656.14 -0.016341 -0.9749 0.22206
67.824 66.918 -612.62 -0.059821 0.87236 0.48519
68.38 67.03 -612.5 -0.012442 0.85376 0.52052
68.92 67.03 -612.45 -0.12611 0.80382 0.58135
69.472 67.094 -612.35 0.083782 0.84503 0.52812
70.013 67.119 -612.28 0.14778 0.78871 0.59674
70.508 66.844 -612.37 -0.43883 -0.80948 -0.3901
71.011 66.543 -612.48 0.62104 0.70633 0.33972
71.492 66.179 -612.64 0.73262 0.64943 0.20375
71.954 65.664 -612.87 0.7665 0.6355 0.092832
72.41 65.037 -613.17 0.78304 0.61982 0.051645
72.856 64.413 -613.46 -0.80586 -0.59127 -0.031438
73.316 63.849 -613.73 0.7244 0.61486 0.31175
73.807 63.503 -613.86 0.70209 0.6116 0.36472
74.312 63.224 -613.97 0.68399 0.63229 0.36382
74.799 62.804 -614.15 0.74095 0.62624 0.24253
75.242 62.114 -614.48 -0.8556 -0.51724 -0.020326
75.646 61.067 -615.02 -0.92045 -0.3906 0.013957
76.099 60.384 -615.34 -0.93263 -0.36034 0.018794
98.282 34.861 -627.06 0.1119 0.87602 0.46911
103.84 33.443 -627.23 0.20643 0.75536 0.62194
104.39 33.298 -627.25 0.23659 0.75291 0.61412
104.96 33.178 -627.26 0.28048 0.74664 0.60321
105.5 32.945 -627.33 0.23539 0.7528 0.61472
106.06 32.791 -627.35 0.19664 0.78798 0.58345
106.62 32.734 -627.32 0.17442 0.81686 0.54983
107.18 32.622 -627.32 0.21033 0.83195 0.51345
107.73 32.373 -627.4 0.258 0.79554 0.54823
108.29 32.202 -627.44 0.10069 0.79627 0.5965
108.86 32.21 -627.36 0.033354 0.76198 0.64674
109.43 32.224 -627.29 -0.023273 0.77502 0.63151
109.99 32.126 -627.29 0.077551 0.8472 0.52559
110.55 32.038 -627.27 0.17475 0.87184 0.45756
111.11 31.901 -627.29 0.12477 0.84992 0.51193
111.68 31.794 -627.29 -0.059334 0.74825 0.66076
112.24 31.849 -627.2 -0.10134 0.78813 0.60711
112.83 32.201 -626.94 -0.42561 0.50699 0.74955
113.41 32.535 -626.68 -0.30908 0.64399 0.69982
113.98 32.541 -626.62 -0.12633 0.82128 0.55636
114.55 32.445 -626.61 -0.011248 0.84801 0.52987
115.1 32.379 -626.59 -0.012761 0.82585 0.56375
115.67 32.338 -626.55 -0.12269 0.7325 0.66962
116.25 32.497 -626.39 -0.26071 0.66818 0.69683
116.82 32.687 -626.23 -0.24012 0.70113 0.67139
117.39 32.718 -626.15 -0.12107 0.76475 0.63286
117.95 32.66 -626.12 -0.07259 0.72291 0.68712
118.51 32.652 -626.06 -0.10781 0.7064 0.69955
119.09 32.729 -625.96 -0.10896 0.71127 0.69442
119.65 32.73 -625.89 -0.0051639 0.74383 0.66835
120.21 32.705 -625.84 -0.059198 0.74706 0.66211
120.78 32.551 -625.87 -0.12409 0.70689 0.69636
121.35 32.766 -625.69 -0.24231 0.64075 0.72851
121.92 32.851 -625.58 -0.34007 0.59477 0.72842
122.49 32.987 -625.45 -0.30911 0.55908 0.76933
123.06 33.188 -625.26 -0.33231 0.52923 0.7807
123.63 33.378 -625.1 -0.21998 0.62214 0.75137
124.2 33.37 -625.04 -0.14032 0.70444 0.69575
124.75 33.329 -625 -0.10726 0.68183 0.72361
125.32 33.44 -624.88 -0.14476 0.65463 0.74196
125.89 33.511 -624.77 -0.11121 0.6914 0.71386
126.45 33.476 -624.74 -0.018358 0.77408 0.63282
127.01 33.405 -624.71 0.00066711 0.79507 0.60652
137.15 34.8 -622.83 -0.24282 0.46951 0.84888
146.63 38.616 -619.67 -0.075675 0.36135 0.92935
147.19 38.529 -619.65 -0.052739 0.38663 0.92073
153.3 37.432 -619.59 0.092284 0.25125 0.96351
153.85 37.279 -619.62 0.057686 0.27467 0.95981
154.41 37.201 -619.59 0.027237 0.28202 0.95902
154.97 37.085 -619.6 -0.019045 0.30666 0.95163
155.52 37.07 -619.55 -0.070385 0.32122 0.94439
156.07 37.11 -619.46 -0.27586 0.32224 0.90557
156.62 37.376 -619.25 -0.36536 0.33228 0.86954
157.17 37.594 -619.07 -0.23927 0.22443 0.94466
157.73 37.641 -618.99 0.0038216 0.17402 0.98474
158.28 37.632 -618.94 0.12845 0.15363 0.97974
158.84 37.318 -619.05 0.21072 0.12666 0.9693
159.4 36.941 -619.19 0.41557 0.12645 0.90073
159.98 36.19 -619.55 0.60214 0.057982 0.79628
160.56 35.176 -620.04 0.67663 0.04034 0.73522
161.15 34.046 -620.61 0.70559 -0.026226 0.70813
161.77 32.459 -621.41 0.64931 -0.032106 0.75984
162.35 31.443 -621.92 0.59068 -0.027461 0.80644
162.94 30.733 -622.25 0.48175 -0.028951 0.87583
163.52 30.208 -622.48 0.33701 0.023295 0.94121
164.1 29.652 -622.71 0.22371 0.11869 0.9674
164.67 29.465 -622.76 0.17728 0.15839 0.97133
165.23 29.23 -622.83 0.13571 0.14257 0.98044
165.8 29.021 -622.88 0.073538 0.14164 0.98718
166.37 28.98 -622.84 0.044252 0.16414 0.98544
166.93 28.859 -622.84 0.09657 0.19549 0.97594
167.5 28.641 -622.9 0.22119 0.18307 0.95789
168.08 28.292 -623.03 0.28054 0.15654 0.94699
168.66 27.783 -623.24 0.3474 0.30476 0.88681
169.24 27.515 -623.33 0.47402 0.42377 0.77184
169.82 27.015 -623.55 0.6742 0.38639 0.62941
170.42 26.408 -623.82 0.75196 0.35078 0.55813
-44.345 -0.38899 -661.5 0.37415 0.9271 0.022278
-41.763 -4.0594 -663.24 -0.58756 -0.78515 0.19574
-41.277 -4.5127 -663.44 -0.71043 -0.66306 0.2359
-40.818 -5.0659 -663.69 -0.81668 -0.50385 0.28137
-40.654 -6.5115 -664.48 -0.90366 -0.32808 0.27527
-40.444 -7.8315 -665.19 -0.89591 -0.29965 0.32797
-8.95 -18.424 -667.59 0.50303 -0.75509 0.42048
-7.7728 -16.381 -666.33 0.55192 -0.73434 0.39513
-6.9475 -15.697 -665.86 0.5571 -0.77108 0.30834
-6.0064 -14.535 -665.12 0.5607 -0.76883 0.30743
69.946 66.745 -611.88 0.24936 0.71578 0.65229
70.453 66.515 -611.95 0.38305 0.68671 0.61782
70.963 66.325 -612 0.52151 0.7057 0.47959
71.453 65.962 -612.15 0.65684 0.67339 0.33927
71.929 65.526 -612.34 0.74293 0.62773 0.23238
72.391 64.995 -612.58 0.7682 0.63333 0.093606
72.863 64.488 -612.81 0.79603 0.60257 0.056982
85.938 36.425 -626.9 -0.10597 0.93158 0.34774
86.511 36.479 -626.8 -0.034539 0.93199 0.36083
90.991 36.008 -626.57 0.22964 0.91329 0.33641
91.544 35.888 -626.57 0.21543 0.92419 0.31538
92.09 35.631 -626.66 0.22339 0.94283 0.24733
92.657 35.589 -626.62 0.20722 0.94414 0.25624
93.209 35.445 -626.64 0.15103 0.95171 0.26727
93.766 35.404 -626.6 0.11386 0.96173 0.24923
94.333 35.363 -626.56 0.14397 0.95172 0.27112
94.886 35.232 -626.58 0.17977 0.94954 0.25701
95.436 35.057 -626.61 0.18771 0.94421 0.2706
96.003 35.008 -626.58 0.14433 0.949 0.28028
96.555 34.888 -626.58 0.13345 0.94471 0.29953
97.122 34.83 -626.55 0.13364 0.92421 0.35775
97.678 34.765 -626.53 0.12012 0.87411 0.47063
98.232 34.659 -626.53 0.11396 0.87365 0.47302
99.895 34.193 -626.6 0.24815 0.79802 0.54917
100.46 34.064 -626.61 0.25993 0.77635 0.57422
101.01 33.936 -626.62 0.2383 0.76486 0.59851
101.56 33.758 -626.66 0.25108 0.74405 0.61915
102.12 33.596 -626.69 0.2637 0.72841 0.63236
102.67 33.429 -626.72 0.24441 0.71571 0.65423
103.22 33.211 -626.79 0.23489 0.72797 0.64411
103.79 33.139 -626.75 0.21952 0.74518 0.62969
104.34 32.986 -626.78 0.19331 0.75454 0.62713
104.9 32.808 -626.82 0.29034 0.73921 0.60767
105.45 32.655 -626.85 0.28678 0.73642 0.61273
106.01 32.471 -626.88 0.16738 0.74384 0.64706
106.56 32.389 -626.87 0.15222 0.77851 0.60889
107.12 32.252 -626.88 0.17887 0.76909 0.6136
107.69 32.147 -626.88 0.25714 0.78951 0.55728
108.24 31.97 -626.92 0.23359 0.7748 0.58747
108.8 31.753 -626.98 -0.00050404 0.74411 0.66806
109.37 31.799 -626.89 -0.088556 0.73578 0.6714
109.94 31.884 -626.78 -0.0065091 0.77382 0.63338
110.5 31.805 -626.76 0.076431 0.85175 0.51834
111.06 31.627 -626.8 0.17885 0.86518 0.46849
111.62 31.531 -626.79 0.074953 0.87599 0.47647
112.18 31.424 -626.79 -0.076789 0.76113 0.64404
112.75 31.463 -626.71 -0.23912 0.60169 0.7621
116.76 32.086 -625.92 -0.19929 0.67102 0.71415
117.33 32.326 -625.72 -0.17006 0.62242 0.76398
117.89 32.268 -625.69 -0.10012 0.70716 0.69993
118.45 32.25 -625.65 -0.057476 0.70695 0.70492
121.86 32.451 -625.16 -0.23768 0.60601 0.75912
122.42 32.427 -625.11 -0.24613 0.60449 0.75764
122.99 32.562 -624.97 -0.31163 0.51223 0.80031
123.57 32.864 -624.74 -0.34136 0.49729 0.79761
124.14 32.983 -624.61 -0.17188 0.59334 0.78639
124.7 33.014 -624.54 -0.13524 0.66377 0.73561
125.26 32.877 -624.55 -0.15819 0.68581 0.71038
125.83 33.02 -624.41 -0.15331 0.65418 0.74063
126.39 33.147 -624.28 -0.11963 0.70144 0.70262
126.96 33.09 -624.25 -0.049488 0.70777 0.7047
127.52 33.041 -624.21 -0.03828 0.75588 0.65359
128.08 33.041 -624.15 -0.058713 0.7497 0.65917
128.65 33.064 -624.07 -0.011825 0.71418 0.69986
129.2 32.982 -624.06 -0.011031 0.67232 0.74018
129.77 32.902 -624.04 -0.050408 0.61569 0.78637
130.32 32.884 -623.99 -0.15736 0.54025 0.82666
130.89 32.981 -623.87 -0.21129 0.48159 0.85054
131.46 33.234 -623.68 -0.24364 0.46726 0.84989
132.02 33.298 -623.58 -0.23405 0.38301 0.8936
132.58 33.241 -623.55 -0.23283 0.35229 0.90647
133.15 33.288 -623.46 -0.26793 0.338 0.9022
133.71 33.473 -623.29 -0.34918 0.3354 0.87497
134.28 33.655 -623.13 -0.35933 0.35118 0.86461
134.85 33.984 -622.89 -0.23653 0.5551 0.79744
135.41 34.128 -622.75 -0.17456 0.52036 0.83592
135.97 34.07 -622.72 -0.18381 0.58173 0.79234
136.53 34.046 -622.66 -0.17475 0.57388 0.80008
137.09 33.989 -622.64 -0.18042 0.54422 0.81931
137.65 34.189 -622.47 -0.18757 0.53692 0.82252
138.21 34.228 -622.39 -0.23494 0.48333 0.84332
138.77 34.317 -622.27 -0.33897 0.38534 0.85826
139.34 34.99 -621.84 -0.64931 0.12256 0.75059
139.91 36.305 -621.05 -0.66598 0.045488 0.74458
140.47 36.962 -620.63 -0.44842 0.24761 0.85884
141.03 37.068 -620.5 -0.43109 0.24717 0.8678
141.59 37.259 -620.34 -0.33624 0.2927 0.89513
142.14 37.387 -620.21 -0.33288 0.293 0.89629
142.69 37.604 -620.03 -0.3088 0.30613 0.90051
143.25 37.781 -619.86 -0.25809 0.32766 0.90886
143.81 37.804 -619.79 -0.18608 0.31824 0.92957
144.36 37.781 -619.74 -0.15516 0.30163 0.94071
144.92 37.892 -619.62 -0.15745 0.3112 0.93721
145.48 37.909 -619.54 -0.13348 0.36149 0.92277
146.02 37.875 -619.51 -0.062401 0.3127 0.9478
146.58 37.892 -619.43 -0.044406 0.30849 0.95019
147.14 37.844 -619.4 -0.00027106 0.2785 0.96044
147.69 37.826 -619.36 -0.016458 0.26951 0.96286
152.14 36.925 -619.36 0.086728 0.25381 0.96336
152.69 36.851 -619.35 0.083576 0.25226 0.96404
153.25 36.684 -619.37 0.056011 0.24905 0.96687
153.81 36.561 -619.38 0.036558 0.24943 0.9677
154.36 36.537 -619.33 0.039129 0.25366 0.9665
154.92 36.383 -619.36 -0.061223 0.25414 0.96523
155.47 36.36 -619.31 -0.05355 0.25067 0.96659
156.03 36.425 -619.21 -0.21537 0.21387 0.95282
156.58 36.65 -619.02 -0.30027 0.20565 0.93142
157.13 36.883 -618.83 -0.18318 0.16908 0.96843
157.68 36.763 -618.84 -0.0093961 0.1263 0.99195
158.24 36.609 -618.86 0.14327 0.090814 0.98551
158.8 36.335 -618.96 0.27908 0.048609 0.95904
159.36 35.885 -619.14 0.3781 0.060355 0.9238
159.95 35.183 -619.46 0.57556 0.052688 0.81606
160.53 34.184 -619.95 0.65862 0.016223 0.7523
161.13 32.716 -620.7 0.70199 -0.053132 0.71021
161.73 31.395 -621.37 0.63585 -0.055421 0.76982
162.33 30.226 -621.95 0.55861 -0.051142 0.82785
162.92 29.414 -622.32 0.30139 -0.0045932 0.95349
163.49 29.066 -622.46 0.19943 0.086633 0.97608
164.06 28.878 -622.5 0.19513 0.1392 0.97085
164.63 28.71 -622.53 0.17877 0.16266 0.97035
165.21 28.328 -622.68 0.1683 0.16031 0.97261
165.77 28.11 -622.74 0.056688 0.14358 0.98801
166.34 28.006 -622.73 0.048195 0.12673 0.99077
166.9 27.965 -622.69 0.044718 0.12642 0.99097
167.47 27.697 -622.78 0.15715 0.1694 0.97294
168.05 27.365 -622.9 0.27219 0.27072 0.92337
168.62 27.202 -622.93 0.29747 0.2897 0.90972
169.2 26.92 -623.02 0.37069 0.35068 0.86001
169.78 26.475 -623.2 0.61187 0.37086 0.69863
170.37 25.919 -623.44 0.67253 0.33174 0.66156
170.97 25.111 -623.82 -0.78872 -0.31516 -0.52782
171.58 24.181 -624.28 0.83289 0.32242 0.44981
172.22 22.84 -624.95 0.89205 0.32368 0.3154
172.85 21.427 -625.65 0.90123 0.32399 0.28778
173.48 20.321 -626.19 0.90473 0.31604 0.28563
-46.946 -0.77238 -661.28 -0.35077 0.93645 0.0042742
-46.151 -0.29569 -660.93 -0.20598 0.91755 0.3401
-45.499 -0.23962 -660.83 0.090317 0.87863 0.46889
-44.88 -0.25496 -660.78 0.19248 0.88939 0.41465
-44.31 -0.42608 -660.81 0.31027 0.83424 0.45583
-43.824 -0.86032 -660.99 0.57134 0.79693 0.19615
-40.454 -6.0613 -663.49 -0.89495 -0.38312 0.22866
-40.161 -7.1157 -664.04 -0.90286 -0.32852 0.27736
-40.011 -8.64 -664.87 -0.91496 -0.24029 0.3242
-38.919 -13.264 -667.3 0.85927 0.40977 0.30618
-38.425 -13.732 -667.5 0.82448 0.47125 0.31331
-37.917 -14.146 -667.67 0.85918 0.4495 0.24446
-37.509 -14.921 -668.05 0.92276 0.34498 0.17175
-37.303 -16.321 -668.81 -0.9644 -0.26439 0.0051018
-36.919 -17.165 -669.23 -0.96658 -0.25064 0.053815
-36.619 -20.363 -670.96 -0.87682 -0.36743 0.31014
-36.573 -22.32 -672.03 -0.87676 -0.36299 0.31547
-36.144 -23.063 -672.39 -0.87676 -0.36299 0.31547
-1.9455 -11.179 -662.11 0.49819 -0.86705 0.0058485
-1.1911 -10.707 -661.77 0.45999 -0.88792 -6.5546e-05
-0.4862 -10.416 -661.53 -0.48921 0.87072 0.050166
0.3057 -9.7926 -661.09 -0.55147 0.82849 0.097415
21.018 -1.4767 -654.25 0.69227 -0.64786 0.31787
27.726 9.888 -647.25 0.5461 -0.74081 0.39112
65.808 64.395 -613.01 0.74312 -0.61829 0.2559
66.713 66.757 -611.61 0.52943 -0.77799 0.33829
67.362 67.503 -611.13 -0.15905 -0.98142 0.10736
67.899 67.465 -611.1 0.22573 0.97419 0.0011741
68.363 66.991 -611.3 0.47768 0.86609 0.14732
68.859 66.738 -611.39 0.45251 0.85819 0.24235
69.363 66.446 -611.49 -0.3536 -0.88225 -0.31081
69.862 66.231 -611.57 -0.31991 -0.61808 -0.71807
70.384 66.098 -611.58 0.37002 0.75493 0.54145
70.894 65.918 -611.62 0.42349 0.70933 0.56348
71.387 65.61 -611.74 0.53333 0.67957 0.50373
71.892 65.331 -611.84 0.65908 0.61107 0.43841
72.355 64.841 -612.06 0.74784 0.62615 0.22063
72.844 64.446 -612.22 0.77761 0.60829 0.1591
73.272 63.669 -612.61 -0.81782 -0.5682 -0.091251
73.729 63.058 -612.9 0.71514 0.673 0.1888
74.189 62.513 -613.14 0.60812 0.73525 0.29933
74.711 62.363 -613.17 0.65852 0.70288 0.26891
75.213 62.03 -613.3 0.7328 0.63629 0.24112
75.671 61.443 -613.57 0.84193 0.52343 0.13106
75.976 59.665 -614.52 -0.93879 -0.34007 -0.055023
104.28 32.624 -626.34 0.24233 0.6993 0.6725
104.84 32.495 -626.35 0.23892 0.69225 0.68096
105.39 32.213 -626.45 0.24193 0.74005 0.62754
105.95 32.125 -626.43 0.21365 0.73835 0.63968
106.5 31.931 -626.49 0.17658 0.70107 0.69089
107.06 31.86 -626.45 0.13145 0.681 0.72039
107.63 31.786 -626.44 0.15812 0.73247 0.66218
108.18 31.608 -626.48 0.24132 0.74874 0.61737
108.74 31.44 -626.5 0.065274 0.76912 0.63576
109.29 31.304 -626.52 -0.052397 0.75457 0.65412
109.87 31.46 -626.38 -0.089446 0.73883 0.66793
110.44 31.468 -626.3 -0.019138 0.76179 0.64754
111.01 31.402 -626.28 0.088041 0.83846 0.5378
111.57 31.304 -626.28 0.1325 0.87676 0.46232
112.13 31.241 -626.24 0.056405 0.8782 0.47495
112.69 31.109 -626.26 0.034885 0.88271 0.46862
113.26 31.213 -626.13 -0.27986 0.71653 0.63896
113.85 31.611 -625.85 -0.38344 0.60753 0.69561
114.44 31.946 -625.6 -0.29337 0.65919 0.69239
115 31.865 -625.59 -0.042485 0.85337 0.51956
115.56 31.752 -625.58 0.085529 0.86509 0.49428
116.13 31.686 -625.56 0.030541 0.86149 0.50685
116.69 31.653 -625.51 -0.091372 0.77012 0.63132
117.25 31.676 -625.44 -0.19846 0.70178 0.68419
117.83 31.89 -625.26 -0.12271 0.66643 0.7354
118.39 31.888 -625.21 -0.07365 0.71456 0.69568
118.96 31.847 -625.17 -0.091675 0.67937 0.72804
119.53 31.863 -625.09 -0.070418 0.67862 0.73111
120.09 31.902 -625 -0.062855 0.69805 0.71328
120.66 31.844 -624.98 -0.07002 0.74501 0.66336
121.22 31.771 -624.96 -0.11958 0.57619 0.80852
121.79 31.914 -624.82 -0.19563 0.57884 0.79162
122.36 32.082 -624.66 -0.25709 0.57613 0.77587
122.92 31.983 -624.65 -0.22697 0.53089 0.81648
123.5 32.19 -624.48 -0.27209 0.42435 0.86365
124.07 32.405 -624.3 -0.36216 0.45961 0.81093
124.63 32.556 -624.15 -0.28036 0.57944 0.76528
145.97 37.24 -619.22 -0.099671 0.25124 0.96278
146.53 37.222 -619.18 -0.003153 0.25495 0.96695
147.09 37.005 -619.24 0.015875 0.23473 0.97193
147.64 36.901 -619.23 0.02267 0.22643 0.97376
148.19 36.925 -619.16 0.0076023 0.22058 0.97534
151.53 36.296 -619.13 0.051724 0.26186 0.96372
152.09 36.168 -619.14 0.076749 0.26969 0.95988
152.65 35.989 -619.19 0.090689 0.26352 0.96038
153.2 35.894 -619.17 0.1068 0.23959 0.96498
153.76 35.74 -619.2 0.051529 0.2058 0.97724
154.31 35.612 -619.21 -0.006859 0.19593 0.98059
154.87 35.572 -619.17 -0.044193 0.20268 0.97825
155.43 35.523 -619.13 -0.092964 0.21694 0.97175
155.99 35.505 -619.09 -0.20202 0.1982 0.95912
156.53 35.65 -618.95 -0.24846 0.18306 0.95119
157.09 35.916 -618.73 -0.15483 0.1147 0.98126
157.64 35.818 -618.73 -0.018972 0.12133 0.99243
158.21 35.529 -618.83 0.17376 0.12441 0.9769
158.76 35.295 -618.9 0.31214 0.084813 0.94624
159.34 34.812 -619.1 0.39413 0.075701 0.91593
159.91 34.128 -619.41 0.58942 0.017598 0.80764
160.5 32.871 -620.04 0.67768 -0.056337 0.73319
161.11 31.453 -620.76 0.67632 -0.081048 0.73213
161.71 29.897 -621.55 0.58889 -0.12829 0.79797
162.31 28.722 -622.13 0.31868 -0.086842 0.94388
162.89 28.285 -622.31 0.15684 0.040554 0.98679
163.46 28.114 -622.35 0.14202 0.089525 0.98581
164.02 27.888 -622.41 0.12229 0.11799 0.98546
164.59 27.703 -622.44 0.16577 0.13578 0.97677
165.17 27.452 -622.52 0.16087 0.14848 0.97574
165.74 27.234 -622.57 0.10918 0.11988 0.98677
166.31 27.032 -622.62 0.014551 0.099248 0.99496
166.87 26.95 -622.61 0.028131 0.11598 0.99285
167.44 26.836 -622.6 0.068016 0.22196 0.97268
168.02 26.682 -622.63 0.13618 0.27397 0.95205
168.58 26.447 -622.7 0.23243 0.30303 0.9242
169.16 26.141 -622.8 0.32174 0.28697 0.90229
169.74 25.833 -622.9 0.51976 0.33029 0.78788
170.33 25.274 -623.15 0.62852 0.30134 0.71704
-46.936 -0.90382 -660.65 -0.21538 0.93192 0.29178
-45.56 -0.58267 -660.33 -0.0065072 0.78896 0.61441
-44.943 -0.62007 -660.28 0.17314 0.74734 0.64148
-44.337 -0.69773 -660.26 0.31088 0.74074 0.59553
-43.828 -1.0623 -660.4 0.40118 0.76794 0.49932
-41.635 -3.9678 -661.76 0.72502 0.68814 -0.028436
-41.138 -4.4055 -661.95 -0.82246 -0.56441 0.070703
-40.641 -4.8186 -662.12 -0.84452 -0.52773 0.09106
-40.384 -6.0049 -662.74 -0.92239 -0.34811 0.16739
-40.043 -6.9173 -663.21 -0.89925 -0.39783 0.18187
-39.799 -8.1439 -663.86 -0.92178 -0.28361 0.26438
-9.9543 -17.616 -665.81 0.47027 -0.78625 0.40082
-9.1144 -16.864 -665.31 0.52088 -0.80714 0.27785
-8.3118 -16.226 -664.86 0.54672 -0.78236 0.29833
-7.3711 -15.072 -664.13 0.58236 -0.76146 0.28468
-6.6056 -14.577 -663.77 0.56344 -0.78562 0.2556
-5.7286 -13.682 -663.18 0.54236 -0.8146 0.20561
-4.9357 -13.054 -662.75 0.4814 -0.87364 0.070746
-4.2084 -12.706 -662.48 0.49423 -0.8654 0.082609
-3.3905 -11.983 -661.99 -0.53835 0.83884 0.080815
-1.882 -11.048 -661.31 -0.52766 0.84465 0.090269
-1.1533 -10.687 -661.04 -0.47837 0.87128 0.10973
-0.47227 -10.465 -660.84 -0.4961 0.85582 0.14647
93.679 35.056 -625.51 0.070108 0.94598 0.31656
94.249 35.07 -625.44 0.093985 0.94464 0.31437
94.801 34.933 -625.46 0.095205 0.94647 0.30842
95.368 34.884 -625.42 0.16894 0.94583 0.27724
95.924 34.819 -625.4 0.19856 0.94279 0.26781
96.473 34.619 -625.45 0.19999 0.93795 0.28329
98.688 33.998 -625.55 0.30202 0.88197 0.36182
99.237 33.823 -625.58 0.32737 0.8499 0.41292
99.789 33.67 -625.61 0.34628 0.83735 0.42301
100.35 33.429 -625.68 0.33966 0.79911 0.49603
100.89 33.171 -625.77 0.34044 0.76379 0.54838
101.44 32.988 -625.8 0.33651 0.73719 0.58593
101.99 32.802 -625.85 0.26779 0.73383 0.62432
102.55 32.665 -625.86 0.24438 0.69696 0.67419
103.11 32.537 -625.87 0.22785 0.68188 0.69508
103.65 32.353 -625.91 0.23816 0.66627 0.70666
104.21 32.104 -625.99 0.20668 0.68169 0.70184
104.77 32.038 -625.96 0.19479 0.66146 0.72425
105.33 31.885 -625.99 0.20226 0.65711 0.72615
105.89 31.788 -625.98 0.20139 0.69443 0.6908
106.44 31.564 -626.04 0.18794 0.67068 0.71754
107 31.369 -626.09 0.13655 0.66756 0.73193
107.56 31.337 -626.05 0.13367 0.66081 0.73855
108.12 31.208 -626.05 0.11727 0.71477 0.68945
115.51 31.558 -625.05 -0.11161 0.70741 0.69793
116.08 31.475 -625.04 0.046151 0.87172 0.48783
116.64 31.434 -625 0.059767 0.83104 0.55299
117.2 31.347 -624.98 -0.11966 0.80014 0.58775
117.77 31.432 -624.88 -0.12434 0.71578 0.68717
118.33 31.408 -624.83 -0.096634 0.67598 0.73056
118.9 31.446 -624.74 -0.066206 0.67828 0.73182
119.47 31.422 -624.69 -0.11425 0.67452 0.72936
120.03 31.403 -624.65 -0.094997 0.68758 0.71987
120.6 31.491 -624.53 0.025709 0.69081 0.72258
121.17 31.417 -624.51 -0.10361 0.68442 0.72169
121.72 31.234 -624.55 -0.116 0.55998 0.82034
122.3 31.591 -624.29 -0.17811 0.44119 0.87956
122.87 31.605 -624.23 -0.17858 0.47348 0.86251
123.43 31.476 -624.23 -0.24759 0.43815 0.86413
124 31.628 -624.09 -0.3494 0.45652 0.81824
124.57 31.947 -623.85 -0.31678 0.51694 0.79525
125.14 32.137 -623.68 -0.18691 0.55257 0.81224
125.71 32.088 -623.65 -0.11713 0.57544 0.80941
126.26 31.959 -623.66 -0.11224 0.50037 0.8585
126.83 32.127 -623.5 -0.16235 0.55637 0.81492
127.4 32.221 -623.39 -0.19592 0.56301 0.80289
127.97 32.26 -623.31 -0.11242 0.63051 0.76799
128.53 32.123 -623.32 -0.020113 0.61994 0.78439
129.09 32.131 -623.25 -0.00084599 0.64466 0.76447
129.65 32.105 -623.21 -0.0071722 0.64619 0.76314
130.21 32.105 -623.14 0.014223 0.61314 0.78985
130.77 32.007 -623.14 0.071394 0.60024 0.79663
131.33 31.831 -623.17 0.052678 0.55031 0.83329
131.89 31.685 -623.19 -0.023363 0.68067 0.73222
132.45 31.733 -623.1 -0.14932 0.55146 0.82073
133.02 31.81 -623 -0.24034 0.43916 0.86566
133.59 32.121 -622.77 -0.24588 0.36438 0.8982
134.15 32.194 -622.66 -0.24264 0.31786 0.91656
134.72 32.241 -622.57 -0.28053 0.21835 0.93468
135.27 32.184 -622.55 -0.31029 0.16931 0.93544
135.85 32.625 -622.24 -0.33451 0.23353 0.913
136.41 32.984 -621.98 -0.32747 0.33953 0.88175
136.98 33.224 -621.79 -0.2423 0.50711 0.82712
137.53 33.143 -621.77 -0.19759 0.50659 0.83924
138.09 33.19 -621.69 -0.11461 0.55462 0.82417
138.66 33.221 -621.61 -0.14955 0.56342 0.81253
139.21 33.181 -621.57 -0.34668 0.48905 0.8004
139.78 33.253 -621.46 -0.26377 0.43003 0.86342
140.34 33.989 -621 -0.4991 0.066113 0.86402
140.91 35.162 -620.29 -0.497 0.011034 0.86768
141.46 35.706 -619.93 -0.39204 0.18359 0.90144
142.03 35.93 -619.75 -0.34632 0.20681 0.91503
142.58 35.987 -619.65 -0.27574 0.22083 0.93552
143.14 36.059 -619.55 -0.24065 0.22588 0.94396
143.69 36.292 -619.36 -0.18027 0.23868 0.95422
144.25 36.29 -619.3 -0.16229 0.25672 0.95276
144.81 36.282 -619.24 -0.14085 0.24466 0.95932
145.36 36.29 -619.18 -0.13661 0.21401 0.96723
145.92 36.337 -619.09 -0.11277 0.2101 0.97115
146.47 36.369 -619.02 -0.021835 0.22572 0.97395
147.03 36.29 -618.99 -0.0097549 0.27642 0.96099
147.58 36.159 -619.01 0.028538 0.28506 0.95809
148.14 36.088 -618.98 0.039306 0.27605 0.96034
148.7 35.943 -619 0.019134 0.26505 0.96404
149.26 35.902 -618.96 0.0094705 0.25391 0.96718
149.82 35.892 -618.91 0.047605 0.24544 0.96824
150.37 35.725 -618.94 0.049363 0.22239 0.97371
151.49 35.562 -618.91 0.039631 0.26044 0.96468
152.04 35.417 -618.93 0.066794 0.27897 0.95797
152.59 35.346 -618.9 0.11885 0.28741 0.95041
153.15 35.151 -618.96 0.12865 0.23076 0.96447
153.72 34.895 -619.03 0.058607 0.1951 0.97903
154.27 34.789 -619.03 -0.015386 0.19541 0.9806
154.83 34.718 -619 -0.07871 0.19907 0.97682
155.39 34.741 -618.93 -0.13251 0.2121 0.96822
155.94 34.764 -618.86 -0.12943 0.20268 0.97065
156.49 34.788 -618.79 -0.20903 0.18795 0.95968
157.04 35.07 -618.56 -0.14304 0.14423 0.97915
157.6 34.972 -618.56 0.048205 0.1494 0.9876
158.17 34.738 -618.63 0.24377 0.13901 0.95982
158.73 34.319 -618.8 0.30465 0.10261 0.94692
159.3 33.837 -619 0.41285 0.056839 0.90902
159.87 33.202 -619.28 0.56839 0.0078406 0.82272
160.47 31.558 -620.13 0.68518 -0.091964 0.72254
161.09 29.946 -620.95 0.59232 -0.16411 0.78881
161.72 27.908 -622 0.099205 -0.0076607 0.99504
162.3 27.319 -622.26 0.11075 0.0024408 0.99385
162.86 27.215 -622.25 0.022407 0.053541 0.99831
163.43 27.157 -622.23 0.038926 0.062404 0.99729
164 26.994 -622.26 0.092203 0.074436 0.99295
164.57 26.793 -622.3 0.14831 0.075736 0.98604
165.14 26.461 -622.42 0.15418 0.093031 0.98365
165.71 26.21 -622.5 0.13006 0.12098 0.9841
166.28 26 -622.55 0.041715 0.12732 0.99098
166.85 25.967 -622.5 -0.052048 0.15437 0.98664
167.41 25.99 -622.43 -0.083452 0.18908 0.97841
167.97 25.974 -622.38 0.028854 0.25262 0.96713
168.55 25.755 -622.43 0.20692 0.26736 0.94112
169.12 25.432 -622.55 0.28645 0.25654 0.92311
169.7 25.117 -622.66 0.35703 0.29715 0.88557
170.28 24.713 -622.81 0.53943 0.33149 0.77403
170.88 23.977 -623.16 0.71136 0.35328 0.60758
171.48 23.306 -623.46 0.82 0.34163 0.45923
172.1 22.265 -623.97 0.84617 0.3128 0.43145
172.72 21.232 -624.46 0.89559 0.30974 0.31932
173.36 19.844 -625.16 0.90542 0.27626 0.32231
-46.843 -0.79421 -659.88 0.083746 0.92631 0.36735
-46.238 -0.87749 -659.86 0.050898 0.91695 0.39575
-45.633 -0.97159 -659.85 0.14347 0.68479 0.71447
-45.04 -1.0704 -659.83 0.15696 0.6008 0.78384
-44.458 -1.226 -659.85 0.23559 0.6155 0.7521
-43.901 -1.443 -659.91 0.3455 0.62368 0.70118
-42.56 -3.0936 -660.67 0.76827 0.54329 0.33853
-39.913 -6.6567 -662.34 -0.88594 -0.45635 0.082806
-38.44 -14.075 -666.26 0.83925 0.49553 0.22384
-38.067 -14.933 -666.68 0.85638 0.47308 0.2069
-37.549 -15.339 -666.85 0.91506 0.39157 0.096623
-37.211 -16.317 -667.35 0.94019 0.33667 0.05191
-36.888 -17.372 -667.89 -0.94428 -0.32873 0.016348
-36.623 -18.584 -668.53 -0.946 -0.3153 0.075313
-36.36 -19.834 -669.19 -0.85397 -0.43003 0.29293
-36.157 -21.28 -669.96 -0.80919 -0.45383 0.37317
-35.737 -22.026 -670.33 -0.80903 -0.43671 0.3934
-35.331 -22.839 -670.73 -0.83203 -0.41329 0.37001
-11.443 -18.48 -665.73 0.44665 -0.80603 0.38835
-8.1746 -15.836 -663.92 0.56279 -0.78482 0.25947
-4.8608 -12.89 -661.94 -0.344 0.93829 0.035806
-4.1813 -12.701 -661.76 0.52591 -0.84934 -0.045242
-3.377 -12.041 -661.31 -0.59195 0.79871 0.10794
-2.6486 -11.688 -661.04 -0.52223 0.8409 0.14199
-1.9073 -11.27 -660.73 -0.52762 0.84239 0.10952
-1.1504 -10.76 -660.37 -0.48405 0.86152 0.15325
-0.47261 -10.593 -660.2 -0.4961 0.85582 0.14647
66.264 67.421 -610.08 -0.77111 0.63118 0.083653
66.807 67.479 -609.99 0.33941 0.75732 0.55791
67.329 67.353 -610 0.3616 0.78122 0.50886
67.81 67.005 -610.14 0.31957 0.8065 0.49743
68.318 66.776 -610.21 0.36693 0.85391 0.36906
68.841 66.666 -610.21 0.36402 0.89624 0.25348
69.338 66.43 -610.29 0.46014 0.86552 0.19786
69.846 66.209 -610.36 0.54519 0.81561 0.19377
70.323 65.79 -610.54 0.60131 0.7523 0.26922
70.802 65.395 -610.7 0.62944 0.70099 0.33528
71.281 65.016 -610.85 0.60828 0.66847 0.42795
72.279 64.438 -611.07 0.62464 0.56442 0.53968
72.772 64.122 -611.19 0.62916 0.5638 0.53506
73.244 63.615 -611.42 0.65436 0.60955 0.4475
73.718 63.124 -611.63 -0.75527 -0.62454 -0.19878
74.163 62.492 -611.93 0.68892 0.70787 0.15592
74.652 62.096 -612.09 0.71876 0.66158 0.21377
75.142 61.739 -612.24 0.71185 0.66549 0.22448
75.58 60.956 -612.61 0.8561 0.45872 0.23804
76.002 60.059 -613.07 -0.93898 -0.32409 -0.11523
76.438 59.243 -613.46 0.94856 0.30384 0.089001
103.59 31.912 -625.51 0.21594 0.66039 0.7192
104.15 31.75 -625.54 0.23867 0.70132 0.67171
104.71 31.622 -625.55 0.23937 0.68687 0.68623
105.26 31.413 -625.6 0.21982 0.61665 0.75593
105.81 31.244 -625.64 0.17715 0.62054 0.7639
106.38 31.161 -625.63 0.18291 0.65387 0.73417
106.93 31.003 -625.64 0.15305 0.69492 0.70261
107.49 30.841 -625.68 0.11458 0.69428 0.71053
108.06 30.799 -625.63 0.082423 0.72087 0.68815
108.62 30.758 -625.59 0.067502 0.752 0.6557
109.18 30.693 -625.57 0.056737 0.76182 0.6453
109.75 30.602 -625.57 -0.057707 0.74555 0.66395
110.31 30.594 -625.5 -0.09267 0.71118 0.69688
110.89 30.704 -625.38 -0.10935 0.73066 0.67393
111.46 30.742 -625.3 -0.058363 0.78961 0.61083
112.03 30.725 -625.24 0.02427 0.85166 0.52353
112.58 30.619 -625.25 0.055792 0.85796 0.51068
113.15 30.603 -625.19 0.052494 0.85989 0.50777
113.72 30.498 -625.18 -0.089544 0.7775 0.62247
114.28 30.462 -625.15 -0.27939 0.61009 0.74144
114.86 30.694 -624.96 -0.39312 0.59697 0.69934
115.45 31.158 -624.63 -0.25545 0.7381 0.62446
116.02 31.218 -624.54 0.03192 0.80468 0.59286
116.58 31.089 -624.55 0.012039 0.82032 0.57178
117.14 30.994 -624.54 0.032297 0.81318 0.58112
117.71 31.007 -624.47 -0.04043 0.7945 0.60591
118.28 31.007 -624.4 -0.025443 0.71973 0.69379
118.84 30.972 -624.37 -0.020431 0.65032 0.75939
119.41 30.989 -624.29 -0.059701 0.61443 0.78671
119.97 31.011 -624.22 -0.12549 0.60949 0.7828
120.54 31.033 -624.15 -0.079996 0.64152 0.76292
121.1 30.951 -624.13 0.068083 0.66238 0.74607
122.22 30.718 -624.13 -0.042104 0.47802 0.87734
122.8 30.891 -623.98 -0.20089 0.413 0.8883
126.76 31.452 -623.24 -0.12096 0.44767 0.88598
127.33 31.468 -623.16 -0.18474 0.39487 0.89997
128.47 31.731 -622.89 -0.10464 0.45721 0.88318
138.6 32.771 -621.22 -0.21948 0.50713 0.83346
145.31 35.605 -618.93 -0.1243 0.28003 0.95191
145.86 35.526 -618.9 -0.10903 0.29285 0.94992
146.42 35.532 -618.84 -0.068459 0.25826 0.96365
146.97 35.573 -618.76 -0.012743 0.24888 0.96845
147.53 35.524 -618.72 0.0076921 0.18695 0.98234
148.09 35.29 -618.79 -0.016132 0.20137 0.97938
148.64 35.266 -618.74 -0.013431 0.2309 0.97288
149.2 35.193 -618.72 -0.020785 0.22704 0.97366
149.76 35.097 -618.71 0.047611 0.22283 0.97369
150.32 34.855 -618.78 0.073933 0.21062 0.97477
150.88 34.774 -618.77 0.032099 0.18726 0.98179
151.43 34.717 -618.74 -0.007849 0.18252 0.98317
151.99 34.685 -618.7 -0.0014005 0.182 0.9833
152.54 34.581 -618.69 0.087332 0.18589 0.97868
153.11 34.178 -618.85 0.14227 0.21568 0.96604
153.67 34.064 -618.86 0.079263 0.25556 0.96354
154.23 33.976 -618.84 0.022826 0.3003 0.95357
154.78 33.831 -618.86 -0.044912 0.29585 0.95418
155.34 33.854 -618.79 -0.064586 0.15908 0.98515
155.9 33.935 -618.68 -0.14114 0.090718 0.98582
156.45 33.845 -618.67 -0.18491 0.079217 0.97956
157.01 34.014 -618.51 -0.10886 0.08915 0.99005
157.56 34.038 -618.44 0.055075 0.080846 0.9952
158.12 33.716 -618.56 0.23539 0.071703 0.96925
158.69 33.346 -618.69 0.34675 0.049258 0.93666
159.27 32.717 -618.98 0.50311 -0.0054451 0.8642
159.86 31.139 -619.78 0.60383 -0.1955 0.77277
160.56 26.801 -622.09 0.23336 -0.37848 0.89571
161.19 24.61 -623.22 -0.14518 -0.23972 0.95993
161.72 25.671 -622.59 -0.16242 -0.19591 0.96708
162.27 26.169 -622.25 -0.12766 -0.035935 0.99117
162.83 26.136 -622.2 -0.12766 -0.035935 0.99117
163.39 25.99 -622.22 0.018571 0.017887 0.99967
163.97 25.893 -622.21 0.071195 0.028845 0.99705
164.54 25.609 -622.31 0.072211 0.052257 0.99602
165.11 25.512 -622.3 0.07568 0.10729 0.99134
165.68 25.358 -622.32 0.071864 0.1576 0.98489
166.25 25.165 -622.36 0.034404 0.17846 0.98334
166.82 25.01 -622.38 -0.091928 0.13614 0.98641
167.37 25.138 -622.25 -0.091157 0.14488 0.98524
167.94 25.152 -622.19 -0.081259 0.16915 0.98224
168.5 24.976 -622.21 0.13452 0.22058 0.96605
169.09 24.619 -622.35 0.28035 0.26958 0.92126
169.67 24.328 -622.44 0.28747 0.3036 0.9084
170.24 24.14 -622.49 0.43313 0.3133 0.84513
170.83 23.568 -622.74 0.60419 0.29794 0.73904
171.43 22.889 -623.05 0.76038 0.30193 0.57504
172.04 21.953 -623.49 0.82297 0.30425 0.47975
-46.834 -0.95594 -659.26 0.32156 0.89658 0.30454
-46.287 -1.1885 -659.33 0.39 0.78531 0.48083
-45.741 -1.4458 -659.42 0.32579 0.65848 0.67843
-45.183 -1.6463 -659.46 0.27771 0.53263 0.79949
-44.613 -1.8256 -659.5 0.24827 0.53413 0.80813
-41.034 -4.4001 -660.52 0.72278 0.64889 0.23776
-40.585 -4.9689 -660.78 0.91111 0.38711 0.1415
-40.328 -6.1388 -661.39 0.93145 0.35808 0.064593
-39.844 -6.6224 -661.6 -0.91532 -0.39458 -0.080542
-39.55 -7.6685 -662.15 0.96442 0.26324 0.024577
-39.283 -8.8311 -662.76 0.96887 0.19954 -0.14652
-39.327 -10.962 -663.93 -0.98011 -0.15293 0.1265
-11.269 -17.956 -664.7 0.4643 -0.83378 0.29874
-10.492 -17.439 -664.34 0.47078 -0.83712 0.27855
-9.6399 -16.647 -663.81 0.51521 -0.82199 0.24268
-8.826 -15.996 -663.37 0.55122 -0.80245 0.22852
-7.986 -15.225 -662.85 0.5988 -0.77944 0.18418
-7.1066 -14.292 -662.25 0.57366 -0.80726 0.13872
-6.3903 -13.969 -661.99 0.55368 -0.83113 0.051682
-5.5368 -13.136 -661.43 0.56735 -0.82344 0.0080812
-4.822 -12.845 -661.2 -0.35231 0.93334 0.068956
-4.1677 -12.759 -661.08 -0.47233 0.87978 0.0538
-3.3887 -12.201 -660.69 -0.56773 0.81551 0.11241
-2.6592 -11.823 -660.41 -0.54203 0.82008 0.18351
-1.9184 -11.414 -660.1 -0.51834 0.82538 0.22376
65.983 65.651 -610.47 -0.93143 0.31546 0.18147
66.752 67.148 -609.58 0.24307 0.7866 0.56761
90.808 35.15 -624.49 0.12946 0.97971 0.15301
91.362 35.046 -624.48 0.14783 0.97649 0.15686
91.928 34.972 -624.46 0.14185 0.97948 0.14316
92.48 34.844 -624.47 0.13615 0.9726 0.18843
93.033 34.716 -624.48 0.10922 0.96837 0.22435
93.6 34.682 -624.43 0.1129 0.95915 0.25939
94.157 34.634 -624.4 0.061052 0.94965 0.3073
94.713 34.561 -624.38 0.12444 0.94136 0.31362
95.281 34.536 -624.33 0.15148 0.93925 0.30801
95.831 34.358 -624.37 0.17937 0.94006 0.29003
96.385 34.254 -624.37 0.22101 0.93322 0.28329
96.951 34.197 -624.34 0.21827 0.9402 0.26149
97.504 34.077 -624.34 0.27608 0.92479 0.26181
98.053 33.874 -624.4 0.33396 0.88002 0.33769
98.602 33.691 -624.43 0.33638 0.88 0.33533
99.15 33.475 -624.49 0.36013 0.87 0.33675
99.7 33.281 -624.55 0.41511 0.83663 0.35741
100.24 33.01 -624.63 0.44217 0.81265 0.37958
100.79 32.722 -624.72 0.47335 0.79271 0.38413
101.33 32.457 -624.81 0.50347 0.75287 0.42391
101.87 32.082 -624.96 0.47613 0.67901 0.55879
102.42 31.769 -625.07 0.35171 0.67445 0.64916
102.97 31.633 -625.08 0.24204 0.61725 0.74861
103.53 31.518 -625.09 0.16813 0.63219 0.75635
104.1 31.438 -625.07 0.1816 0.68436 0.70617
104.64 31.213 -625.13 0.25346 0.65762 0.70943
105.19 30.981 -625.2 0.26844 0.64234 0.71787
105.75 30.794 -625.25 0.18303 0.59559 0.78216
106.32 30.714 -625.22 0.15066 0.57706 0.80268
106.87 30.625 -625.22 0.13051 0.63975 0.75742
115.95 30.642 -624.21 -0.33175 0.43024 0.83955
116.53 30.793 -624.06 -0.082052 0.69965 0.70976
117.09 30.766 -624.03 -0.13062 0.77148 0.6227
117.65 30.695 -624 -0.0032287 0.81411 0.58071
118.22 30.654 -623.96 0.095487 0.76231 0.64013
118.77 30.509 -623.98 0.10732 0.65312 0.74961
119.34 30.394 -623.99 0.0086775 0.5697 0.82181
119.91 30.473 -623.87 -0.11879 0.53426 0.83693
120.47 30.529 -623.78 -0.12525 0.57116 0.81123
121.04 30.526 -623.73 0.015238 0.63285 0.77412
121.6 30.455 -623.69 0.09719 0.68165 0.7252
122.15 30.244 -623.76 0.045055 0.64908 0.75939
122.72 30.227 -623.7 -0.045646 0.60107 0.79789
123.29 30.274 -623.61 -0.10572 0.55859 0.82268
123.86 30.329 -623.52 -0.13294 0.48674 0.86337
124.42 30.288 -623.48 -0.16334 0.42628 0.88972
124.99 30.336 -623.39 -0.15927 0.44985 0.87879
125.56 30.652 -623.16 -0.31974 0.29764 0.89954
126.14 30.9 -622.96 -0.25123 0.41406 0.87489
126.7 30.98 -622.85 -0.19887 0.37827 0.90408
127.26 30.857 -622.87 -0.11373 0.45888 0.88119
127.83 30.848 -622.8 -0.1434 0.35026 0.92561
128.4 31 -622.65 -0.1862 0.31824 0.92954
128.96 31.07 -622.56 -0.14441 0.3852 0.91146
129.53 30.99 -622.54 -0.067462 0.44711 0.89193
130.08 30.966 -622.49 -0.0076494 0.44147 0.89724
130.65 30.963 -622.43 -0.024463 0.50664 0.86181
131.21 30.939 -622.38 -0.056916 0.55077 0.83271
131.78 31 -622.29 -0.091417 0.58822 0.80351
132.34 30.959 -622.25 -0.0026686 0.60704 0.79466
132.9 30.911 -622.22 0.077397 0.58799 0.80516
133.45 30.655 -622.29 0.088135 0.46327 0.88183
134.02 30.581 -622.27 0.03973 0.57547 0.81686
134.58 30.427 -622.3 -0.050268 0.55824 0.82816
135.15 30.587 -622.14 -0.15057 0.38704 0.90969
135.72 30.722 -622.01 -0.25987 0.27336 0.92614
136.28 30.922 -621.84 -0.36307 0.1977 0.91055
136.84 31.242 -621.6 -0.3894 0.12286 0.91284
137.41 31.504 -621.4 -0.36054 0.18186 0.91484
137.97 31.786 -621.18 -0.39805 0.31856 0.86028
138.54 32.112 -620.95 -0.33526 0.39841 0.85374
139.1 32.327 -620.77 -0.20478 0.50062 0.8411
139.66 32.295 -620.72 -0.12039 0.57935 0.80614
140.22 32.166 -620.73 -0.1561 0.38511 0.90958
140.78 32.189 -620.66 -0.3088 0.25227 0.91706
141.34 32.366 -620.49 -0.30007 0.14827 0.94232
141.91 33.078 -620.05 -0.4489 -0.051299 0.89211
142.46 33.815 -619.58 -0.4118 -0.12224 0.90304
143.03 34.312 -619.25 -0.33401 0.004241 0.94256
143.59 34.608 -619.03 -0.29891 0.056563 0.9526
144.14 34.601 -618.96 -0.20372 0.017251 0.97888
144.7 34.712 -618.84 -0.15017 0.10268 0.98331
145.26 34.832 -618.72 -0.13757 0.15361 0.97851
145.81 34.842 -618.64 -0.09086 0.16549 0.98202
146.37 34.856 -618.58 0.0023869 0.17498 0.98457
146.92 34.647 -618.63 0.0022446 0.15713 0.98758
147.48 34.389 -618.72 0.045766 0.14576 0.98826
148.03 34.479 -618.6 0.0075721 0.15048 0.98858
148.6 34.341 -618.61 -0.030892 0.1482 0.98847
149.15 34.293 -618.58 -0.011662 0.1451 0.98935
149.71 34.258 -618.55 0.030489 0.12616 0.99154
150.26 34.138 -618.55 0.064079 0.1729 0.98285
150.83 33.928 -618.6 0.031678 0.17738 0.98363
151.38 33.8 -618.61 0.0088865 0.17202 0.98505
151.94 33.705 -618.6 0.015829 0.14431 0.98941
152.5 33.639 -618.57 0.050832 0.18061 0.98224
153.06 33.486 -618.6 0.017903 0.28482 0.95841
153.62 33.395 -618.59 -0.054718 0.36779 0.9283
154.18 33.363 -618.55 0.0037227 0.45927 0.88829
154.74 33.306 -618.52 0.076892 0.29143 0.9535
155.3 32.76 -618.75 0.13689 0.034017 0.99
155.86 32.518 -618.82 -0.10939 -0.0050235 0.99399
156.41 32.759 -618.63 -0.22609 0.040322 0.97327
156.97 33.001 -618.43 -0.090851 0.06884 0.99348
157.53 33.007 -618.37 0.043825 0.061077 0.99717
158.08 32.622 -618.52 0.22144 0.040378 0.97434
158.66 32.299 -618.64 0.34959 0.028196 0.93648
159.29 29.499 -620.1 0.54153 -0.31376 0.77993
159.99 24.765 -622.62 0.037057 -0.40658 0.91286
160.71 19.638 -625.35 -0.095218 0.065365 0.99331
161.79 21.679 -624.12 -0.65387 -0.19856 0.73008
162.28 23.779 -622.91 -0.36744 -0.12072 0.92218
162.81 24.72 -622.34 -0.28313 -0.13826 0.94906
163.37 24.848 -622.21 -0.028107 -0.022392 0.99935
163.94 24.751 -622.19 -0.012557 0.046919 0.99882
164.51 24.58 -622.23 0.0037859 0.10852 0.99409
165.08 24.434 -622.25 0.018365 0.12642 0.99181
165.64 24.443 -622.17 0.023264 0.13985 0.9899
166.21 24.271 -622.21 0.047871 0.15049 0.98745
166.79 24.036 -622.27 -0.0036287 0.080782 0.99673
167.35 24.037 -622.21 -0.11899 0.076981 0.98991
167.9 24.195 -622.07 -0.099003 0.12049 0.98776
168.47 24.17 -622.02 -0.0058056 0.16863 0.98566
169.05 23.935 -622.08 0.17758 0.26128 0.94879
169.63 23.708 -622.14 0.24953 0.29778 0.92145
170.2 23.393 -622.25 0.40249 0.33593 0.85156
170.79 22.981 -622.42 0.63511 0.31359 0.7059
171.39 22.28 -622.73 0.69466 0.27601 0.66428
171.99 21.48 -623.1 0.78136 0.29081 0.55218
172.6 20.56 -623.54 0.84174 0.26363 0.47114
173.25 19.155 -624.24 0.90314 0.23675 0.35817
-46.836 -1.1276 -658.66 0.60564 0.71804 0.34296
-46.326 -1.4757 -658.79 0.60144 0.68962 0.40336
-45.827 -1.8559 -658.94 0.6052 0.53727 0.58743
-45.281 -2.1296 -659.04 0.43599 0.41374 0.79921
-44.759 -2.4483 -659.16 0.37834 0.41163 0.82911
-40.671 -5.3873 -660.31 -0.88462 -0.31189 -0.34666
-40.317 -6.2538 -660.75 0.92475 0.32329 0.20082
-39.868 -6.8308 -661.02 0.91008 0.37535 0.17569
-39.272 -8.9435 -662.1 0.9859 0.16209 0.041608
-39.172 -10.621 -663.01 -0.98829 -0.13551 0.07009
-39.025 -12.176 -663.85 0.97376 0.22753 -0.0040227
-37.59 -15.782 -665.66 0.89752 0.4273 0.10894
-37.206 -16.627 -666.08 0.93987 0.33148 0.082224
-36.844 -17.524 -666.53 0.90875 0.41108 0.072053
-36.447 -18.323 -666.93 -0.89864 -0.43454 0.060173
-36.134 -19.393 -667.48 -0.86093 -0.48607 0.15011
-35.764 -20.316 -667.94 -0.85224 -0.44292 0.27841
-35.308 -20.932 -668.23 -0.81018 -0.50761 0.29315
-35.011 -22.106 -668.84 -0.78583 -0.51225 0.34653
-34.591 -22.849 -669.2 -0.75447 -0.55036 0.3576
-11.884 -17.989 -664.07 0.48729 -0.83342 0.26069
-11.119 -17.518 -663.72 0.45364 -0.85861 0.23877
-10.366 -17.079 -663.4 0.46965 -0.86492 0.17704
-9.5393 -16.373 -662.93 0.54996 -0.82775 0.11125
-8.7254 -15.722 -662.48 0.56792 -0.80809 0.15641
-7.909 -15.031 -662.02 -0.61915 0.78009 -0.09012
-7.0449 -14.183 -661.46 -0.57923 0.81305 0.058638
-6.3532 -13.965 -661.27 -0.56916 0.81902 0.072531
-5.5731 -13.382 -660.86 -0.56379 0.82246 0.075501
-4.8326 -12.981 -660.56 -0.36431 0.9275 0.083734
-4.1545 -12.825 -660.41 -0.41941 0.90258 0.097237
-3.4001 -12.353 -660.07 -0.50394 0.85389 0.13006
5.8323 -8.2079 -656.79 -0.34843 0.63112 0.69303
6.4634 -8.1748 -656.7 -0.34321 0.63203 0.6948
8.4694 -7.6522 -656.2 -0.31373 0.63389 0.70694
9.113 -7.5814 -656.1 -0.31373 0.63389 0.70694
57.22 28.187 -631.31 -0.48183 0.83392 0.2691
57.859 28.564 -631.03 -0.52236 0.81406 0.25386
58.485 28.871 -630.79 -0.52236 0.81406 0.25386
59.122 29.201 -630.54 -0.50677 0.82229 0.25888
66.639 66.48 -609.34 0.14557 0.55222 0.82089
67.165 66.409 -609.33 0.094254 0.55037 0.82958
67.7 66.34 -609.3 0.1305 0.61688 0.77616
68.242 66.373 -609.22 0.1095 0.7144 0.69112
68.77 66.34 -609.19 0.2978 0.83222 0.46767
69.26 65.986 -609.32 0.42909 0.79742 0.42427
69.769 65.79 -609.37 0.54941 0.72085 0.42252
70.262 65.482 -609.49 0.58219 0.68252 0.44184
70.728 65.038 -609.69 0.65814 0.64605 0.38662
71.218 64.667 -609.83 0.66391 0.64344 0.38105
71.667 64.09 -610.1 0.68285 0.60424 0.41061
72.109 63.401 -610.43 0.65089 0.61585 0.44392
72.613 63.108 -610.54 0.61107 0.66375 0.43132
73.12 62.879 -610.61 0.60036 0.66028 0.45122
73.631 62.716 -610.63 0.64377 0.68198 0.34708
74.104 62.233 -610.85 0.73184 0.61216 0.29945
74.59 61.78 -611.05 0.76482 0.56491 0.30973
75.049 61.194 -611.32 0.78062 0.54307 0.30936
75.929 59.721 -612.03 0.90211 0.36739 0.22631
76.363 58.872 -612.45 0.91721 0.32748 0.22689
96.904 34.041 -623.79 0.25705 0.93883 0.22916
97.451 33.817 -623.85 0.27156 0.92599 0.26229
100.19 32.769 -624.12 0.48241 0.7893 0.37984
100.74 32.512 -624.2 0.5057 0.76091 0.40655
101.28 32.191 -624.32 0.52889 0.73882 0.41764
101.82 31.854 -624.45 0.55183 0.70802 0.44068
102.36 31.504 -624.58 0.48421 0.69158 0.53596
102.9 31.134 -624.73 0.39049 0.65882 0.64302
103.47 31.013 -624.73 0.16137 0.56878 0.8065
104.02 30.893 -624.73 0.14951 0.54028 0.8281
104.58 30.797 -624.72 0.22182 0.56509 0.79465
105.13 30.594 -624.78 0.3057 0.59718 0.74157
105.69 30.331 -624.85 0.27042 0.61598 0.73989
106.23 30.065 -624.95 0.16467 0.59104 0.78966
106.8 30.057 -624.88 0.07083 0.58973 0.80449
107.37 30.046 -624.83 0.052053 0.6647 0.74529
107.94 30.013 -624.79 0.05949 0.65861 0.75013
108.49 29.909 -624.78 0.019774 0.65958 0.75137
109.06 29.835 -624.76 0.012509 0.6839 0.72947
109.63 29.873 -624.68 -0.0063741 0.69543 0.71857
110.19 29.832 -624.64 -0.080259 0.70178 0.70786
110.76 29.758 -624.62 -0.13897 0.69492 0.70553
111.33 29.829 -624.51 -0.17357 0.67264 0.71932
111.9 29.964 -624.38 -0.17169 0.69586 0.69736
112.47 30.058 -624.27 -0.1169 0.72244 0.68148
113.04 29.975 -624.26 -0.027013 0.77913 0.62628
113.61 29.975 -624.19 0.042777 0.81037 0.58436
114.18 29.934 -624.15 0.10244 0.83384 0.54241
114.73 29.806 -624.16 0.089038 0.78246 0.6163
115.29 29.619 -624.2 0.0094729 0.61298 0.79004
115.86 29.674 -624.11 -0.15575 0.54754 0.82216
116.45 30.08 -623.82 -0.36801 0.34364 0.86399
117.02 30.311 -623.63 -0.20745 0.61096 0.764
117.6 30.421 -623.51 -0.13873 0.66232 0.73627
118.16 30.308 -623.5 0.11334 0.71239 0.69257
118.71 30.084 -623.57 0.17905 0.71628 0.67445
119.27 29.93 -623.59 0.10616 0.69014 0.71584
119.84 29.889 -623.55 -0.040559 0.53357 0.84478
120.98 30.046 -623.34 -0.16886 0.5084 0.8444
121.54 29.997 -623.31 0.038351 0.6016 0.79788
122.66 29.778 -623.31 0.04161 0.69677 0.71609
123.22 29.673 -623.3 -0.074825 0.57773 0.81279
123.79 29.751 -623.2 -0.092922 0.51891 0.84976
124.36 29.847 -623.08 -0.11087 0.50102 0.8583
124.93 29.74 -623.09 -0.15409 0.44607 0.88163
125.48 29.699 -623.05 -0.13638 0.40875 0.9024
126.06 29.858 -622.89 -0.29884 0.20332 0.93239
126.63 30.242 -622.62 -0.25859 0.17588 0.94984
127.21 30.343 -622.51 -0.094344 0.33946 0.93588
127.76 30.248 -622.49 -0.13661 0.34957 0.9269
128.32 30.149 -622.49 -0.079904 0.33197 0.9399
128.89 30.254 -622.36 -0.10238 0.26362 0.95918
129.45 30.373 -622.24 -0.13171 0.26701 0.95465
130.03 30.411 -622.15 -0.047662 0.35938 0.93197
130.59 30.249 -622.19 -0.024366 0.36113 0.9322
131.14 30.105 -622.21 -0.027908 0.33213 0.94282
131.71 30.206 -622.09 -0.11233 0.31624 0.94201
132.28 30.303 -621.97 -0.092441 0.30342 0.94836
132.84 30.182 -621.97 -0.045342 0.35593 0.93341
133.4 30.243 -621.88 -0.014639 0.44865 0.89359
133.96 30.172 -621.85 -0.019075 0.57559 0.81752
142.97 32.21 -619.76 -0.36946 -0.11313 0.92233
143.53 32.787 -619.38 -0.34846 -0.18195 0.9195
144.09 33.155 -619.12 -0.29353 -0.15535 0.94324
144.65 33.506 -618.87 -0.24765 -0.11359 0.96217
145.2 33.731 -618.69 -0.23447 -0.019572 0.97193
145.76 33.732 -618.62 -0.16666 0.025269 0.98569
146.31 33.818 -618.52 -0.050373 0.075665 0.99586
146.87 33.762 -618.49 -0.018847 0.067044 0.99757
147.43 33.754 -618.43 0.0085061 0.12159 0.99254
147.98 33.504 -618.51 -0.026873 0.13246 0.99082
148.55 33.43 -618.49 0.048067 0.11918 0.99171
149.1 33.368 -618.45 0.014294 0.10778 0.99407
149.66 33.109 -618.54 -0.016273 0.11449 0.99329
150.22 33.116 -618.48 0.0081133 0.1278 0.99177
150.78 33.1 -618.42 0.0026199 0.14182 0.98989
151.34 32.946 -618.44 0.0085082 0.094745 0.99547
151.89 32.867 -618.42 0.015308 0.08844 0.99596
152.46 32.73 -618.43 -0.027342 0.1513 0.98811
153.01 32.615 -618.44 -0.07327 0.20424 0.97617
153.57 32.768 -618.3 -0.092225 0.3081 0.94687
154.12 32.849 -618.19 0.12854 0.18614 0.97408
154.71 31.803 -618.7 0.29311 -0.076807 0.95299
155.28 31.118 -619.01 -0.078633 -0.10177 0.9917
155.83 31.503 -618.74 -0.2778 0.059834 0.95877
156.37 31.93 -618.45 -0.29835 0.14357 0.9436
156.92 31.987 -618.35 -0.12811 0.082889 0.98829
157.49 31.913 -618.33 0.04969 0.11249 0.99241
158.05 31.582 -618.46 0.17391 0.081599 0.98138
158.75 26.667 -621.07 0.32109 -0.39007 0.86299
159.5 19.669 -624.81 -0.045022 0.026008 0.99865
160.1 18.414 -625.43 -0.2283 0.31763 0.92032
160.67 18.676 -625.23 -0.25603 0.29751 0.91975
161.24 18.756 -625.11 -0.32452 0.28903 0.90064
161.8 18.972 -624.94 -0.50018 0.040855 0.86496
162.33 20.369 -624.12 -0.65271 -0.15821 0.74091
162.82 22.645 -622.82 -0.60846 -0.10769 0.78625
163.36 23.304 -622.4 -0.40147 -0.083579 0.91205
163.91 23.681 -622.14 -0.076622 0.092096 0.9928
164.48 23.656 -622.08 -0.12699 0.17748 0.9759
165.05 23.606 -622.05 -0.033488 0.17274 0.9844
165.61 23.469 -622.06 0.011655 0.18832 0.98204
166.18 23.364 -622.05 0.097456 0.17717 0.97934
166.76 23.087 -622.15 0.049688 0.15412 0.9868
167.33 22.949 -622.16 -0.080177 0.12329 0.98913
167.89 23.118 -622 -0.17816 0.12053 0.97659
168.44 23.263 -621.86 -0.091278 0.17345 0.9806
169.02 23.108 -621.89 0.055496 0.22415 0.97297
169.59 22.945 -621.92 0.20262 0.24725 0.94753
170.16 22.663 -622 0.29592 0.24045 0.92445
170.75 22.226 -622.18 0.48955 0.24392 0.83717
