14.832 1.7789 -636.66 0.74972 -0.61693 0.2394
16.055 3.0492 -638.07 0.75135 -0.63524 0.17873
17.102 3.9849 -639.07 0.76503 -0.6043 0.22262
43.756 17.034 -652.06 -0.30128 -0.33538 0.89261
44.346 17.03 -652.01 -0.30508 -0.30596 0.90184
44.904 16.991 -651.9 -0.32841 0.022925 0.94426
45.487 17.002 -651.86 -0.32401 0.20244 0.92414
46.044 16.948 -651.75 -0.26172 0.21835 0.94012
46.572 16.823 -651.54 -0.26172 0.21835 0.94012
47.078 16.641 -651.28 -0.29106 0.34997 0.8904
72.611 32.417 -667.62 -0.72981 0.041411 0.6824
73.031 32.056 -667.14 -0.76765 0.026987 0.64031
73.4 31.56 -666.52 -0.82392 -0.0022127 0.56671
73.78 31.077 -665.9 -0.88934 -0.012135 0.45709
74.096 30.408 -665.08 -0.92885 -0.027217 0.36947
74.451 29.854 -664.4 -0.9306 -0.11572 0.34727
74.794 29.257 -663.66 -0.89087 -0.19835 0.40867
75.188 28.832 -663.11 -0.75712 -0.46039 0.46348
75.62 28.471 -662.64 -0.62614 -0.60468 0.49225
76.138 28.346 -662.44 -0.44866 -0.70974 0.54311
76.634 28.165 -662.18 -0.40007 -0.71292 0.57593
77.189 28.148 -662.11 -0.18564 -0.78001 0.59759
77.72 28.074 -661.96 -0.20613 -0.78583 0.58309
78.246 27.978 -661.8 -0.18493 -0.76672 0.61477
78.798 27.947 -661.71 -0.12634 -0.71846 0.684
79.377 28.024 -661.75 -0.14157 -0.71326 0.68645
79.902 27.922 -661.58 -0.14141 -0.72256 0.67669
80.43 27.833 -661.43 -0.11092 -0.71647 0.68874
81.029 27.946 -661.51 -0.099713 -0.75538 0.64766
81.574 27.893 -661.39 -0.20058 -0.71193 0.67299
82.097 27.783 -661.21 -0.18786 -0.73956 0.64635
89.689 27.076 -659.66 -0.28884 -0.44808 0.84604
90.202 26.93 -659.43 -0.22161 -0.46422 0.85755
90.769 26.957 -659.41 -0.23514 -0.42866 0.87233
91.324 26.94 -659.34 -0.22034 -0.5036 0.83537
91.844 26.816 -659.15 -0.22106 -0.42687 0.87688
92.402 26.813 -659.08 -0.26101 -0.38097 0.88698
92.942 26.776 -658.99 -0.27672 -0.46678 0.83996
93.457 26.637 -658.77 -0.36902 -0.43587 0.82088
93.99 26.526 -658.59 -0.39325 -0.43277 0.81121
94.517 26.431 -658.43 -0.43686 -0.42736 0.79153
95.029 26.277 -658.2 -0.46973 -0.56298 0.68
95.507 26.031 -657.85 -0.47033 -0.54809 0.69166
96.043 25.934 -657.69 -0.42405 -0.43365 0.79506
96.569 25.839 -657.53 -0.45417 -0.42923 0.7807
97.078 25.671 -657.28 -0.50449 -0.4772 0.71956
97.577 25.467 -656.99 -0.52873 -0.48522 0.69643
98.075 25.249 -656.7 -0.54408 -0.41369 0.72996
98.611 25.153 -656.53 -0.55037 -0.44474 0.70661
99.104 24.927 -656.21 -0.5755 -0.45436 0.67997
99.603 24.724 -655.91 -0.62322 -0.44974 0.63979
100.06 24.376 -655.47 -0.6076 -0.41872 0.6749
100.56 24.194 -655.2 -0.58593 -0.41722 0.69471
101.09 24.047 -654.98 -0.61332 -0.40882 0.6758
101.58 23.836 -654.68 -0.63411 -0.3952 0.66462
102.05 23.474 -654.21 0.67133 0.36496 -0.64508
102.55 23.291 -653.93 -0.68997 -0.30195 0.65785
103.03 22.987 -653.53 -0.68063 -0.26339 0.68364
103.53 22.739 -653.2 -0.69967 -0.24216 0.67217
103.98 22.369 -652.71 -0.72998 -0.20482 0.65206
104.45 22.021 -652.25 -0.74221 -0.21106 0.63607
104.94 21.73 -651.86 -0.75833 -0.19369 0.62243
105.39 21.36 -651.37 -0.75773 -0.20547 0.61938
105.85 20.976 -650.88 -0.76404 -0.19773 0.61412
109.96 17.283 -646.1 -0.7834 -0.12112 0.60961
110.4 16.767 -645.44 -0.81127 -0.11862 0.57251
110.86 16.346 -644.9 -0.78735 -0.062988 0.61328
111.34 15.976 -644.42 -0.73299 -0.0061154 0.68021
166.98 2.1859 -622.75 0.83293 0.16211 0.5291
167.8 4.3565 -625.24 0.28116 0.22294 0.93341
168.42 4.6511 -625.53 0.29756 0.22673 0.92739
169.03 4.9386 -625.82 0.10814 0.31088 0.94428
169.61 4.9936 -625.83 -0.12704 0.22415 0.96624
170.17 4.9323 -625.7 -0.22054 0.21682 0.95098
170.73 4.6964 -625.37 -0.19435 0.23537 0.95228
171.31 4.7218 -625.35 -0.043532 0.2295 0.97233
171.9 4.8277 -625.41 -0.1411 0.23174 0.96249
172.47 4.7443 -625.26 -0.32184 0.21299 0.92253
173.02 4.5083 -624.93 -0.41949 0.21994 0.88071
173.56 4.1483 -624.44 -0.57322 0.18605 0.798
174.1 3.7081 -623.87 -0.59521 0.19951 0.77841
174.31 -0.13061 -619.29 0.98942 -0.11783 -0.084687
-14.674 -20.238 -612.32 0.15622 0.37464 0.91391
-14.002 -20.181 -612.32 0.13454 0.40691 0.90351
-13.171 -19.811 -612.68 0.10174 0.43676 0.8938
-12.33 -19.441 -613.05 0.087806 0.43045 0.89833
-11.675 -19.42 -613.01 0.022688 0.42626 0.90432
-11.017 -19.384 -612.99 0.028114 0.40067 0.91579
-10.336 -19.298 -613.03 0.076269 0.38289 0.92064
-9.5099 -18.949 -613.38 0.094181 0.3701 0.9242
-8.762 -18.743 -613.54 0.054809 0.35058 0.93493
-8.0859 -18.678 -613.55 0.00094546 0.36913 0.92938
-7.4226 -18.628 -613.56 -0.017834 0.38319 0.9235
-6.8055 -18.67 -613.44 -0.0090366 0.40076 0.91614
-6.081 -18.492 -613.59 0.016653 0.39533 0.91839
-5.3845 -18.377 -613.65 0.00062829 0.40416 0.91469
-4.694 -18.292 -613.69 -0.10648 0.40555 0.90785
-4.123 -18.412 -613.5 -0.15391 0.42382 0.89257
-3.5504 -18.561 -613.26 -0.15746 0.44623 0.88096
-2.9279 -18.589 -613.17 -0.14659 0.43857 0.88666
-2.3229 -18.652 -613.04 -0.21763 0.45601 0.86296
-1.7602 -18.801 -612.81 -0.23133 0.48478 0.84349
-1.3244 -19.228 -612.27 -0.24231 0.49039 0.83714
-0.74276 -19.335 -612.07 -0.18481 0.51977 0.83407
2.9181 -15.787 -615.96 0.72013 -0.018213 0.6936
3.9986 -14.882 -616.93 0.71986 -0.07125 0.69045
7.985 -8.0095 -624.74 0.83628 -0.5369 0.11129
65.985 34.435 -669.79 0.21891 0.27356 0.93661
66.68 34.784 -670.14 0.16552 0.32306 0.93179
67.309 34.983 -670.32 0.070877 0.32726 0.94227
67.891 35.074 -670.37 -0.05815 0.28475 0.95684
68.437 35.065 -670.31 -0.17078 0.2391 0.95586
68.98 35.035 -670.22 -0.27944 0.2215 0.93427
69.47 34.875 -669.98 -0.36962 0.19138 0.90926
69.934 34.644 -669.67 -0.4313 0.19195 0.88155
70.443 34.527 -669.47 -0.46891 0.18027 0.86466
70.88 34.225 -669.08 -0.52276 0.1731 0.83472
71.362 34.036 -668.8 -0.59636 0.16396 0.78579
71.807 33.726 -668.4 -0.64152 0.13385 0.75534
74.469 30.407 -664.19 -0.95062 -0.10814 0.2909
74.753 29.652 -663.26 -0.93328 -0.26541 0.24198
76.091 28.713 -662.02 -0.37913 -0.7744 0.50653
76.566 28.489 -661.71 -0.34168 -0.80271 0.48878
77.095 28.407 -661.56 -0.31796 -0.8531 0.41366
82.619 28.191 -660.78 -0.016606 -0.80242 0.59653
83.193 28.246 -660.8 -0.049772 -0.76845 0.63798
83.738 28.193 -660.68 -0.092371 -0.77058 0.63061
84.3 28.198 -660.64 -0.16971 -0.70207 0.69159
84.822 28.081 -660.45 -0.2246 -0.65415 0.72225
85.386 28.107 -660.42 -0.28465 -0.6599 0.69535
85.909 27.998 -660.24 -0.26778 -0.64569 0.71511
86.414 27.859 -660.03 -0.27694 -0.65004 0.70764
109.03 18.606 -646.88 -0.78281 -0.24138 0.57354
109.5 18.243 -646.41 -0.79017 -0.22903 0.56848
109.96 17.807 -645.84 -0.78369 -0.1333 0.60668
110.43 17.437 -645.36 -0.78234 -0.091279 0.61613
110.89 17.059 -644.86 -0.72877 -0.045121 0.68327
111.37 16.659 -644.34 -0.65455 -0.0076619 0.75598
111.87 16.389 -643.97 -0.58036 0.032685 0.8137
112.35 16.004 -643.48 0.54823 -0.14084 -0.82438
112.85 15.756 -643.13 -0.44322 0.24278 0.86291
113.37 15.551 -642.83 -0.39821 0.26724 0.87751
113.88 15.317 -642.51 -0.36729 0.30947 0.87711
114.92 14.878 -641.89 -0.31718 0.3751 0.87103
169.05 5.9367 -626.09 0.080966 0.25921 0.96242
170.74 5.6433 -625.59 -0.20033 0.23349 0.9515
171.32 5.6766 -625.57 -0.053642 0.23989 0.96932
171.9 5.7244 -625.58 -0.13577 0.23916 0.96144
172.47 5.641 -625.43 -0.28568 0.25373 0.92412
173.03 5.4633 -625.17 -0.47694 0.20685 0.85425
173.56 5.0817 -624.66 -0.64316 0.093858 0.75996
174.1 4.6269 -624.06 -0.74765 0.019231 0.66382
174.52 2.8913 -621.96 -0.9274 0.034883 0.37243
-18.05 -19.994 -611.94 0.21563 0.35013 0.91154
-17.266 -19.731 -612.18 0.13207 0.31518 0.9398
-16.609 -19.703 -612.15 0.13362 0.3461 0.92864
-15.845 -19.489 -612.35 0.14687 0.3531 0.92399
-14.914 -18.949 -612.89 0.159 0.37991 0.91125
-14.234 -18.863 -612.93 0.12996 0.38371 0.91426
-13.522 -18.735 -613.02 0.12519 0.36725 0.92166
-12.664 -18.33 -613.42 0.12797 0.34531 0.92972
-11.928 -18.145 -613.58 0.077175 0.32845 0.94136
-11.27 -18.109 -613.55 0.011353 0.36433 0.9312
-10.577 -18.009 -613.6 0.027964 0.34294 0.93894
-9.9004 -17.944 -613.62 0.070506 0.31553 0.94629
-9.16 -17.737 -613.8 0.071124 0.30992 0.9481
-8.4469 -17.602 -613.89 0.016035 0.29013 0.95685
-7.7647 -17.509 -613.94 0.024434 0.27895 0.96
-7.0689 -17.409 -614 0.035582 0.32017 0.94669
-6.411 -17.373 -613.98 0.043133 0.34983 0.93582
-5.7047 -17.223 -614.09 0.022281 0.35936 0.93293
-4.9741 -17.052 -614.22 -0.064673 0.35138 0.934
-4.3721 -17.129 -614.08 -0.13048 0.34025 0.93124
-3.829 -17.314 -613.8 -0.15449 0.35774 0.92096
-3.1627 -17.249 -613.82 -0.1348 0.39755 0.90762
-2.5221 -17.248 -613.77 -0.16441 0.39856 0.90229
-1.9632 -17.405 -613.51 -0.21754 0.39654 0.89187
-1.3937 -17.532 -613.32 -0.23246 0.3979 0.88749
-0.83546 -17.702 -613.06 -0.12941 0.37188 0.91922
-0.2357 -17.78 -612.91 -0.1458 0.44675 0.8827
0.58703 -17.402 -613.28 0.16139 0.3564 0.92029
1.7257 -16.384 -614.38 0.52437 0.2256 0.82106
3.1251 -14.845 -616.1 0.69257 -0.053572 0.71936
35.553 15.274 -648.95 0.47694 -0.65498 0.58612
36.269 15.578 -649.25 0.46899 -0.65863 0.58843
36.901 15.673 -649.3 0.37177 -0.69933 0.61051
65.556 35.241 -669.93 0.2709 0.27526 0.92241
66.232 35.547 -670.24 0.2709 0.27526 0.92241
66.912 35.874 -670.57 0.14691 0.29296 0.94477
67.509 35.987 -670.64 -0.0074227 0.27133 0.96246
68.041 35.957 -670.55 -0.10703 0.27796 0.95461
68.582 35.919 -670.46 -0.19535 0.24035 0.95083
69.1 35.831 -670.31 -0.28619 0.2087 0.93517
69.599 35.715 -670.11 -0.36966 0.20942 0.90526
70.077 35.505 -669.82 -0.41701 0.19832 0.887
70.538 35.259 -669.49 -0.47606 0.19667 0.85714
71.029 35.1 -669.25 -0.51147 0.17107 0.8421
71.468 34.812 -668.87 -0.58497 0.15779 0.79556
71.886 34.444 -668.39 -0.6661 0.10945 0.73779
72.319 34.127 -667.98 -0.72573 0.029202 0.68736
72.744 33.788 -667.52 -0.77052 -0.014561 0.63725
73.137 33.349 -666.97 -0.86402 -0.011001 0.50334
73.498 32.824 -666.31 -0.9039 -0.031894 0.42656
73.848 32.255 -665.6 -0.93582 -0.052581 0.34853
74.176 31.644 -664.83 -0.96083 -0.069887 0.26818
74.461 30.896 -663.91 0.97772 0.12035 -0.17202
77.007 28.652 -660.99 -0.15966 -0.92001 0.3579
77.566 28.642 -660.94 -0.0017802 -0.92389 0.38265
78.122 28.633 -660.87 0.051343 -0.89048 0.45211
78.714 28.724 -660.92 0.03241 -0.85213 0.52233
79.287 28.772 -660.94 -0.13784 -0.85657 0.49729
79.801 28.626 -660.71 -0.19584 -0.83316 0.51719
80.336 28.574 -660.59 -0.12119 -0.85993 0.49582
80.921 28.629 -660.61 -0.092901 -0.84799 0.52181
81.461 28.591 -660.51 -0.1645 -0.83575 0.52389
81.978 28.459 -660.3 -0.12775 -0.87433 0.46822
82.542 28.478 -660.27 -0.043059 -0.86126 0.50634
83.107 28.498 -660.25 -0.047418 -0.90321 0.42657
93.45 27.643 -658.25 -0.33543 -0.48306 0.80879
93.973 27.54 -658.07 -0.42069 -0.49107 0.76281
94.492 27.408 -657.87 -0.57548 -0.48549 0.65812
94.938 27.032 -657.38 -0.4446 -0.52652 0.72464
95.464 26.936 -657.21 -0.28771 -0.51602 0.80681
96.021 26.927 -657.15 -0.34123 -0.49999 0.79598
96.542 26.81 -656.96 -0.43445 -0.51166 0.74125
97.037 26.584 -656.65 -0.53332 -0.49843 0.68348
97.526 26.344 -656.31 -0.46754 -0.52106 0.71408
98.061 26.278 -656.19 -0.49727 -0.47815 0.72394
98.578 26.102 -655.93 -0.57893 -0.49988 0.64417
99.036 25.769 -655.49 -0.61685 -0.50394 0.6046
99.535 25.565 -655.2 -0.49248 -0.49526 0.71567
100.04 25.39 -654.93 -0.53538 -0.38689 0.75079
100.57 25.287 -654.76 -0.59374 -0.40674 0.69429
101.05 24.967 -654.33 -0.61959 -0.46778 0.63031
101.53 24.713 -653.99 -0.57294 -0.47825 0.66559
102.05 24.574 -653.78 -0.63474 -0.40866 0.65582
111.4 17.365 -644.3 -0.66921 0.027615 0.74256
111.92 17.174 -644.01 -0.59003 0.0633 0.8049
112.43 16.911 -643.66 -0.52026 0.12653 0.84458
112.97 16.815 -643.5 -0.43275 0.27697 0.85791
113.47 16.538 -643.12 -0.32866 0.33444 0.88325
114.02 16.426 -642.93 -0.32866 0.33444 0.88325
114.55 16.279 -642.71 -0.3155 0.3834 0.86802
115.08 16.125 -642.46 -0.30356 0.39131 0.86875
167.21 5.8543 -625.28 0.36189 0.24798 0.89864
167.84 6.3239 -625.78 0.32055 0.25589 0.91201
168.47 6.7275 -626.2 0.17079 0.2431 0.95485
169.06 6.9135 -626.37 0.013893 0.2924 0.9562
169.64 6.9323 -626.34 -0.1886 0.27101 0.94392
170.2 6.8127 -626.13 -0.22573 0.26789 0.93663
170.76 6.6127 -625.84 -0.17587 0.25949 0.9496
171.34 6.6531 -625.83 -0.092094 0.25911 0.96145
171.91 6.7159 -625.86 -0.17173 0.23109 0.95766
-20.245 -19.949 -611.22 0.29649 0.32077 0.89955
-18.387 -18.898 -612.3 0.2554 0.30459 0.91761
-17.602 -18.635 -612.54 0.15395 0.33753 0.92864
-16.892 -18.514 -612.62 0.082157 0.34447 0.9352
-16.212 -18.428 -612.66 0.1381 0.34067 0.92998
-15.356 -18.037 -613.04 0.2046 0.34108 0.9175
-14.528 -17.681 -613.4 0.1308 0.32493 0.93665
-13.799 -17.517 -613.52 0.066571 0.30433 0.95024
-13.157 -17.51 -613.47 0.13004 0.28478 0.94973
-12.294 -17.09 -613.89 0.13487 0.22802 0.96427
-11.583 -16.955 -613.98 0.069512 0.22818 0.97113
-10.922 -16.919 -613.97 0.0090525 0.25583 0.96668
-10.26 -16.861 -613.97 0.065629 0.29354 0.95369
-9.4855 -16.597 -614.21 0.043153 0.26597 0.96302
-8.829 -16.569 -614.18 -0.019156 0.25449 0.96689
-8.19 -16.575 -614.12 -0.013937 0.22393 0.97451
-7.4927 -16.468 -614.19 0.037703 0.23789 0.97056
-6.7349 -16.226 -614.4 0.11677 0.2827 0.95207
-6.0301 -16.083 -614.5 0.086776 0.29273 0.95225
-5.3087 -15.918 -614.64 -0.02215 0.28294 0.95888
-4.6945 -15.975 -614.51 -0.12223 0.28396 0.95101
-4.1076 -16.067 -614.34 -0.11689 0.25836 0.95895
-3.4655 -16.059 -614.29 -0.098022 0.31739 0.94321
-2.7804 -15.951 -614.35 -0.14025 0.27434 0.95135
-2.2139 -16.093 -614.14 -0.2064 0.30943 0.92825
-1.6496 -16.235 -613.91 -0.23481 0.30562 0.92275
-1.0529 -16.327 -613.75 -0.20119 0.32596 0.92373
-0.46597 -16.419 -613.58 -0.11592 0.3403 0.93314
0.15797 -16.439 -613.49 0.05603 0.36451 0.92951
1.0359 -15.962 -613.99 0.28928 0.33424 0.897
2.0975 -15.1 -614.92 0.64374 0.091604 0.75974
3.3382 -13.874 -616.26 0.72561 -0.056937 0.68575
32.457 14.114 -646.96 0.6374 -0.60383 0.47865
33.229 14.538 -647.39 0.58871 -0.60781 0.5329
34.037 15.012 -647.89 0.58589 -0.60281 0.54162
34.741 15.273 -648.13 0.51108 -0.65115 0.56108
35.51 15.683 -648.54 0.47694 -0.65498 0.58612
65.787 36.324 -670.36 0.31463 0.24637 0.91668
66.469 36.658 -670.69 0.24609 0.24823 0.93692
67.113 36.878 -670.89 0.11159 0.20827 0.97168
67.672 36.92 -670.88 -0.028527 0.21687 0.97578
68.243 36.961 -670.89 -0.15238 0.23993 0.95876
68.763 36.88 -670.74 -0.25263 0.23872 0.93765
69.252 36.714 -670.5 -0.33411 0.23214 0.9135
69.728 36.54 -670.24 -0.42334 0.21225 0.88076
70.206 36.33 -669.94 -0.45329 0.19724 0.86926
70.679 36.136 -669.68 -0.49176 0.17247 0.85348
71.129 35.861 -669.29 -0.57554 0.14056 0.8056
71.57 35.58 -668.92 -0.65873 0.09166 0.74677
71.971 35.177 -668.4 -0.73505 0.056277 0.67567
72.383 34.78 -667.89 -0.78808 0.0043846 0.61555
72.794 34.413 -667.42 -0.82234 -0.059074 0.56592
73.179 33.959 -666.83 -0.87952 -0.053189 0.47288
73.536 33.413 -666.15 -0.92241 -0.084972 0.37674
73.874 32.837 -665.43 -0.94814 -0.10318 0.30063
74.186 32.161 -664.59 -0.97771 -0.13845 0.15785
74.396 31.227 -663.46 -0.98335 -0.1505 0.10182
74.653 30.4 -662.45 -0.96321 -0.24326 0.11427
75.027 29.889 -661.8 -0.88738 -0.42656 0.17495
75.418 29.413 -661.19 -0.74076 -0.66941 0.056189
75.88 29.138 -660.82 -0.4828 -0.86474 0.1383
76.325 28.828 -660.41 -0.33365 -0.9416 0.045392
76.905 28.875 -660.41 -0.16159 -0.98419 0.072519
77.454 28.83 -660.31 -0.049264 -0.98712 0.15218
77.985 28.756 -660.17 0.044969 -0.98008 0.19347
78.606 28.925 -660.31 0.051405 -0.97862 0.19917
79.177 28.967 -660.31 -0.13415 -0.9759 0.1721
79.673 28.792 -660.05 -0.16135 -0.97008 0.1814
80.23 28.775 -659.99 -0.059605 -0.96933 0.23844
80.82 28.859 -660.03 -0.022996 -0.95555 0.29393
81.349 28.778 -659.88 0.098867 0.94047 -0.32519
81.904 28.761 -659.81 -0.11153 -0.91339 0.39151
87.434 28.573 -659.06 -0.099644 -0.84335 0.52804
87.962 28.485 -658.9 -0.16502 -0.85647 0.48911
88.517 28.468 -658.83 -0.17351 -0.83201 0.52692
89.079 28.473 -658.79 -0.19822 -0.73537 0.64802
89.563 28.248 -658.47 -0.23425 -0.68452 0.69033
92.365 28.258 -658.23 -0.20948 -0.62111 0.75521
92.892 28.17 -658.07 -0.28276 -0.61911 0.73263
93.444 28.139 -657.98 -0.39617 -0.67101 0.62674
93.961 28.007 -657.77 -0.49123 -0.64474 0.58567
94.43 27.717 -657.38 -0.55607 -0.48379 0.67583
94.916 27.5 -657.08 -0.49776 -0.51456 0.69819
95.468 27.468 -656.99 -0.33998 -0.53735 0.7718
95.996 27.38 -656.83 -0.36227 -0.54265 0.75782
96.523 27.255 -656.63 -0.50351 -0.57804 0.64214
97 27.001 -656.27 -0.53132 -0.54577 0.64795
97.514 26.848 -656.06 -0.51568 -0.5048 0.69228
98.042 26.723 -655.85 -0.49325 -0.58661 0.64233
98.538 26.505 -655.55 -0.67545 -0.55376 0.48695
99.007 26.215 -655.16 -0.57731 -0.54084 0.61173
99.515 26.054 -654.91 -0.4633 -0.47958 0.74522
100.04 25.907 -654.68 -0.50461 -0.46831 0.72529
100.55 25.761 -654.46 0.62781 0.46315 -0.62557
101.01 25.391 -653.98 0.63794 0.47223 -0.6083
101.53 25.26 -653.77 -0.56555 -0.48173 0.66939
102.02 25.013 -653.44 -0.59235 -0.46895 0.65514
102.53 24.801 -653.14 -0.66714 -0.4416 0.59993
116.26 16.846 -642.34 -0.2973 0.41392 0.8604
116.82 16.77 -642.19 -0.29093 0.42369 0.85782
117.83 16.274 -641.5 -0.29682 0.43357 0.85083
168.49 7.7479 -626.51 0.1457 0.2351 0.96099
169.08 7.8685 -626.61 -0.087364 0.154 0.9842
169.65 7.8578 -626.53 -0.14402 0.20051 0.96905
170.21 7.6729 -626.27 -0.22085 0.2366 0.94617
170.77 7.5749 -626.08 -0.17492 0.24925 0.95251
171.35 7.6227 -626.1 -0.15912 0.26339 0.95148
171.93 7.6487 -626.07 -0.16523 0.24291 0.95587
172.48 7.5076 -625.85 -0.27606 0.22092 0.93541
173.05 7.3219 -625.57 -0.41152 0.14264 0.90017
173.59 6.9621 -625.09 -0.47472 0.17873 0.8618
174.62 5.7691 -623.56 -0.94838 0.064491 0.31052
-32.454 -22.749 -608.03 0.070424 0.40437 0.91188
-30.693 -21.926 -608.85 0.089024 0.45351 0.88679
-30.03 -21.912 -608.81 0.084008 0.41808 0.90452
-29.4 -21.955 -608.7 0.047014 0.40617 0.91259
-28.645 -21.771 -608.85 0.028698 0.41281 0.91036
-27.778 -21.373 -609.24 0.062916 0.44124 0.89518
-27.11 -21.338 -609.22 0.069751 0.42514 0.90243
-26.514 -21.43 -609.05 0.052293 0.43395 0.89942
-24.885 -20.827 -609.62 0.089372 0.40897 0.90816
-24.212 -20.77 -609.62 0.12692 0.41769 0.89968
-22.417 -19.854 -610.55 0.26319 0.3304 0.9064
-21.525 -19.406 -611.01 0.3035 0.31176 0.90038
-20.492 -18.696 -611.76 0.26949 0.29042 0.91817
-19.799 -18.596 -611.81 0.29197 0.27931 0.91473
-18.938 -18.191 -612.22 0.28193 0.26928 0.92087
-18.006 -17.658 -612.77 0.27202 0.2852 0.91906
-17.172 -17.31 -613.1 0.12339 0.29796 0.94657
-16.53 -17.302 -613.06 0.10161 0.29909 0.9488
-15.803 -17.146 -613.17 0.18493 0.29008 0.93896
-14.882 -16.62 -613.72 0.17189 0.21223 0.96198
-14.208 -16.562 -613.73 0.095275 0.17416 0.9801
-13.511 -16.448 -613.79 0.078495 0.18066 0.98041
-12.829 -16.355 -613.84 0.14082 0.18386 0.97281
-12.076 -16.134 -614.03 0.12051 0.16243 0.97933
-11.367 -16.02 -614.1 0.050614 0.16611 0.98481
-10.668 -15.906 -614.18 0.08957 0.18988 0.97771
-9.907 -15.656 -614.41 0.08866 0.17844 0.97995
-9.2286 -15.571 -614.43 0.011468 0.14494 0.98937
-8.588 -15.57 -614.38 -0.012994 0.18137 0.98333
-7.9134 -15.513 -614.39 0.040165 0.18647 0.98164
-7.2282 -15.405 -614.45 0.11807 0.21695 0.96902
-6.4712 -15.177 -614.66 0.13926 0.20893 0.96796
-5.7505 -15.006 -614.79 0.041432 0.18045 0.98271
-5.0291 -14.841 -614.93 -0.060582 0.16685 0.98412
-4.4535 -14.976 -614.71 -0.16345 0.21925 0.96188
-3.8439 -15.018 -614.6 -0.13542 0.23227 0.96318
-3.2185 -15.032 -614.52 -0.11632 0.23636 0.96468
-2.5582 -14.995 -614.51 -0.14243 0.2595 0.95518
-2.0121 -15.166 -614.25 -0.21786 0.25819 0.94121
-1.3731 -15.172 -614.19 -0.22843 0.27248 0.93465
-0.82169 -15.328 -613.95 -0.10502 0.28756 0.95199
-0.19775 -15.348 -613.86 0.0036859 0.29995 0.95395
0.56527 -15.091 -614.1 0.25766 0.30324 0.91742
1.3683 -14.749 -614.43 0.41262 0.16464 0.8959
2.3657 -14.029 -615.2 0.61695 0.021804 0.7867
3.4711 -13.074 -616.24 0.70409 -0.070365 0.70662
4.5243 -12.205 -617.18 0.62275 -0.09917 0.77611
5.4279 -11.663 -617.74 0.62598 -0.11244 0.77169
6.2423 -11.277 -618.13 0.62598 -0.11244 0.77169
8.3098 -8.3269 -621.47 0.93122 -0.24757 0.26746
12.091 -1.8289 -628.89 -0.76702 0.61837 0.17117
15.163 3.2596 -634.68 0.70792 -0.67065 0.22152
16.037 3.8031 -635.25 0.68879 -0.68938 0.22434
16.914 4.3611 -635.84 0.7005 -0.69166 0.17583
35.441 16.028 -648.06 0.51412 -0.63743 0.5739
39.49 17.248 -649.14 0.40769 -0.70032 0.58595
40.118 17.359 -649.22 0.42476 -0.70392 0.56928
65.273 36.893 -670.24 0.32451 0.2501 0.91222
65.988 37.321 -670.68 0.28969 0.23422 0.92802
66.636 37.562 -670.9 0.18194 0.22273 0.95775
67.249 37.733 -671.06 0.048261 0.21929 0.97447
67.815 37.759 -671.04 -0.10821 0.22411 0.96854
68.348 37.729 -670.95 -0.15501 0.19372 0.96873
68.883 37.677 -670.83 -0.23938 0.19796 0.95053
69.39 37.582 -670.67 -0.37329 0.21365 0.90278
69.855 37.359 -670.36 -0.43013 0.20784 0.87851
70.313 37.113 -670.02 -0.50872 0.14642 0.84839
70.796 36.918 -669.75 -0.56247 0.11347 0.819
71.229 36.608 -669.33 -0.60252 0.11576 0.78967
71.634 36.226 -668.84 -0.71268 0.039116 0.7004
72.061 35.887 -668.4 -0.78127 0.025569 0.62366
72.472 35.535 -667.93 0.84094 -0.0025348 -0.54113
72.831 35.002 -667.26 0.86206 0.073702 -0.50142
73.225 34.577 -666.71 -0.90031 -0.044627 0.43296
73.558 33.973 -665.97 -0.93362 -0.10825 0.34151
73.889 33.376 -665.21 -0.95291 -0.11207 0.2818
74.16 32.607 -664.27 -0.98039 -0.13558 0.143
74.381 31.68 -663.14 -0.98288 -0.16031 0.090851
74.641 30.867 -662.15 -0.96391 -0.254 0.079721
74.953 30.191 -661.31 -0.92075 -0.37829 0.095506
75.289 29.565 -660.53 -0.76781 -0.62686 0.13233
75.714 29.182 -660.03 -0.5948 -0.78889 0.15448
76.202 28.971 -659.73 -0.30862 -0.93419 0.179
76.726 28.869 -659.56 -0.093336 -0.98142 0.16764
77.281 28.852 -659.48 -0.042835 -0.98391 0.17345
77.86 28.929 -659.52 0.12223 -0.96841 0.21735
78.47 29.055 -659.61 0.01162 -0.98626 0.16481
79.007 29.003 -659.5 -0.12258 -0.98628 0.11057
79.548 28.929 -659.36 -0.10015 -0.98715 0.12449
80.114 28.955 -659.34 0.022105 -0.98088 0.19336
80.697 29.003 -659.35 0.0042665 -0.97442 0.22469
81.258 29.015 -659.3 -0.023739 -0.97003 0.24183
81.8 28.984 -659.21 -0.020837 -0.96308 0.26842
82.383 29.032 -659.22 -0.04052 -0.94201 0.33313
82.917 28.973 -659.09 -0.023662 -0.94197 0.33487
83.494 29.006 -659.08 -0.019185 -0.94428 0.32858
84.055 29.004 -659.03 0.016846 -0.97219 0.23361
84.619 29.023 -659 -0.038262 -0.97138 0.23441
85.193 29.086 -659.01 -0.069841 -0.96638 0.24743
85.704 28.925 -658.78 -0.090514 -0.95756 0.27366
86.244 28.887 -658.68 -0.12419 -0.91345 0.38753
86.807 28.899 -658.65 -0.14765 -0.89533 0.42022
89.53 28.673 -658.12 -0.056418 -0.81618 0.57504
90.096 28.699 -658.1 -0.033623 -0.78928 0.61311
90.66 28.711 -658.07 -0.02814 -0.73797 0.67425
91.215 28.695 -657.99 -0.10584 -0.74336 0.66047
91.781 28.721 -657.97 -0.16841 -0.73513 0.65668
92.327 28.675 -657.85 -0.24004 -0.70805 0.66412
98.015 27.176 -655.53 -0.61853 -0.5976 0.5102
98.478 26.871 -655.11 -0.67364 -0.57791 0.46069
98.964 26.603 -654.76 -0.47263 -0.5726 0.66988
99.511 26.557 -654.64 -0.5044 -0.48629 0.71352
100.03 26.426 -654.44 -0.49635 -0.59991 0.62749
100.5 26.121 -654.03 -0.61023 -0.57976 0.53991
100.98 25.844 -653.65 -0.61733 -0.50222 0.60554
101.51 25.719 -653.45 -0.5873 -0.49891 0.63732
102 25.465 -653.11 -0.58494 -0.51433 0.62715
102.49 25.218 -652.76 -0.66714 -0.4416 0.59993
102.95 24.877 -652.31 -0.70979 -0.45763 0.53551
103.46 24.695 -652.04 -0.71984 -0.4679 0.51273
103.91 24.296 -651.52 -0.74459 -0.48394 0.45977
104.4 24.019 -651.15 -0.7679 -0.4791 0.4252
104.87 23.707 -650.72 -0.76899 -0.42865 0.47425
105.32 23.301 -650.2 0.76942 0.40168 -0.49663
105.79 22.96 -649.75 -0.76594 -0.44044 0.46835
106.28 22.669 -649.36 -0.79728 -0.41685 0.43656
106.73 22.285 -648.86 -0.82016 -0.32486 0.47097
107.17 21.785 -648.21 0.81319 0.34773 -0.4667
107.63 21.407 -647.72 -0.80629 -0.43087 0.40527
108.11 21.109 -647.32 -0.81582 -0.41891 0.39868
108.56 20.674 -646.75 -0.83302 -0.34852 0.42967
108.99 20.137 -646.08 -0.74295 -0.26421 0.61499
109.46 19.753 -645.57 -0.60944 -0.089062 0.78781
109.95 19.49 -645.21 -0.54065 -0.019534 0.84102
110.46 19.235 -644.85 -0.34668 0.13235 0.9286
110.99 19.066 -644.6 -0.21332 0.15275 0.96497
111.54 19.028 -644.51 -0.17019 0.21342 0.96202
112.13 19.111 -644.55 -0.16387 0.27162 0.94835
112.63 18.863 -644.2 -0.17733 0.28596 0.94169
113.19 18.81 -644.09 -0.19663 0.28233 0.93895
113.76 18.807 -644.03 -0.19816 0.29803 0.93376
114.31 18.746 -643.9 -0.24694 0.30592 0.91947
114.85 18.606 -643.69 -0.23807 0.31203 0.91976
115.37 18.387 -643.38 -0.24813 0.30278 0.92019
167.28 7.9597 -625.98 0.35154 0.29746 0.88766
167.9 8.4221 -626.47 0.28656 0.30759 0.90734
174.12 7.4266 -624.69 -0.66122 0.17264 0.73006
174.54 5.7781 -622.69 -0.94838 0.064491 0.31052
-34.795 -21.751 -608.46 0.063205 0.45662 0.88741
-33.959 -21.44 -608.75 0.040195 0.45064 0.8918
-33.22 -21.277 -608.87 0.0097692 0.44845 0.89375
-32.568 -21.269 -608.82 0.047314 0.43037 0.90141
-31.956 -21.348 -608.68 0.071342 0.41871 0.90531
-31.143 -21.043 -608.96 0.099861 0.43564 0.89457
-30.158 -20.454 -609.57 0.084455 0.36 0.92912
-29.562 -20.554 -609.4 -0.053059 0.40105 0.91452
-28.945 -20.603 -609.29 0.0063466 0.38495 0.92292
-28.135 -20.312 -609.55 0.10472 0.37069 0.92283
-27.25 -19.886 -609.98 0.094767 0.37912 0.92048
-26.651 -19.972 -609.82 0.040114 0.42889 0.90246
-25.946 -19.872 -609.88 0.068271 0.42333 0.9034
-25.168 -19.638 -610.09 0.098098 0.40063 0.91097
-24.349 -19.318 -610.4 0.093335 0.39121 0.91555
-23.664 -19.247 -610.41 0.13867 0.36829 0.91931
-22.881 -18.991 -610.64 0.19623 0.30818 0.93087
-21.938 -18.452 -611.2 0.35132 0.28435 0.89203
-21.044 -17.99 -611.68 0.291 0.2471 0.92426
-20.154 -17.542 -612.12 0.27758 0.21832 0.93557
-19.498 -17.514 -612.1 0.30613 0.18717 0.93341
-18.494 -16.846 -612.8 0.36448 0.17247 0.9151
-17.612 -16.398 -613.27 0.20079 0.17987 0.96298
-16.938 -16.333 -613.27 0.13993 0.17404 0.97475
-16.192 -16.148 -613.42 0.16219 0.18922 0.96845
-15.471 -15.984 -613.56 0.20538 0.16828 0.96411
-14.684 -15.707 -613.81 0.10175 0.10596 0.98915
-13.993 -15.621 -613.85 0.032904 0.10509 0.99392
-13.298 -15.514 -613.91 0.095428 0.10873 0.98948
-12.557 -15.314 -614.09 0.1685 0.14463 0.97503
-11.788 -15.065 -614.31 0.081867 0.14102 0.98662
-11.132 -15.036 -614.28 0.090446 0.11783 0.98891
-10.415 -14.894 -614.39 0.11985 0.092398 0.98848
-9.7113 -14.758 -614.49 0.078259 0.06615 0.99474
-9.0488 -14.7 -614.49 0.0025409 0.07886 0.99688
-8.3726 -14.636 -614.51 0.0081655 0.095391 0.99541
-7.6708 -14.507 -614.6 0.11742 0.1532 0.98119
-6.895 -14.236 -614.85 0.12901 0.13683 0.98216
-6.234 -14.186 -614.84 0.094736 0.083804 0.99197
-5.5155 -14.036 -614.96 0.039611 0.060757 0.99737
-4.8659 -13.992 -614.95 -0.075021 0.10651 0.99148
-4.2593 -14.048 -614.83 -0.12366 0.13822 0.98265
-3.6044 -14.027 -614.79 -0.06288 0.17282 0.98294
-2.9419 -13.969 -614.79 -0.052387 0.2252 0.9729
-2.2915 -13.932 -614.79 -0.15798 0.26904 0.95008
-1.6902 -14.003 -614.64 -0.19679 0.26702 0.94339
-1.16 -14.201 -614.35 -0.16914 0.28057 0.94481
-0.51492 -14.179 -614.31 -0.093467 0.29279 0.9516
0.14683 -14.136 -614.31 0.050088 0.23039 0.97181
0.83048 -14.036 -614.36 0.12169 0.20733 0.97067
1.6517 -13.665 -614.73 -0.36126 -0.082638 -0.9288
2.5387 -13.144 -615.27 0.59045 0.0067442 0.80705
3.6667 -12.139 -616.37 0.67193 -0.073533 0.73696
13.686 0.7044 -630.84 -0.76903 0.63272 0.090874
15.866 3.9482 -634.52 0.68232 -0.70234 0.20288
16.728 4.492 -635.08 0.67929 -0.70532 0.20273
25.048 10.617 -641.66 0.64744 -0.6839 0.33631
25.826 11.02 -642.06 0.65365 -0.67663 0.33901
45.746 17.382 -647.82 -0.95229 -0.25523 0.16735
46.85 17.232 -647.54 -0.99552 0.020364 0.092298
65.504 37.976 -670.66 0.30749 0.26173 0.91485
66.188 38.325 -671.01 0.2312 0.28584 0.92997
66.84 38.574 -671.25 0.091262 0.25088 0.96371
67.415 38.629 -671.27 -0.04191 0.21177 0.97642
67.995 38.714 -671.31 -0.10442 0.21817 0.97031
68.513 38.626 -671.16 -0.20339 0.21314 0.95562
69.032 38.545 -671.01 -0.29042 0.20415 0.93487
69.513 38.386 -670.78 -0.42517 0.17687 0.88766
71.33 37.362 -669.38 -0.65735 0.11912 0.74411
71.735 36.98 -668.89 -0.80208 0.01912 0.59691
72.115 36.534 -668.32 -0.80797 -0.048657 0.58722
72.52 36.153 -667.82 -0.84576 -0.0073067 0.53351
72.879 35.627 -667.15 -0.87421 -0.066723 0.48093
73.246 35.131 -666.52 -0.93356 -0.096247 0.34527
73.55 34.462 -665.69 -0.95231 -0.16244 0.2583
73.875 33.836 -664.91 -0.96205 -0.16485 0.21745
74.101 32.93 -663.8 -0.98073 -0.17695 0.08282
74.337 32.061 -662.74 -0.98217 -0.16282 0.093984
74.589 31.212 -661.71 -0.96302 -0.25861 0.075577
74.837 30.357 -660.66 0.9369 0.32535 -0.1279
75.215 29.867 -660.03 0.85037 0.51233 -0.11997
76.104 29.216 -659.17 -0.34845 -0.87366 0.33956
76.629 29.114 -659 -0.17163 -0.90308 0.39368
77.158 29.032 -658.85 0.10659 0.94079 -0.32179
77.75 29.123 -658.9 0.025672 -0.97639 0.21448
78.339 29.2 -658.94 -0.063041 -0.99347 0.095116
78.86 29.09 -658.75 -0.12809 -0.99143 0.025609
79.403 29.015 -658.62 -0.088554 -0.99602 0.010449
79.992 29.092 -658.66 0.028941 -0.99891 0.036635
80.563 29.14 -658.66 0.040827 -0.9991 0.011141
81.116 29.116 -658.57 0.014836 -0.99989 0.0021848
81.685 29.157 -658.57 0.0046628 -0.9993 0.037183
82.247 29.162 -658.53 0.011218 -0.9953 0.0962
82.801 29.138 -658.44 0.0036866 -0.99449 0.10475
83.384 29.2 -658.45 0.037045 -0.9863 0.16075
83.936 29.169 -658.36 0.019465 -0.98274 0.18396
84.499 29.181 -658.33 -0.0073574 -0.98462 0.17455
85.064 29.201 -658.3 -0.041291 -0.97619 0.21296
85.602 29.148 -658.19 -0.10325 -0.93486 0.33968
86.16 29.146 -658.13 -0.099354 -0.91811 0.38368
95.942 28.242 -656.14 -0.46995 -0.62893 0.61935
96.433 28.01 -655.8 -0.49531 -0.60161 0.62669
96.94 27.835 -655.55 -0.49388 -0.5833 0.64486
97.471 27.761 -655.41 -0.5144 -0.60088 0.61183
97.956 27.499 -655.05 -0.61123 -0.62034 0.4915
98.422 27.195 -654.65 -0.60913 -0.59091 0.52895
104.39 24.53 -650.89 -0.7608 -0.47656 0.44053
104.81 24.016 -650.23 -0.7483 -0.45564 0.48212
105.3 23.761 -649.88 -0.74643 -0.40783 0.52585
105.79 23.47 -649.49 -0.76707 -0.40755 0.49549
106.25 23.137 -649.05 -0.79394 -0.43102 0.4288
106.69 22.687 -648.47 -0.81358 -0.40176 0.42034
107.15 22.259 -647.91 -0.81223 -0.39033 0.4335
107.63 21.939 -647.48 -0.82151 -0.39429 0.41189
108.1 21.59 -647.01 -0.83149 -0.42161 0.36177
108.5 20.997 -646.26 -0.84527 -0.32458 0.42446
108.97 20.641 -645.78 -0.69132 -0.20819 0.69191
109.47 20.364 -645.41 -0.59947 -0.11473 0.79213
109.97 20.109 -645.06 -0.41234 0.015463 0.9109
110.5 19.969 -644.85 -0.25343 0.1106 0.96101
111.07 19.973 -644.79 -0.17693 0.16513 0.97027
111.64 19.985 -644.75 -0.12302 0.17641 0.9766
112.19 19.91 -644.62 -0.13474 0.20926 0.96853
112.75 19.878 -644.52 -0.18676 0.25386 0.94904
113.32 19.883 -644.47 -0.17014 0.27005 0.9477
113.86 19.801 -644.32 -0.20053 0.29153 0.93531
114.4 19.668 -644.11 -0.25069 0.29667 0.92149
114.94 19.535 -643.91 -0.25072 0.30899 0.91742
115.48 19.439 -643.74 -0.23251 0.31492 0.9202
116.03 19.393 -643.64 -0.23836 0.3153 0.91857
116.57 19.267 -643.43 -0.24085 0.3352 0.91084
117.11 19.142 -643.22 -0.25815 0.32654 0.90925
117.64 18.987 -642.99 -0.2666 0.34336 0.90057
118.18 18.862 -642.8 -0.29768 0.34639 0.88961
118.71 18.7 -642.54 -0.2929 0.35111 0.88934
166.69 8.6634 -625.98 0.33644 0.31158 0.88866
167.32 9.1545 -626.5 0.30131 0.31002 0.90172
167.93 9.5586 -626.93 0.21152 0.30077 0.92994
168.53 9.759 -627.11 -0.013004 0.30886 0.95102
169.11 9.8218 -627.14 -0.19993 0.28369 0.93784
169.68 9.7312 -626.98 -0.19993 0.28369 0.93784
170.23 9.4878 -626.63 -0.24048 0.24094 0.94028
170.78 9.3469 -626.42 -0.12406 0.28085 0.9517
171.37 9.5183 -626.56 -0.096791 0.27901 0.9554
171.95 9.5659 -626.56 -0.17737 0.29619 0.93852
172.51 9.4026 -626.31 -0.42671 0.14621 0.89249
173.06 9.1959 -626.01 -0.59521 0.18263 0.78254
-36.459 -20.719 -608.85 0.22944 0.38643 0.89332
-35.709 -20.563 -608.98 0.071897 0.34837 0.9346
-34.985 -20.421 -609.08 0.084311 0.37269 0.92412
-34.246 -20.258 -609.2 0.096632 0.36595 0.9256
-33.427 -19.982 -609.46 0.066958 0.38983 0.91845
-32.72 -19.869 -609.52 0.0061506 0.3903 0.92067
-32.091 -19.911 -609.41 -0.065879 0.39321 0.91709
-29.765 -19.237 -610.01 0.046367 0.3384 0.93986
-29.16 -19.294 -609.88 -0.042139 0.34349 0.93821
-28.53 -19.329 -609.78 0.08841 0.32436 0.94179
-27.625 -18.868 -610.25 0.13197 0.29722 0.94565
-26.8 -18.563 -610.54 0.11688 0.26626 0.95679
-26.2 -18.641 -610.39 0.056263 0.31923 0.94601
-25.472 -18.492 -610.51 0.097628 0.3199 0.94241
-24.656 -18.172 -610.8 0.098465 0.31492 0.944
-23.984 -18.129 -610.8 0.067429 0.31594 0.94638
-23.274 -18.008 -610.88 0.16383 0.30497 0.93816
-22.389 -17.582 -611.31 0.28241 0.26429 0.92217
-21.498 -17.128 -611.76 0.33584 0.18712 0.92315
-18.262 -15.883 -612.95 0.33699 0.056148 0.93983
-17.403 -15.485 -613.36 0.1814 0.073036 0.98069
-16.69 -15.35 -613.45 0.13863 0.061148 0.98845
-15.979 -15.221 -613.54 0.17232 0.048477 0.98385
-15.207 -14.972 -613.77 0.19468 0.089332 0.97679
-14.434 -14.716 -614.01 0.12888 0.099909 0.98662
-13.815 -14.758 -613.9 0.069335 0.083639 0.99408
-13.115 -14.629 -613.98 0.12927 0.094448 0.9871
-12.31 -14.324 -614.27 0.15346 0.035451 0.98752
-11.588 -14.159 -614.41 0.079405 0.017095 0.9967
-10.953 -14.173 -614.32 0.079856 0.025164 0.99649
-10.216 -13.981 -614.49 0.084098 0.039711 0.99567
-9.5156 -13.859 -614.57 0.038859 0.05633 0.99766
-8.8349 -13.773 -614.61 0.037941 0.0417 0.99841
-8.2238 -13.808 -614.51 0.1111 0.099426 0.98882
-7.448 -13.537 -614.76 0.12896 0.062558 0.98967
-6.7318 -13.387 -614.87 0.11414 0.048514 0.99228
-6.0685 -13.336 -614.87 0.067632 0.036141 0.99706
-5.3667 -13.208 -614.97 0.021335 0.044222 0.99879
-4.6831 -13.107 -615.02 -0.057786 0.046622 0.99724
-4.0765 -13.163 -614.9 -0.040348 0.089035 0.99521
-3.4004 -13.099 -614.92 0.0031973 0.11862 0.99293
-2.6911 -12.934 -615.04 -0.027137 0.12489 0.9918
-2.0671 -12.955 -614.95 -0.14088 0.16374 0.97639
-1.4961 -13.075 -614.76 -0.19169 0.17951 0.9649
-0.9137 -13.188 -614.58 -0.15138 0.23817 0.95935
-0.24971 -13.123 -614.58 -0.074809 0.22577 0.9713
0.37651 -13.144 -614.51 0.060299 0.17408 0.98288
1.0587 -13.051 -614.55 0.1215 0.17627 0.97682
1.8473 -12.729 -614.86 0.36177 0.068059 0.92978
2.8061 -12.088 -615.55 0.58956 -0.053386 0.80596
3.8193 -11.303 -616.39 0.64025 -0.060085 0.76581
28.085 12.543 -642.76 0.63052 -0.64899 0.42573
28.954 13.145 -643.4 0.62306 -0.64478 0.44278
29.758 13.605 -643.89 0.63313 -0.63369 0.4445
30.488 13.893 -644.16 0.64303 -0.62644 0.44055
31.36 14.51 -644.81 0.6448 -0.60859 0.46245
65.047 38.695 -670.72 0.30986 0.27578 0.90991
65.797 39.18 -671.23 0.27408 0.26753 0.92374
66.416 39.379 -671.42 0.10787 0.26051 0.95943
67.012 39.492 -671.49 0.025272 0.23622 0.97137
67.566 39.505 -671.46 -0.066824 0.22353 0.9724
68.095 39.46 -671.36 -0.14471 0.17683 0.97355
68.646 39.473 -671.31 -0.24487 0.171 0.95436
69.145 39.342 -671.11 -0.32911 0.17176 0.92854
69.632 39.176 -670.86 -0.42756 0.14745 0.89188
70.095 38.945 -670.54 -0.54151 0.1155 0.83272
70.545 38.707 -670.21 -0.61677 0.11288 0.77901
70.996 38.425 -669.83 -0.66733 0.089637 0.73934
71.39 38.037 -669.33 -0.73185 0.049395 0.67968
71.791 37.634 -668.82 -0.81951 0.023723 0.57257
72.167 37.181 -668.23 -0.85001 -0.064668 0.52278
72.556 36.734 -667.65 -0.87569 -0.037284 0.48143
72.896 36.166 -666.94 -0.91455 -0.11102 0.38895
73.268 35.691 -666.33 -0.93781 -0.1167 0.32694
73.54 34.929 -665.4 -0.96681 -0.17226 0.18868
73.859 34.282 -664.59 -0.97366 -0.18773 0.12942
74.06 33.319 -663.41 -0.98133 -0.17672 0.075961
74.331 32.55 -662.47 -0.98124 -0.17879 0.072142
74.526 31.565 -661.26 -0.96249 -0.25811 0.08358
74.83 30.845 -660.38 -0.94568 -0.27656 0.17089
75.206 30.348 -659.74 0.87621 0.48193 0.0012553
75.545 29.736 -658.98 0.56928 0.81115 -0.13397
76.027 29.511 -658.65 -0.32276 -0.91631 0.23708
76.55 29.401 -658.48 -0.26733 -0.93194 0.24498
77.086 29.342 -658.36 -0.14254 -0.96216 0.23224
77.619 29.238 -658.17 -0.13084 -0.95912 0.25095
78.158 29.193 -658.07 -0.19725 -0.97612 0.09103
78.683 29.09 -657.9 -0.12099 -0.99174 0.042627
79.204 28.98 -657.71 -0.087529 -0.99614 0.0061278
79.782 29.007 -657.7 -0.041285 -0.99913 -0.0066143
80.346 29.033 -657.67 -0.038619 0.99465 0.095783
80.893 28.98 -657.56 -0.037865 0.99445 0.098201
81.464 29.028 -657.56 -0.04386 0.99591 0.078984
82.055 29.112 -657.6 -0.070794 0.99641 0.046497
82.64 29.174 -657.63 0.083791 -0.99637 0.015004
83.226 29.236 -657.65 0.098184 -0.9883 0.1167
83.791 29.256 -657.63 0.1009 -0.98096 0.16594
84.365 29.318 -657.64 0.074522 -0.97801 0.1948
87.192 29.393 -657.46 -0.028834 -0.9125 0.40807
87.738 29.333 -657.35 -0.071276 -0.90399 0.42157
88.318 29.417 -657.39 -0.03246 -0.81785 0.57451
88.859 29.343 -657.25 -0.043635 -0.81076 0.58375
89.402 29.319 -657.17 -0.011382 -0.77547 0.63129
90 29.425 -657.25 0.0029456 -0.78464 0.61994
90.566 29.452 -657.23 -0.00068382 -0.78448 0.62015
91.124 29.449 -657.17 -0.09155 -0.79227 0.60326
91.684 29.447 -657.12 -0.13558 -0.79393 0.5927
92.213 29.366 -656.97 -0.19308 -0.80639 0.55898
92.764 29.327 -656.87 -0.3264 -0.76639 0.55327
93.288 29.232 -656.7 -0.36863 -0.76087 0.53403
93.761 28.963 -656.33 -0.35279 -0.73068 0.5845
94.301 28.875 -656.19 -0.29857 -0.7191 0.62749
94.839 28.837 -656.08 -0.26708 -0.67263 0.6901
95.384 28.769 -655.95 -0.42603 -0.67882 0.59809
95.903 28.652 -655.76 -0.47012 -0.67279 0.57127
96.372 28.362 -655.37 -0.47675 -0.67854 0.55884
96.913 28.288 -655.23 -0.5265 -0.62083 0.58083
97.433 28.163 -655.04 -0.52662 -0.66357 0.53136
97.882 27.801 -654.55 -0.61079 -0.60898 0.50603
98.396 27.655 -654.33 -0.45353 -0.60087 0.65823
98.93 27.552 -654.16 -0.42735 -0.61786 0.66001
99.465 27.448 -653.99 -0.50655 -0.65667 0.55874
99.897 27.014 -653.42 -0.52169 -0.65508 0.54654
100.44 26.976 -653.33 -0.56285 -0.59036 0.57851
100.95 26.786 -653.05 -0.52709 -0.53662 0.65895
101.43 26.517 -652.68 -0.6265 -0.5273 0.57397
108.02 21.885 -646.49 -0.82897 -0.40959 0.38085
108.48 21.478 -645.96 -0.77653 -0.34259 0.52881
109 21.273 -645.67 -0.60405 -0.18641 0.77484
109.5 21.04 -645.35 -0.43445 -0.040368 0.89979
110.03 20.908 -645.13 -0.31254 0.029347 0.94945
110.59 20.855 -645.02 -0.24239 0.074147 0.96734
111.14 20.78 -644.88 -0.15247 0.094416 0.98379
112.84 20.786 -644.71 -0.10708 0.18154 0.97753
113.39 20.733 -644.6 -0.12971 0.20325 0.9705
113.97 20.737 -644.56 -0.15738 0.21689 0.96343
114.52 20.699 -644.46 -0.19763 0.25861 0.94555
115.05 20.58 -644.26 -0.23926 0.28804 0.92725
115.6 20.469 -644.08 -0.24647 0.29185 0.92416
116.14 20.365 -643.9 -0.2356 0.28539 0.929
116.68 20.269 -643.73 -0.23793 0.29639 0.92496
117.23 20.187 -643.58 -0.25209 0.3001 0.92
117.76 20.047 -643.37 -0.25528 0.32937 0.90903
118.3 19.928 -643.17 -0.2946 0.3322 0.89602
118.83 19.781 -642.95 -0.27486 0.39316 0.87743
119.33 19.475 -642.53 -0.25228 0.41137 0.87586
119.88 19.386 -642.38 -0.24676 0.42005 0.87331
120.43 19.347 -642.29 -0.22568 0.42533 0.87645
120.99 19.322 -642.19 -0.21481 0.45673 0.86328
169.7 10.708 -627.25 -0.35656 0.25402 0.89907
170.24 10.465 -626.9 -0.26906 0.2437 0.93178
170.8 10.338 -626.7 -0.12885 0.26255 0.95628
171.39 10.502 -626.84 -0.077725 0.24833 0.96555
171.96 10.492 -626.77 -0.15009 0.25508 0.9552
172.52 10.322 -626.52 -0.44859 0.17423 0.87659
173.06 10.057 -626.15 -0.58061 0.15643 0.79901
173.6 9.6529 -625.61 -0.61276 0.094509 0.7846
174.13 9.1983 -625.01 -0.65167 0.13479 0.74643
174.39 6.0285 -621.17 0.96554 -0.044622 -0.2564
-36.017 -19.425 -609.37 0.1484 0.24814 0.95729
-35.286 -19.297 -609.46 0.10922 0.32374 0.93982
-34.594 -19.205 -609.5 0.11723 0.33293 0.93564
-33.739 -18.865 -609.84 0.10043 0.26862 0.958
-32.999 -18.709 -609.96 0.080133 0.23582 0.96849
-32.293 -18.595 -610.02 -0.0080005 0.24535 0.9694
-31.69 -18.666 -609.89 0.067764 0.20047 0.97735
-31.063 -18.709 -609.77 0.092456 0.21523 0.97218
-30.179 -18.29 -610.19 0.13966 0.15592 0.97785
-29.397 -18.034 -610.42 0.0052433 0.16968 0.98549
-28.785 -18.112 -610.28 0.036278 0.21357 0.97625
-28.167 -18.155 -610.16 0.14363 0.18443 0.97229
-27.37 -17.885 -610.42 0.14093 0.10492 0.98444
-26.577 -17.63 -610.65 0.17261 0.17329 0.96963
-25.904 -17.58 -610.66 0.18432 0.15072 0.97124
-25.016 -17.139 -611.1 0.16865 0.15837 0.97287
-24.292 -16.997 -611.2 0.11756 0.18319 0.97602
-23.669 -17.025 -611.1 0.091307 0.22674 0.96967
-22.886 -16.769 -611.34 0.23606 0.15368 0.95951
-22.053 -16.436 -611.67 0.29192 0.11317 0.94972
-21.199 -16.052 -612.05 0.33101 0.060639 0.94168
-20.378 -15.718 -612.36 0.30383 0.020498 0.95251
-19.645 -15.547 -612.51 0.29271 0.015109 0.95608
-18.846 -15.27 -612.77 0.31624 0.050866 0.94732
-17.948 -14.793 -613.26 0.30167 0.0026175 0.95341
-17.23 -14.636 -613.38 0.1469 -0.052863 0.98774
-16.519 -14.508 -613.47 0.1685 -0.034047 0.98511
-15.801 -14.351 -613.59 0.22512 -0.025315 0.974
-14.98 -14.031 -613.9 0.22112 -0.018869 0.97506
-14.239 -13.817 -614.09 0.089947 -0.059884 0.99414
-12.908 -13.731 -614.07 0.15693 -0.042969 0.98668
-12.151 -13.496 -614.27 0.14722 -0.093681 0.98466
-11.474 -13.424 -614.3 0.099366 -0.075483 0.99218
-10.772 -13.296 -614.39 0.12267 -0.072569 0.98979
-10.069 -13.16 -614.48 0.14363 -0.030587 0.98916
-9.3524 -13.01 -614.59 0.065162 -0.023745 0.99759
-6.5708 -12.559 -614.89 0.12023 -0.040569 0.99192
-5.8675 -12.423 -614.98 0.087745 -0.082059 0.99276
-5.1998 -12.351 -615.01 -0.0031072 -0.030881 0.99952
-4.5418 -12.315 -614.99 0.015312 -0.045786 0.99883
-3.9148 -12.321 -614.91 0.026811 -0.02977 0.9992
-3.1889 -12.135 -615.07 0.038358 0.025719 0.99893
-2.5097 -12.057 -615.1 -0.044977 -0.022401 0.99874
-1.9228 -12.148 -614.94 -0.16489 0.0058834 0.98629
-0.040428 -12.181 -614.73 -0.023122 0.09184 0.99551
0.60167 -12.173 -614.68 0.13225 0.088669 0.98724
1.3254 -11.988 -614.83 0.27018 0.10826 0.9567
2.0725 -11.759 -615.04 0.3852 0.045163 0.92173
2.9806 -11.195 -615.62 0.54832 -0.0085082 0.83622
42.053 19.283 -648.66 0.038717 -0.91946 0.39128
65.952 40.077 -671.44 0.22276 0.25801 0.94011
66.605 40.333 -671.69 0.099905 0.27428 0.95645
67.17 40.389 -671.71 0.0022371 0.27364 0.96183
67.742 40.445 -671.72 -0.12473 0.23952 0.96285
68.244 40.329 -671.54 -0.18967 0.15767 0.96911
68.762 40.241 -671.38 -0.29131 0.13523 0.94702
72.202 37.748 -668.06 -0.86485 -0.012363 0.50187
72.585 37.316 -667.5 -0.9018 -0.061761 0.42771
72.92 36.734 -666.76 -0.93746 -0.15918 0.30956
73.249 36.129 -666 -0.95593 -0.14502 0.25528
73.519 35.353 -665.06 -0.97294 -0.18049 0.14426
73.788 34.584 -664.1 -0.97648 -0.20345 0.071401
74.022 33.721 -663.04 -0.97554 -0.20362 0.082775
74.285 32.923 -662.05 -0.98001 -0.19575 0.035459
74.472 31.903 -660.81 -0.97229 -0.22413 0.066423
74.848 31.398 -660.17 -0.94387 -0.29204 0.15432
74.871 29.918 -658.39 0.50401 0.86205 0.053377
74.949 28.582 -656.77 0.22307 0.87388 0.43193
75.687 29.06 -657.27 0.085236 0.90886 0.40831
76.356 29.381 -657.6 0.025208 -0.99737 0.068019
77 29.6 -657.8 -0.14254 -0.96216 0.23224
78.561 29.241 -657.23 -0.19441 -0.97981 0.046715
83.639 29.328 -656.85 0.1009 -0.98096 0.16594
84.264 29.512 -657.01 0.074522 -0.97801 0.1948
84.835 29.56 -657.01 0.077031 -0.96697 0.24299
85.378 29.486 -656.88 0.029267 -0.95322 0.30085
85.984 29.635 -657 0.008721 -0.94798 0.3182
86.555 29.683 -657 0.010515 -0.93327 0.35903
87.101 29.623 -656.89 0.011853 -0.92323 0.38406
87.663 29.628 -656.85 -0.052134 -0.87887 0.4742
88.241 29.712 -656.88 -0.039621 -0.87494 0.4826
100.4 27.372 -652.93 -0.43529 -0.63641 0.6368
100.92 27.225 -652.71 -0.53872 -0.55997 0.62945
101.41 26.985 -652.37 -0.65431 -0.57628 0.48967
101.88 26.68 -651.95 -0.62753 -0.63541 0.44995
102.37 26.426 -651.61 -0.62843 -0.64988 0.42748
102.89 26.264 -651.36 -0.63675 -0.628 0.44739
103.34 25.902 -650.89 -0.72804 -0.57135 0.37885
103.83 25.604 -650.48 -0.73892 -0.54927 0.39026
104.26 25.17 -649.92 -0.70773 -0.51117 0.48767
104.76 24.958 -649.62 -0.72189 -0.46053 0.51651
105.28 24.775 -649.34 -0.75898 -0.44672 0.47371
105.72 24.348 -648.8 0.79776 0.4474 -0.40424
106.16 23.876 -648.18 0.77277 0.47822 -0.41728
106.63 23.528 -647.71 0.82199 0.41441 -0.39064
107.12 23.266 -647.36 -0.80539 -0.4217 0.41656
107.53 22.708 -646.64 -0.8058 -0.39696 0.43944
107.99 22.309 -646.12 -0.732 -0.28406 0.61926
108.5 22.082 -645.81 -0.57838 -0.21889 0.78585
109.01 21.892 -645.53 -0.52213 -0.17903 0.83386
109.54 21.76 -645.31 -0.44899 -0.14755 0.88127
110.07 21.598 -645.07 -0.32703 -0.096512 0.94007
110.62 21.516 -644.92 -0.18329 -0.067024 0.98077
111.19 21.565 -644.93 -0.085433 0.031073 0.99586
111.78 21.634 -644.95 -0.071847 0.078214 0.99434
112.35 21.631 -644.9 -0.091391 0.1224 0.98826
112.92 21.635 -644.86 -0.11705 0.1512 0.98155
113.47 21.619 -644.78 -0.11463 0.15197 0.98172
114.04 21.608 -644.71 -0.13679 0.14736 0.97958
114.61 21.599 -644.65 -0.18864 0.14637 0.97108
115.14 21.509 -644.48 -0.22471 0.17354 0.95885
115.69 21.398 -644.3 -0.24978 0.22454 0.94191
116.23 21.309 -644.14 -0.24554 0.24448 0.93805
120.05 20.705 -643.07 -0.20717 0.42573 0.88081
120.6 20.608 -642.89 -0.1964 0.42124 0.88543
121.13 20.512 -642.72 -0.22099 0.41274 0.88363
121.66 20.336 -642.47 -0.24508 0.42268 0.87251
122.2 20.225 -642.27 -0.23148 0.43292 0.8712
122.72 20.006 -641.96 -0.20808 0.43162 0.87773
166.78 11.002 -626.98 0.27483 0.32121 0.90625
167.39 11.355 -627.34 0.21912 0.31476 0.92353
168 11.672 -627.66 0.13351 0.34939 0.92742
168.58 11.8 -627.77 -0.018935 0.32717 0.94478
169.16 11.812 -627.73 -0.24183 0.25597 0.93595
169.71 11.663 -627.5 -0.31351 0.2428 0.91802
170.25 11.361 -627.08 -0.27135 0.26608 0.92497
170.81 11.271 -626.92 -0.11265 0.22634 0.96751
171.4 11.487 -627.12 -0.09214 0.26027 0.96113
171.97 11.44 -627.01 -0.17821 0.24535 0.95291
172.52 11.248 -626.73 -0.36689 0.20607 0.90715
173.6 10.499 -625.72 -0.65936 0.097471 0.74549
174.11 9.9504 -625.02 -0.66059 0.10791 0.74295
-38.384 -19.626 -608.36 0.29149 0.27034 0.91758
-37.298 -18.875 -609.16 0.36212 0.25348 0.897
-36.404 -18.449 -609.59 0.32006 0.20461 0.92504
-23.376 -15.978 -611.36 0.16501 0.1113 0.97999
-22.629 -15.786 -611.52 0.27017 0.077011 0.95973
-21.776 -15.41 -611.89 0.3121 0.042754 0.94909
-21.063 -15.275 -611.99 0.32761 0.045774 0.9437
-20.15 -14.77 -612.5 0.29317 -0.042194 0.95513
-19.454 -14.67 -612.57 0.21728 -0.11213 0.96965
-18.684 -14.428 -612.79 0.33317 -0.070809 0.9402
-17.809 -14.001 -613.22 0.28532 -0.13637 0.94868
-17.093 -13.852 -613.33 0.19121 -0.097774 0.97667
-16.399 -13.759 -613.38 0.21078 -0.092475 0.97315
-15.613 -13.489 -613.63 0.27226 -0.1038 0.95661
-14.841 -13.239 -613.86 0.18366 -0.12098 0.97552
-14.198 -13.224 -613.82 0.11445 -0.18819 0.97544
-13.503 -13.117 -613.88 0.13549 -0.24161 0.96087
-12.801 -12.989 -613.97 0.18695 -0.18093 0.96556
-12.044 -12.76 -614.18 0.18401 -0.16436 0.96909
-11.351 -12.661 -614.23 0.15613 -0.13549 0.9784
-10.636 -12.518 -614.33 0.1394 -0.12287 0.98258
-5.1152 -11.665 -614.85 0.0056781 -0.17469 0.98461
-4.4512 -11.601 -614.86 0.010197 -0.18046 0.98353
3.0947 -10.438 -615.56 0.4913 -0.051924 0.86944
12.588 -2.5409 -624.19 -0.74407 0.63449 0.20924
15.97 3.1907 -630.79 -0.70654 0.6857 0.17499
17.781 5.6948 -633.65 0.69842 -0.71555 0.014329
18.884 6.723 -634.77 0.71709 -0.69688 -0.011798
19.96 7.7164 -635.87 0.70592 -0.70804 0.019105
64.814 40.462 -671.17 0.31645 0.2611 0.91197
65.536 40.882 -671.6 0.29827 0.25421 0.92001
66.198 41.174 -671.89 0.18603 0.28382 0.94066
66.802 41.309 -672 0.073982 0.27058 0.95985
71.142 39.79 -669.76 -0.73696 0.021198 0.67561
71.534 39.394 -669.25 -0.81685 -0.017269 0.57659
71.927 38.962 -668.69 -0.86734 -0.032247 0.49667
72.254 38.38 -667.97 -0.88848 -0.10049 0.44778
72.62 37.891 -667.33 -0.93018 -0.12094 0.34662
72.924 37.222 -666.5 -0.95607 -0.18148 0.23022
73.231 36.568 -665.68 -0.96036 -0.19468 0.1995
73.504 35.806 -664.74 -0.9784 -0.17748 0.10599
73.717 34.901 -663.62 -0.97351 -0.22595 0.035043
73.988 34.132 -662.68 -0.97171 -0.23535 0.019884
74.201 33.182 -661.5 -0.96784 -0.24843 -0.039634
74.395 32.183 -660.29 -0.96495 -0.25995 0.035989
73.869 29.226 -656.77 0.51682 0.66559 0.53841
75.879 26.967 -653.86 -0.15153 0.9361 0.31741
76.679 27.611 -654.57 0.06089 0.85829 0.50954
91.001 30.111 -656.24 -0.055114 -0.84293 0.5352
91.547 30.058 -656.12 -0.17772 -0.83309 0.52381
92.083 29.998 -656 -0.20816 -0.83148 0.51509
92.638 29.982 -655.93 -0.30778 -0.80225 0.51154
93.151 29.835 -655.7 -0.34801 -0.75963 0.54941
93.676 29.733 -655.53 -0.35279 -0.73068 0.5845
94.229 29.709 -655.45 -0.29857 -0.7191 0.62749
94.76 29.635 -655.31 -0.31476 -0.71665 0.62236
95.298 29.546 -655.15 -0.40829 -0.67836 0.61085
95.767 29.256 -654.76 -0.45109 -0.67347 0.58563
96.319 29.225 -654.68 -0.48457 -0.69418 0.53227
96.83 29.071 -654.44 -0.51825 -0.67125 0.52995
