-42.654 -11.08 -685.24 -0.24622 -0.64377 0.72452
-42.102 -11.302 -685.21 -0.41649 -0.59517 0.68725
-41.619 -11.756 -685.23 -0.49409 -0.53309 0.6868
-41.188 -12.383 -685.29 -0.64576 -0.41585 0.64036
-40.756 -12.982 -685.33 -0.73744 -0.34555 0.58032
65.742 42.452 -663.63 -0.44203 0.33441 0.83233
66.428 43.201 -663.42 -0.39745 0.37055 0.83948
74.526 30.368 -664.67 -0.98105 -0.18974 -0.039323
74.765 28.178 -665.01 -0.80814 -0.3925 0.43916
75.082 26.47 -665.27 -0.69039 -0.44457 0.57072
75.565 25.876 -665.31 -0.61466 -0.41348 0.67173
-46.944 -10.661 -685.04 -0.156 -0.71113 0.68553
-45.844 -11.144 -684.99 -0.058965 -0.72933 0.68161
-45.228 -11.174 -684.92 0.032474 -0.7367 0.67544
-44.405 -10.596 -684.73 0.20046 -0.72078 0.66354
-43.671 -10.278 -684.59 0.013384 -0.76745 0.64097
-40.568 -12.333 -684.58 -0.73322 -0.4155 0.53828
-40.399 -13.76 -684.8 -0.74548 -0.34101 0.57269
-40.049 -14.649 -684.91 -0.74548 -0.34101 0.57269
-39.554 -15.094 -684.93 0.79149 0.33959 -0.50815
74.495 30.445 -664.08 0.9828 0.17952 0.043359
74.802 28.746 -664.33 -0.90754 -0.31143 0.28176
75.174 27.367 -664.52 -0.75142 -0.37954 0.53973
75.641 26.697 -664.58 -0.59224 -0.51788 0.61729
76.1 25.91 -664.67 -0.46742 -0.56614 0.67897
-48.118 -10.331 -684.49 -0.10204 -0.71794 0.68858
-47.308 -9.793 -684.3 -0.10204 -0.71794 0.68858
-46.679 -9.7922 -684.23 -0.13562 -0.70906 0.69199
-46.206 -10.254 -684.26 -0.11909 -0.7057 0.69843
-45.683 -10.583 -684.25 -0.10701 -0.59352 0.79767
-44.964 -10.315 -684.12 0.0096138 -0.59933 0.80044
-44.166 -9.8039 -683.94 0.10975 -0.76624 0.63312
-43.523 -9.7561 -683.86 -0.029081 -0.89891 0.43717
-42.88 -9.7056 -683.78 -0.23991 -0.90804 0.34338
-42.328 -9.9279 -683.75 0.36902 0.8492 -0.37773
-41.831 -10.334 -683.76 -0.47411 -0.81197 0.34048
-41.306 -10.641 -683.76 -0.63932 -0.67611 0.36626
-40.862 -11.222 -683.8 -0.67355 -0.54791 0.49611
-40.459 -11.936 -683.87 -0.76792 -0.41467 0.48821
-40.172 -13.006 -684.02 -0.76757 -0.36845 0.52448
-39.741 -13.614 -684.07 -0.76299 -0.35996 0.53691
-39.297 -14.195 -684.11 -0.80611 -0.33874 0.48521
72.279 38.364 -662.43 0.71386 0.53815 0.4481
72.713 37.518 -662.53 0.82968 0.43953 0.34416
73.095 36.398 -662.67 0.92867 0.30664 0.20869
73.489 35.316 -662.8 0.93233 0.34616 0.10453
73.897 34.273 -662.93 0.96634 0.25408 0.040459
74.203 32.545 -663.19 0.98825 0.15279 0.0031816
74.445 30.403 -663.52 -0.97976 -0.19941 -0.017744
74.789 28.928 -663.72 -0.86213 -0.41946 0.28422
75.212 27.945 -663.84 -0.7625 -0.46083 0.45413
75.698 27.392 -663.88 -0.55302 -0.56956 0.60809
76.178 26.75 -663.94 -0.4744 -0.53205 0.70134
76.683 26.323 -663.95 -0.37731 -0.58708 0.71622
77.248 26.279 -663.89 -0.29135 -0.57191 0.76683
77.791 26.077 -663.85 -0.22843 -0.53494 0.81342
78.303 25.592 -663.88 -0.19011 -0.54852 0.81424
78.852 25.469 -663.83 -0.18212 -0.55893 0.80897
79.494 25.905 -663.69 -0.12427 -0.53505 0.83563
80.016 25.557 -663.69 -0.13507 -0.52627 0.83952
80.568 25.466 -663.64 -0.14252 -0.53905 0.83013
81.153 25.548 -663.56 -0.19292 -0.54543 0.81565
81.687 25.212 -663.56 -0.15605 -0.54905 0.82109
82.817 25.114 -663.44 -0.12672 -0.55556 0.82176
83.411 25.314 -663.34 -0.13491 -0.5402 0.83065
-48.561 -9.7123 -683.81 -0.019986 -0.78284 0.6219
-47.828 -9.4039 -683.68 -0.042342 -0.79575 0.60415
-47.318 -9.7796 -683.68 -0.11252 -0.79621 0.59447
65.235 36.923 -662.92 -0.69148 0.22203 0.68743
66.362 40.256 -662.23 -0.25979 0.40551 0.8764
67.033 40.926 -662.04 -0.19863 0.40429 0.8928
67.624 41.081 -661.95 -0.19863 0.40429 0.8928
68.187 41.127 -661.88 0.0062964 0.44337 0.89632
68.738 41.033 -661.82 0.052418 0.41163 0.90984
69.261 40.826 -661.8 0.14662 0.45026 0.88078
69.742 40.341 -661.82 0.28925 0.46281 0.83794
70.243 39.985 -661.83 0.39767 0.55297 0.73217
70.722 39.472 -661.86 0.43044 0.58834 0.68453
71.252 39.232 -661.83 0.54056 0.52781 0.65515
71.736 38.779 -661.86 0.60743 0.53195 0.58997
72.193 38.1 -661.92 0.70336 0.51818 0.4866
72.647 37.4 -661.98 0.8269 0.4408 0.34919
73.065 36.485 -662.09 0.91742 0.31675 0.24086
73.441 35.286 -662.24 0.93233 0.34616 0.10453
73.868 34.37 -662.35 0.94571 0.31448 0.082104
74.153 32.522 -662.62 -0.98814 -0.15345 0.0061753
74.439 30.667 -662.9 -0.9541 -0.29806 0.029259
74.806 29.35 -663.08 -0.9185 -0.35477 0.17461
75.245 28.462 -663.18 -0.69193 -0.60884 0.388
75.769 28.133 -663.17 -0.4868 -0.66592 0.56531
76.256 27.599 -663.2 -0.435 -0.64713 0.6261
76.776 27.223 -663.21 -0.22044 -0.63757 0.73818
77.35 27.296 -663.13 -0.24654 -0.63699 0.73038
77.89 27.046 -663.11 -0.21443 -0.62665 0.74922
78.417 26.768 -663.09 -0.16023 -0.59139 0.7903
79.003 26.87 -663 -0.17887 -0.64153 0.74595
79.589 26.955 -662.93 -0.15112 -0.64463 0.74941
80.089 26.458 -662.95 -0.14557 -0.60034 0.78639
80.694 26.651 -662.85 -0.13732 -0.59394 0.79271
81.283 26.784 -662.76 -0.16456 -0.59622 0.78577
81.786 26.328 -662.78 -0.18868 -0.57676 0.79483
82.323 26.056 -662.76 -0.10162 -0.57676 0.81057
82.959 26.515 -662.61 -0.059497 -0.57966 0.81268
83.526 26.509 -662.54 -0.12783 -0.58344 0.80204
84.058 26.16 -662.54 -0.17658 -0.54118 0.82216
84.628 26.167 -662.48 -0.27355 -0.57916 0.76795
85.152 25.848 -662.47 -0.29828 -0.54475 0.78376
85.685 25.518 -662.46 -0.30598 -0.53544 0.7872
86.184 25.012 -662.48 -0.31144 -0.53268 0.78693
86.72 24.704 -662.48 -0.33344 -0.49822 0.80037
66.798 39.782 -661.69 -0.2915 0.37834 0.87857
67.43 40.209 -661.55 -0.25979 0.40551 0.8764
68.005 40.276 -661.48 -0.15182 0.40059 0.90359
68.543 40.144 -661.43 0.028203 0.42583 0.90436
69.082 40.013 -661.39 0.12664 0.45383 0.88204
69.598 39.724 -661.37 0.20794 0.55586 0.80485
70.112 39.399 -661.38 0.34919 0.55944 0.75173
70.635 39.198 -661.35 0.36579 0.57032 0.73548
71.13 38.754 -661.36 0.43104 0.50049 0.75081
71.59 38.133 -661.41 0.58305 0.50996 0.63245
72.085 37.698 -661.43 0.62579 0.57171 0.53059
72.597 37.351 -661.43 0.78603 0.49904 0.36485
72.979 36.231 -661.57 0.91572 0.33993 0.21425
73.391 35.236 -661.69 0.90194 0.39586 0.17261
73.8 34.213 -661.81 0.94166 0.33 0.066177
74.166 32.893 -661.98 0.97765 0.20746 0.033915
74.413 30.812 -662.3 -0.97185 -0.23508 0.015782
74.798 29.602 -662.46 -0.9126 -0.39896 0.089377
75.26 28.862 -662.53 -0.6648 -0.67771 0.31425
75.772 28.515 -662.53 -0.47961 -0.75975 0.43904
76.294 28.167 -662.53 -0.38567 -0.78416 0.48615
76.834 27.926 -662.51 -0.18979 -0.78529 0.58932
77.409 28.01 -662.42 -0.23642 -0.78302 0.57531
77.949 27.779 -662.4 -0.1748 -0.78025 0.60055
78.492 27.56 -662.38 -0.091168 -0.73394 0.67307
79.084 27.731 -662.28 -0.16314 -0.75184 0.63884
79.63 27.57 -662.24 -0.15117 -0.75227 0.64128
80.168 27.301 -662.23 -0.13685 -0.7054 0.69547
80.762 27.492 -662.12 -0.10379 -0.72725 0.67848
81.333 27.517 -662.05 -0.12499 -0.74419 0.65617
81.866 27.197 -662.04 -0.16098 -0.69032 0.70536
82.42 27.135 -661.99 -0.1075 -0.6529 0.74978
83.028 27.375 -661.88 -0.070756 -0.71845 0.69197
86.849 26.068 -661.66 -0.27849 -0.54131 0.79336
87.372 25.73 -661.66 -0.27408 -0.53907 0.79642
-48.136 -8.3269 -682.29 -0.22372 -0.78304 0.58034
-47.601 -8.6277 -682.27 -0.22372 -0.78304 0.58034
-46.959 -8.5798 -682.19 -0.29537 -0.73882 0.60573
-46.42 -8.8396 -682.17 -0.29537 -0.73882 0.60573
-45.909 -9.1961 -682.18 -0.25176 -0.79812 0.54738
-45.343 -9.3687 -682.14 -0.20271 -0.85806 0.47184
-44.726 -9.3888 -682.07 -0.11848 -0.94978 0.28961
-44.06 -9.2922 -681.98 -0.13289 -0.87995 0.45609
-43.458 -9.3716 -681.92 0.22859 0.85946 -0.45726
-42.918 -9.6218 -681.9 -0.30451 -0.93483 0.18269
-42.368 -9.8633 -681.87 -0.43085 -0.8891 0.15449
-41.792 -10.018 -681.83 -0.46193 -0.88333 0.079718
-41.255 -10.316 -681.82 -0.50813 -0.85268 0.12142
-40.742 -10.644 -681.82 -0.56793 -0.80694 0.16215
-40.258 -11.087 -681.84 -0.64586 -0.74618 0.16148
-39.762 -11.513 -681.85 -0.73279 -0.66604 0.13933
-39.265 -11.919 -681.86 0.78896 0.61443 -0.003966
-38.848 -12.587 -681.91 0.84199 0.5394 -0.0097951
-38.538 -13.6 -682.05 -0.88337 -0.39038 0.25933
-38.305 -14.837 -682.22 -0.92696 -0.2321 0.29474
68.379 39.391 -661.01 0.02719 0.48637 0.87333
68.902 39.181 -660.98 0.020181 0.50741 0.86147
69.455 39.109 -660.93 0.1443 0.5396 0.82946
70.007 39.025 -660.88 0.26288 0.52925 0.80672
70.474 38.493 -660.91 0.32987 0.48836 0.8079
70.95 37.931 -660.95 0.35671 0.57882 0.7333
71.482 37.721 -660.92 0.42012 0.57409 0.7028
71.998 37.415 -660.92 0.45548 0.6411 0.61767
72.49 36.958 -660.93 0.69946 0.35306 0.62138
72.865 35.749 -661.09 0.77002 0.37709 0.51466
73.358 35.285 -661.12 0.78838 0.46749 0.39988
73.753 34.202 -661.25 -0.88602 -0.38662 -0.25592
74.772 29.737 -661.86 -0.89053 -0.44048 0.1137
75.24 29.076 -661.92 -0.65794 -0.71986 0.22118
75.765 28.786 -661.9 -0.50661 -0.82814 0.23986
76.291 28.47 -661.9 -0.35142 -0.86603 0.35566
76.829 28.21 -661.89 -0.18533 -0.90119 0.39181
77.399 28.233 -661.81 -0.1449 -0.89147 0.42929
77.948 28.101 -661.77 -0.17602 -0.85509 0.48768
78.512 28.037 -661.71 -0.071936 -0.83686 0.54267
79.101 28.17 -661.62 -0.14238 -0.81755 0.55798
79.645 27.98 -661.6 -0.22317 -0.80147 0.55484
80.192 27.819 -661.56 -0.12099 -0.80807 0.57652
80.799 28.059 -661.45 -0.066487 -0.82822 0.55645
81.354 28.006 -661.39 -0.1732 -0.79164 0.58592
81.897 27.804 -661.36 -0.19679 -0.76124 0.61789
82.478 27.839 -661.29 -0.07642 -0.77086 0.63241
83.052 27.896 -661.22 -0.054818 -0.77082 0.63469
83.615 27.82 -661.16 -0.093947 -0.79414 0.60043
84.186 27.855 -661.09 -0.15272 -0.77862 0.60862
84.738 27.755 -661.05 -0.20675 -0.74812 0.63053
85.28 27.552 -661.01 -0.23179 -0.76377 0.60243
85.841 27.441 -660.97 -0.25221 -0.64681 0.71974
86.364 27.112 -660.97 -0.27047 -0.59102 0.75996
86.93 27.068 -660.91 -0.26907 -0.58991 0.76132
87.451 26.711 -660.91 -0.28867 -0.58347 0.7591
87.996 26.537 -660.87 -0.28024 -0.58625 0.76012
88.552 26.375 -660.83 -0.28731 -0.58232 0.7605
89.066 25.929 -660.85 -0.28731 -0.58232 0.7605
89.63 25.865 -660.79 -0.25615 -0.55319 0.7927
90.155 25.556 -660.78 -0.24011 -0.54371 0.8042
65.307 34.761 -661.55 -0.62934 0.20191 0.75044
66.305 37.323 -661.02 0.62461 -0.25387 -0.73852
66.934 37.712 -660.88 -0.35403 0.35828 0.86388
67.566 38.139 -660.74 -0.33544 0.39916 0.85332
68.179 38.44 -660.62 -0.23354 0.4169 0.87843
68.774 38.652 -660.52 -0.068723 0.40142 0.91331
69.327 38.561 -660.47 0.087042 0.44085 0.89335
69.814 38.156 -660.48 0.15722 0.42931 0.88937
70.322 37.768 -660.48 0.27393 0.53644 0.79824
70.88 37.746 -660.43 0.3211 0.53936 0.77845
71.38 37.388 -660.42 0.35404 0.54208 0.7621
71.856 36.836 -660.46 0.52053 0.35473 0.77667
72.25 35.734 -660.6 0.52567 0.29962 0.79617
72.74 35.249 -660.62 0.5216 0.6231 0.58282
73.252 34.902 -660.62 0.65195 0.52686 0.54532
73.712 34.271 -660.67 0.79349 0.45536 0.40376
74.134 33.276 -660.79 0.88438 0.30238 0.35559
74.36 31.065 -661.12 0.92775 0.37319 0.00046006
74.761 29.94 -661.25 -0.87833 -0.45319 0.15218
75.226 29.242 -661.32 -0.66632 -0.71977 0.19482
75.74 28.924 -661.32 -0.44474 -0.87021 0.21202
76.277 28.652 -661.29 -0.28828 -0.91436 0.28433
76.827 28.522 -661.26 -0.14151 -0.92889 0.34227
77.395 28.526 -661.19 -0.13937 -0.911 0.38815
77.959 28.453 -661.13 -0.090293 -0.89388 0.43912
78.53 28.488 -661.06 -0.032574 -0.88936 0.45605
79.117 28.583 -660.98 -0.1538 -0.87842 0.45247
79.649 28.372 -660.95 -0.20736 -0.86985 0.44762
80.21 28.277 -660.9 -0.094904 -0.87603 0.47283
80.799 28.4 -660.81 -0.025002 -0.88362 0.46754
81.367 28.388 -660.76 -0.12099 -0.88455 0.45048
81.915 28.255 -660.71 -0.071595 -0.86768 0.49194
82.491 28.341 -660.64 -0.02401 -0.85143 0.52392
83.074 28.395 -660.56 -0.031926 -0.88666 0.46132
83.627 28.32 -660.5 -0.11839 -0.87419 0.47092
84.196 28.317 -660.44 -0.18364 -0.87163 0.45447
84.755 28.193 -660.39 -0.20705 -0.84559 0.49205
87.512 27.574 -660.18 -0.28929 -0.70084 0.65202
-46.097 -7.7329 -680.71 -0.23479 -0.65285 0.72019
-44.17 -7.599 -680.46 -0.26868 -0.66331 0.69845
-43.696 -8.0417 -680.48 -0.5649 -0.56565 0.60077
-43.277 -8.6877 -680.55 -0.54542 -0.62359 0.56005
-39.308 -11.915 -680.61 0.76958 0.63667 0.049008
-38.958 -12.794 -680.71 0.84199 0.5394 -0.0097951
-38.461 -13.21 -680.72 -0.89927 -0.43147 0.071687
-38.096 -14.03 -680.82 -0.95797 -0.28664 -0.01144
-38.157 -16.224 -681.18 -0.97544 -0.08854 0.20169
66.702 36.597 -660.53 -0.37416 0.070744 0.92466
67.335 37.033 -660.38 -0.30789 0.30413 0.9015
67.959 37.362 -660.25 -0.24693 0.27647 0.92876
68.521 37.398 -660.18 -0.14593 0.31437 0.93802
69.087 37.363 -660.12 -0.013775 0.32817 0.94452
69.649 37.409 -660.05 0.071287 0.3478 0.93485
70.183 37.211 -660.03 0.19664 0.47867 0.85569
70.697 36.892 -660.02 0.29401 0.50751 0.80993
71.188 36.416 -660.03 0.41986 0.26097 0.86926
71.61 35.542 -660.14 0.51353 0.35496 0.78121
72.104 35.105 -660.14 0.52539 0.51384 0.67818
72.633 34.856 -660.12 0.48287 0.54387 0.68633
73.127 34.401 -660.14 0.61903 0.4472 0.64561
73.574 33.612 -660.22 0.68551 0.32804 0.64997
74.028 32.902 -660.28 0.63964 0.38182 0.66714
74.331 31.161 -660.54 0.91552 0.31536 0.24974
74.742 30.157 -660.65 -0.87545 -0.45944 0.14998
75.203 29.425 -660.71 0.67406 0.70948 -0.20562
75.711 29.02 -660.73 -0.45539 -0.86178 0.22348
76.253 28.808 -660.7 -0.32225 -0.92476 0.20243
76.807 28.746 -660.65 -0.14406 -0.96759 0.2074
77.373 28.702 -660.59 -0.033627 -0.95839 0.28347
77.939 28.667 -660.53 -0.019492 -0.97153 0.2361
78.528 28.81 -660.43 -0.038832 -0.97474 0.21995
79.081 28.718 -660.39 -0.10768 -0.96037 0.25708
79.626 28.538 -660.36 -0.18624 -0.94632 0.26417
80.209 28.601 -660.28 -0.045968 -0.95061 0.30696
80.782 28.656 -660.2 -0.033177 -0.94891 0.31381
81.346 28.583 -660.15 -0.099887 -0.942 0.3204
81.898 28.501 -660.1 -0.09575 -0.95075 0.29478
91.441 27.502 -659.17 -0.11918 -0.60239 0.78925
91.992 27.408 -659.11 -0.20533 -0.59229 0.77912
92.568 27.485 -659.04 -0.24219 -0.59432 0.7669
93.104 27.213 -659.02 -0.31544 -0.52571 0.79002
93.615 26.708 -659.05 -0.38986 -0.51627 0.76255
94.106 26.094 -659.09 -0.44892 -0.50895 0.73446
94.636 25.733 -659.08 -0.43476 -0.5177 0.73686
95.14 25.15 -659.13 -0.43159 -0.5184 0.73824
95.674 24.839 -659.11 -0.44831 -0.47823 0.75519
-43.298 -6.7725 -679.62 -0.50135 -0.38643 0.77416
-42.945 -7.6136 -679.71 -0.50135 -0.38643 0.77416
-42.588 -8.4041 -679.8 -0.50263 -0.39774 0.76757
-42.118 -8.9071 -679.82 -0.48062 -0.43304 0.76255
-41.632 -9.322 -679.83 -0.56212 -0.58404 0.58559
-41.148 -9.7753 -679.86 -0.59572 -0.69276 0.40644
-40.729 -10.414 -679.91 -0.73071 -0.66743 0.14356
-39.435 -12.249 -680.06 0.76958 0.63667 0.049008
-38.443 -13.09 -680.08 0.84199 0.5394 -0.0097951
-38.349 -18.775 -680.99 -0.99744 -0.068798 -0.019729
-37.909 -19.404 -681.04 -0.99609 -0.074629 -0.04718
72.958 33.588 -659.73 0.55148 0.33289 0.76489
73.41 32.866 -659.79 0.58604 0.35894 0.72644
73.874 32.174 -659.85 0.70868 0.27892 0.64806
74.287 31.199 -659.96 0.8597 0.33991 0.38129
74.758 30.577 -660 0.78756 0.55149 0.27496
75.193 29.631 -660.12 0.76997 0.63802 0.0088005
76.21 28.865 -660.11 -0.32439 -0.94366 0.065352
76.774 28.801 -660.06 -0.14227 -0.97792 0.15307
79.052 28.825 -659.8 -0.11938 -0.9896 0.080267
79.601 28.702 -659.75 -0.10139 -0.99168 0.079338
80.172 28.718 -659.69 -0.005849 -0.99006 0.14055
80.754 28.771 -659.61 0.015275 -0.98818 0.15254
81.323 28.759 -659.55 -0.042032 -0.97807 0.204
81.891 28.753 -659.48 -0.02386 -0.97627 0.21523
82.46 28.75 -659.42 0.023879 -0.98638 0.16274
83.032 28.785 -659.35 0.026681 -0.99373 0.10861
83.601 28.798 -659.28 0.027218 -0.97924 0.20089
84.171 28.814 -659.21 0.034352 -0.97269 0.22953
84.742 28.84 -659.14 -0.012902 -0.94001 0.34091
85.316 28.904 -659.06 -0.066469 -0.94254 0.32742
85.86 28.714 -659.04 -0.10397 -0.93596 0.33642
86.43 28.721 -658.97 -0.091829 -0.88608 0.45434
86.996 28.686 -658.91 -0.095707 -0.86795 0.48734
87.549 28.614 -658.86 -0.1139 -0.87613 0.46842
88.114 28.56 -658.81 -0.11996 -0.83902 0.53071
88.686 28.605 -658.73 -0.12138 -0.8133 0.56904
89.234 28.463 -658.69 -0.069198 -0.79459 0.60319
89.781 28.312 -658.65 -0.064033 -0.7727 0.63153
90.379 28.563 -658.54 -0.049041 -0.73696 0.67416
90.942 28.48 -658.49 -0.068698 -0.67734 0.73246
91.489 28.319 -658.46 -0.15602 -0.65805 0.73663
92.065 28.421 -658.37 -0.19009 -0.66606 0.72127
92.609 28.231 -658.34 -0.24371 -0.65483 0.7154
93.149 27.981 -658.32 -0.36646 -0.64478 0.6708
93.671 27.643 -658.32 -0.43323 -0.58703 0.68389
94.182 27.165 -658.33 -0.46539 -0.53759 0.70315
94.689 26.62 -658.36 -0.43145 -0.54296 0.72045
95.218 26.24 -658.36 -0.41532 -0.52581 0.74232
95.738 25.872 -658.36 -0.42372 -0.52185 0.74036
96.247 25.356 -658.39 -0.46551 -0.47491 0.74683
96.773 24.937 -658.4 -0.47908 -0.46274 0.74589
97.239 24.015 -658.49 -0.53885 -0.4402 0.71824
-42.166 -7.0791 -678.91 -0.53055 -0.40943 0.74221
-41.732 -7.6491 -678.95 -0.51534 -0.40015 0.75783
-41.259 -8.1111 -678.98 -0.48389 -0.44023 0.75634
72.304 33.356 -659.27 0.47551 0.37716 0.79476
72.787 32.771 -659.31 0.55743 0.30592 0.77181
73.261 32.188 -659.34 0.56863 0.2829 0.77242
73.671 31.174 -659.47 0.68481 0.38569 0.61829
74.181 30.815 -659.46 -0.62026 -0.51094 -0.59516
77.883 28.899 -659.34 -0.052118 -0.98991 0.13178
78.44 28.868 -659.29 -0.081661 -0.99616 0.031582
79.006 28.823 -659.23 -0.1076 -0.99367 0.032321
79.557 28.73 -659.18 -0.090762 -0.99569 0.019023
80.126 28.726 -659.12 0.017872 -0.99915 0.037214
80.712 28.821 -659.04 -0.060909 0.9981 -0.0092778
81.281 28.825 -658.97 0.018436 -0.99973 0.014025
81.851 28.831 -658.9 -0.0096131 -0.99863 0.051433
82.416 28.797 -658.84 0.0011389 -0.99951 0.031352
82.994 28.902 -658.76 0.053921 -0.98677 0.15289
83.564 28.908 -658.7 0.063687 -0.97603 0.2081
84.135 28.943 -658.63 0.065169 -0.96299 0.26155
84.725 29.086 -658.53 0.0077966 -0.9616 0.27433
85.291 29.051 -658.47 -0.08428 -0.94624 0.31228
85.844 28.97 -658.42 -0.071438 -0.93096 0.35806
86.428 29.042 -658.34 -0.0065056 -0.90416 0.42714
87.002 29.107 -658.26 -0.11071 -0.88216 0.45775
87.553 29.006 -658.22 -0.1113 -0.86251 0.49365
88.104 28.912 -658.17 -0.057034 -0.84381 0.5336
88.692 29.026 -658.08 -0.089065 -0.81916 0.5666
89.24 28.884 -658.04 -0.104 -0.78278 0.61354
89.813 28.938 -657.97 -0.028497 -0.78224 0.62233
90.395 29.094 -657.88 -0.01459 -0.78803 0.61546
90.961 29.059 -657.82 -0.11295 -0.77322 0.624
91.535 29.133 -657.74 -0.1364 -0.76838 0.62529
92.082 28.981 -657.7 -0.19039 -0.76715 0.61257
92.63 28.849 -657.66 0.26807 0.74155 -0.61502
93.187 28.687 -657.62 -0.3531 -0.70875 0.61073
93.712 28.38 -657.62 -0.41259 -0.66849 0.61878
94.224 27.912 -657.63 -0.44705 -0.61681 0.64783
94.742 27.513 -657.63 -0.43201 -0.6076 0.66647
95.275 27.193 -657.62 -0.40896 -0.57523 0.70842
95.796 26.826 -657.63 -0.4249 -0.56253 0.70924
96.323 26.427 -657.63 -0.46013 -0.54027 0.70455
96.829 25.872 -657.66 -0.49466 -0.52176 0.69504
97.334 25.314 -657.69 -0.53367 -0.46947 0.70341
97.836 24.719 -657.73 -0.54798 -0.45588 0.70134
-40.989 -7.2078 -678.18 -0.55288 -0.43807 0.70881
-40.597 -7.9339 -678.25 -0.6762 -0.33519 0.65605
46.349 -1.6272 -667.27 0.088688 -0.51768 0.85096
46.993 -1.4387 -667.17 0.088688 -0.51768 0.85096
47.657 -1.1141 -667.04 0.088688 -0.51768 0.85096
48.765 -1.6269 -667 0.088688 -0.51768 0.85096
72.64 32.123 -658.86 0.56226 0.29875 0.77111
73.054 31.167 -658.96 0.49745 0.32122 0.80583
73.556 30.69 -658.98 0.41166 0.50976 0.75543
74.068 30.343 -658.98 0.48804 0.51509 0.70463
74.578 29.977 -658.98 0.45487 0.55691 0.69494
75.039 29.234 -659.04 0.28704 0.89137 0.3508
75.571 29.024 -659.01 0.10817 0.96606 0.23456
76.154 29.07 -658.95 -0.076525 -0.99617 0.042333
76.721 29.045 -658.88 -0.050957 -0.99594 0.074188
77.277 29.011 -658.82 -0.071185 -0.99746 -0.00037149
77.826 28.889 -658.78 -0.093128 -0.99406 0.056328
78.408 28.933 -658.7 -0.11942 -0.99267 0.018497
78.96 28.841 -658.66 0.14348 0.98955 0.014478
79.511 28.738 -658.61 0.094357 0.99539 0.017336
80.091 28.753 -658.54 -0.044115 0.99828 0.038529
80.666 28.82 -658.47 -0.055742 0.99295 0.10465
81.234 28.824 -658.4 -0.054813 0.99588 0.0723
81.809 28.89 -658.33 -0.011706 0.99843 0.054741
82.374 28.846 -658.27 0.080922 -0.9959 0.040346
83.538 29.053 -658.1 0.10578 -0.96732 0.23045
84.109 29.088 -658.03 0.06479 -0.96169 0.26638
84.702 29.262 -657.93 0.01323 -0.96437 0.26424
85.257 29.209 -657.88 -0.00093271 -0.96093 0.27681
85.823 29.175 -657.82 -3.0829e-05 -0.91711 0.39864
86.414 29.336 -657.72 -0.014467 -0.92841 0.37128
86.985 29.352 -657.65 -0.036678 -0.89312 0.44832
87.538 29.28 -657.6 -0.047541 -0.86221 0.50432
88.125 29.384 -657.52 -0.069873 -0.83449 0.54657
88.703 29.499 -657.44 -0.048417 -0.80171 0.59575
89.254 29.396 -657.39 -0.035373 -0.78939 0.61288
89.832 29.52 -657.3 -0.042669 -0.79112 0.61016
90.402 29.517 -657.24 -0.019774 -0.80752 0.58951
90.97 29.521 -657.17 -0.074523 -0.81159 0.57946
91.525 29.468 -657.11 -0.13702 -0.82715 0.54502
92.09 29.424 -657.06 -0.18692 -0.83062 0.52453
92.645 29.371 -657 -0.24633 -0.79851 0.54928
93.19 29.19 -656.97 -0.32771 -0.7784 0.53544
93.726 28.899 -656.95 -0.40908 -0.74937 0.52067
94.244 28.503 -656.96 -0.42591 -0.70689 0.56472
94.785 28.272 -656.94 -0.39941 -0.6745 0.62091
95.306 27.922 -656.93 -0.39831 -0.65755 0.63951
95.844 27.652 -656.91 -0.44227 -0.62597 0.6423
96.355 27.175 -656.93 -0.49308 -0.59133 0.63812
96.869 26.728 -656.94 -0.52389 -0.56712 0.63554
97.379 26.231 -656.96 -0.5291 -0.55873 0.63865
97.883 25.654 -656.99 -0.53958 -0.53421 0.65074
98.373 24.902 -657.07 -0.56669 -0.4657 0.6797
98.868 24.208 -657.12 -0.56259 -0.46291 0.68499
99.364 23.532 -657.17 -0.54726 -0.45368 0.70333
-45.631 -2.3788 -677.33 0.1377 -0.79465 0.59124
-44.881 -1.9822 -677.18 -0.089639 -0.70183 0.70668
-44.237 -1.896 -677.08 -0.15034 -0.67155 0.72555
-43.763 -2.3579 -677.11 -0.33754 -0.52642 0.78035
-43.26 -2.6847 -677.1 -0.36224 -0.52365 0.77109
-42.748 -3.0317 -677.1 -0.43114 -0.50606 0.74701
-42.274 -3.4771 -677.11 -0.47718 -0.45434 0.75224
-41.814 -3.9599 -677.13 -0.64111 -0.4177 0.64383
-41.499 -4.9065 -677.25 -0.66531 -0.38461 0.63988
-41.183 -5.8434 -677.36 -0.57244 -0.40246 0.71438
-40.763 -6.4701 -677.42 -0.55521 -0.40472 0.7266
-40.275 -6.8658 -677.42 -0.60215 -0.40908 0.68561
-39.976 -7.8909 -677.55 -0.77406 -0.18415 0.60574
-37.734 -20.641 -679.32 -0.99186 -0.12723 0.0055728
36.366 -5.9905 -668.51 0.56916 -0.034844 0.82149
47.794 -0.13473 -666.26 0.088688 -0.51768 0.85096
48.513 0.49527 -666.08 0.088688 -0.51768 0.85096
68.074 32.264 -658.78 -0.28706 0.17305 0.94215
68.761 33.006 -658.59 -0.23331 0.18964 0.95373
73.39 29.924 -658.55 0.35712 0.50558 0.7854
73.899 29.555 -658.54 0.3184 0.53874 0.77999
74.427 29.277 -658.53 0.28798 0.64625 0.7067
74.972 29.097 -658.5 0.19879 0.83572 0.51191
75.54 29.101 -658.43 0.01572 0.9862 0.16482
76.091 28.99 -658.39 0.010915 0.99667 0.080753
76.663 29.026 -658.32 0.017941 0.99561 0.091861
77.231 29.02 -658.25 0.031126 0.99788 0.057222
77.8 29.017 -658.19 0.039094 0.99907 0.018076
78.359 28.903 -658.14 -0.1482 -0.98852 0.029479
78.907 28.761 -658.1 0.14494 0.98917 0.023209
79.466 28.749 -658.04 0.092125 0.9942 0.055555
80.033 28.734 -657.98 0.017487 0.99293 0.11738
80.6 28.709 -657.91 -0.0014568 0.99086 0.13492
81.169 28.705 -657.85 -0.057036 0.98783 0.14467
81.755 28.8 -657.77 -0.037213 0.9975 0.060147
82.311 28.757 -657.72 -0.093321 0.9954 0.021842
92.648 29.736 -656.38 -0.2675 -0.80255 0.53325
93.181 29.535 -656.34 -0.33017 -0.78925 0.51776
93.718 29.263 -656.32 -0.38997 -0.76855 0.50721
94.261 29.054 -656.3 -0.40072 -0.74664 0.53099
94.787 28.773 -656.28 -0.39314 -0.71328 0.58024
95.326 28.513 -656.26 -0.39278 -0.71073 0.58359
95.866 28.263 -656.24 -0.42966 -0.67957 0.59463
96.381 27.836 -656.25 -0.48481 -0.62153 0.61536
96.899 27.447 -656.25 -0.51372 -0.59847 0.61476
97.396 26.781 -656.3 -0.52557 -0.57318 0.62868
97.916 26.414 -656.3 -0.54202 -0.54156 0.64259
98.439 25.954 -656.31 -0.54819 -0.53127 0.64594
98.939 25.33 -656.36 -0.55508 -0.49118 0.67128
99.437 24.683 -656.4 -0.57219 -0.46587 0.67495
99.937 24.068 -656.44 -0.57613 -0.46331 0.67336
150.74 66.848 -643.79 0.18657 -0.60459 0.77438
151.26 67.129 -643.69 -0.061465 -0.60762 0.79184
151.79 67.079 -643.64 -0.085565 -0.6248 0.77608
-43.998 -1.1375 -676.32 -0.17196 -0.77938 0.60249
-43.496 -1.4835 -676.32 -0.30553 -0.73259 0.60825
-42.943 -1.6865 -676.29 -0.41677 -0.62422 0.6608
-42.456 -2.0918 -676.3 -0.46508 -0.57824 0.67033
-42.044 -2.6984 -676.35 -0.55846 -0.50655 0.65691
-41.583 -3.1813 -676.37 -0.58008 -0.47828 0.65936
-41.203 -3.9352 -676.45 -0.67161 -0.40111 0.62293
-40.887 -4.853 -676.55 -0.61855 -0.42605 0.66021
-40.439 -5.3925 -676.59 -0.59232 -0.42631 0.68367
-39.953 -5.8074 -676.6 -0.57289 -0.44972 0.68524
-39.56 -6.5143 -676.66 -0.79088 -0.24012 0.56289
-39.682 -8.8328 -677.05 -0.80125 -0.11257 0.58764
40.776 -1.9411 -666.75 0.17677 -0.49428 0.85114
68.284 30.315 -658.5 -0.33861 0.13948 0.93053
68.969 31.029 -658.31 -0.28706 0.17305 0.94215
69.635 31.641 -658.13 -0.17749 0.24451 0.95327
70.247 31.923 -658.02 -0.052059 0.22647 0.97263
70.774 31.652 -658 -0.03461 0.18366 0.98238
71.302 31.383 -657.98 0.11362 0.20488 0.97217
71.734 30.525 -658.07 0.16797 0.24825 0.95402
72.242 30.147 -658.07 0.29614 0.33272 0.89532
72.756 29.819 -658.06 0.37282 0.5673 0.73429
73.277 29.461 -658.06 0.35894 0.60785 0.70829
73.793 29.182 -658.04 0.24438 0.70801 0.66257
74.32 28.884 -658.04 0.088664 0.83279 0.54644
74.889 28.898 -657.96 0.0845 0.88937 0.44931
75.458 28.895 -657.9 -0.018449 0.96048 0.27772
76.045 28.989 -657.82 -0.12188 0.96553 0.23
76.613 28.983 -657.75 -0.063085 0.98535 0.15842
77.177 28.92 -657.7 -0.02322 0.994 0.10685
77.753 29.016 -657.62 0.039925 0.99197 0.12004
78.319 28.971 -657.56 0.12519 0.98965 0.070202
78.865 28.81 -657.53 0.14558 0.98926 0.013346
79.414 28.688 -657.48 0.13349 0.99004 0.044777
79.981 28.672 -657.42 0.054787 0.98935 0.13482
80.532 28.562 -657.38 0.0079857 0.98787 0.15506
150.18 67.555 -643.21 0.35766 -0.52633 0.7714
150.71 67.844 -643.11 0.16496 -0.60018 0.78267
151.23 68.015 -643.03 0.021679 -0.62255 0.78228
151.75 68.094 -642.95 -0.16083 -0.60658 0.77859
152.26 67.917 -642.92 -0.2607 -0.58192 0.77033
152.78 67.618 -642.91 -0.36702 -0.526 0.76722
-45.242 -1.1031 -675.85 0.25541 -0.87867 0.40336
-44.558 -0.90877 -675.75 -0.15306 -0.81372 0.56075
-43.938 -0.88784 -675.67 -0.18627 -0.84722 0.49751
-43.4 -1.1502 -675.65 -0.33558 -0.83732 0.4316
-42.871 -1.3995 -675.63 -0.41749 -0.76345 0.49279
-42.317 -1.5833 -675.59 -0.4827 -0.73431 0.47728
-41.83 -1.9982 -675.6 -0.53993 -0.66812 0.51195
-41.344 -2.4131 -675.61 -0.63855 -0.55322 0.53497
-40.998 -3.2219 -675.7 -0.70572 -0.4459 0.55057
-40.683 -4.1615 -675.8 -0.67202 -0.45011 0.58804
-40.249 -4.7315 -675.84 -0.69765 -0.44143 0.56428
-39.736 -5.0592 -675.84 -0.77166 -0.47734 0.42035
-39.502 -6.2769 -676.01 -0.84966 -0.24058 0.46925
-39.358 -7.7455 -676.22 -0.85417 -0.15929 0.495
-39.111 -8.9161 -676.38 -0.88997 -0.13002 0.4371
10.802 -10.33 -670.89 0.15195 -0.58369 0.79763
11.51 -9.9581 -670.75 0.12404 -0.58712 0.79994
12.103 -10.034 -670.69 0.11162 -0.56486 0.8176
12.871 -9.3991 -670.51 0.10623 -0.54525 0.83151
13.55 -9.1366 -670.38 0.074462 -0.52069 0.85049
14.288 -8.6465 -670.23 -0.012533 -0.53346 0.84573
14.895 -8.6656 -670.16 -0.066438 -0.52903 0.846
15.487 -8.7607 -670.11 -0.12862 -0.5375 0.83339
16.105 -8.7616 -670.03 -0.13479 -0.53711 0.83267
16.682 -8.9063 -669.99 -0.13374 -0.52278 0.84191
17.275 -8.9918 -669.94 -0.10185 -0.53883 0.83624
17.91 -8.9211 -669.86 -0.087353 -0.561 0.82319
19.179 -8.7633 -669.69 -0.10925 -0.5508 0.82746
19.803 -8.7039 -669.6 -0.145 -0.54098 0.82844
20.317 -9.1505 -669.62 -0.1489 -0.5376 0.82995
20.969 -8.9751 -669.51 -0.17525 -0.54423 0.82043
21.497 -9.372 -669.52 -0.18079 -0.54202 0.82069
22.199 -8.9515 -669.37 -0.15869 -0.4772 0.86435
22.68 -9.5551 -669.41 -0.20019 -0.47263 0.85822
23.283 -9.6319 -669.36 -0.1969 -0.47139 0.85966
23.845 -9.8455 -669.32 -0.1969 -0.47139 0.85966
24.419 -10.031 -669.28 -0.1969 -0.47139 0.85966
25.914 -6.0051 -668.48 -0.35603 0.71114 0.60624
26.597 -5.692 -668.35 -0.43378 0.66819 0.60444
67.769 27.408 -658.44 -0.42177 0.264 0.86742
68.586 28.906 -658.12 -0.37715 0.18594 0.90729
69.389 30.364 -657.79 -0.25458 0.12748 0.95861
69.96 30.39 -657.72 -0.092736 0.18069 0.97916
70.493 30.189 -657.69 0.034143 0.21807 0.97534
70.983 29.703 -657.71 0.078264 0.25968 0.96252
71.553 29.7 -657.65 0.14193 0.27619 0.95056
72.096 29.508 -657.61 0.2485 0.53051 0.81044
72.621 29.208 -657.6 0.29194 0.58746 0.75476
73.15 28.949 -657.58 0.30011 0.67617 0.67285
73.676 28.659 -657.56 0.17757 0.7742 0.60752
74.245 28.665 -657.5 0.06833 0.86366 0.49943
74.818 28.71 -657.43 0.014002 0.90002 0.43561
75.366 28.578 -657.38 -0.097961 0.92529 0.3664
75.952 28.663 -657.31 -0.10765 0.95254 0.28475
76.547 28.865 -657.21 -0.13196 0.9539 0.26955
77.114 28.84 -657.15 -0.088385 0.97761 0.19094
77.685 28.876 -657.07 0.027986 0.98032 0.19542
101.02 24.512 -655.1 -0.60685 -0.4861 0.62884
101.51 23.817 -655.15 -0.63027 -0.45655 0.62795
102.01 23.18 -655.19 -0.66909 -0.43592 0.60191
149.06 66.911 -642.91 0.35766 -0.52633 0.7714
149.6 67.718 -642.73 0.35801 -0.57569 0.73512
150.14 68.393 -642.56 0.27577 -0.64505 0.71264
150.67 68.603 -642.47 0.14639 -0.66302 0.73415
151.19 68.803 -642.38 0.006373 -0.68352 0.72991
151.71 68.811 -642.31 -0.12586 -0.65819 0.74226
152.22 68.733 -642.27 -0.26116 -0.65702 0.70719
152.73 68.464 -642.24 -0.38061 -0.61581 0.68986
153.25 68.097 -642.25 -0.45981 -0.57376 0.67777
153.76 67.571 -642.28 -0.48831 -0.55291 0.67516
154.26 67.142 -642.28 -0.56033 -0.58548 0.58587
-42.735 -0.93898 -674.93 -0.43072 -0.84439 0.31857
-42.246 -1.3251 -674.93 -0.52627 -0.77258 0.35519
-41.757 -1.7016 -674.93 -0.62177 -0.73233 0.27768
-41.271 -2.1165 -674.94 -0.70874 -0.63356 0.31031
-40.863 -2.764 -675 -0.79973 -0.50042 0.33166
-39.312 -5.6255 -675.26 -0.84546 -0.37417 0.38105
-39.116 -6.9486 -675.45 -0.91132 -0.22309 0.34601
-38.789 -7.8577 -675.56 -0.92148 -0.16605 0.35113
-38.727 -9.6 -675.82 -0.88997 -0.13002 0.4371
9.6377 -9.8957 -670.34 0.26672 -0.56626 0.77988
10.316 -9.6428 -670.22 0.1571 -0.58974 0.79217
11.1 -8.9391 -670.02 0.14003 -0.58872 0.79612
11.749 -8.8117 -669.92 0.14127 -0.58104 0.80152
12.401 -8.653 -669.83 0.11925 -0.58009 0.80578
13.171 -7.9893 -669.63 0.14536 -0.59899 0.78746
13.834 -7.8123 -669.53 0.084586 -0.60576 0.79114
14.512 -7.5594 -669.41 0.02979 -0.62523 0.77987
15.122 -7.5471 -669.34 -0.031065 -0.60118 0.79851
15.771 -7.4102 -669.24 -0.10436 -0.59897 0.79394
16.351 -7.5427 -669.21 -0.10866 -0.59847 0.79374
16.926 -7.7093 -669.16 -0.12527 -0.56344 0.8166
17.579 -7.5314 -669.06 -0.14245 -0.57212 0.8077
18.167 -7.6674 -669.01 -0.094578 -0.56128 0.82221
18.715 -7.9378 -669 -0.098539 -0.56903 0.81639
19.399 -7.615 -668.86 -0.12677 -0.55691 0.82084
20.02 -7.5845 -668.79 -0.12105 -0.5598 0.81974
20.563 -7.915 -668.78 -0.15135 -0.48807 0.85958
21.185 -7.8653 -668.7 -0.10875 -0.47838 0.8714
21.96 -7.151 -668.5 -0.16041 -0.62289 0.76569
22.321 -8.2813 -668.64 -0.16908 -0.45922 0.87208
23.054 -7.7134 -668.46 -0.16793 -0.46365 0.86996
23.984 -6.3057 -668.14 -0.077277 -0.86199 0.50101
24.08 -8.6284 -668.49 -0.17928 -0.35805 0.91633
24.716 -8.5385 -668.41 -0.4933 -0.40033 0.77227
26.086 -5.0801 -667.7 -0.26636 0.72309 0.63733
27.289 -5.1533 -667.58 -0.53444 0.75341 0.38309
31.632 -4.7499 -667.02 -0.15784 0.42059 0.89342
77.042 28.643 -656.61 -0.067459 0.95719 0.28148
87.51 30.519 -655.13 0.21655 -0.87674 0.42945
88.072 30.556 -655.06 0.14805 -0.90001 0.40995
88.67 30.797 -654.95 0.12988 -0.90653 0.40166
89.248 30.911 -654.86 0.10312 -0.90799 0.4061
89.82 30.956 -654.79 0.040153 -0.91517 0.40106
90.393 31.011 -654.71 -0.0080565 -0.91917 0.39378
90.953 31.028 -654.65 -0.067897 -0.90844 0.41247
91.519 30.984 -654.59 -0.13881 -0.89727 0.4191
92.07 30.873 -654.55 -0.1949 -0.88226 0.42851
92.619 30.75 -654.51 -0.22008 -0.87893 0.42314
93.166 30.609 -654.46 -0.24698 -0.85442 0.45714
93.717 30.505 -654.41 -0.28704 -0.83348 0.47214
94.247 30.265 -654.39 -0.32097 -0.83492 0.44708
94.789 30.054 -654.36 -0.33921 -0.82736 0.44768
95.334 29.873 -654.33 -0.37602 -0.79555 0.47509
95.875 29.642 -654.31 0.41282 0.78334 -0.46471
96.404 29.393 -654.29 -0.44313 -0.75283 0.4867
96.925 29.043 -654.28 -0.51584 -0.73662 0.43738
97.45 28.605 -654.29 -0.53231 -0.70284 0.47188
97.965 28.168 -654.3 -0.50203 -0.69689 0.51216
98.478 27.719 -654.31 -0.48116 -0.69347 0.53626
99.014 27.437 -654.29 -0.46824 -0.65251 0.5958
99.533 27.051 -654.29 -0.48948 -0.62015 0.61305
100.04 26.484 -654.32 -0.56022 -0.58115 0.59028
100.56 26.005 -654.34 -0.57483 -0.53187 0.62184
101.07 25.479 -654.37 -0.59725 -0.50964 0.61932
101.55 24.693 -654.43 -0.62979 -0.48667 0.6054
102.04 23.88 -654.5 -0.64872 -0.46616 0.60155
102.51 23.066 -654.57 -0.67705 -0.43215 0.5957
149.02 67.47 -642.3 0.41417 -0.60015 0.68431
151.66 69.452 -641.69 -0.028325 -0.78754 0.61561
152.18 69.393 -641.64 -0.25154 -0.73634 0.62812
152.7 69.203 -641.61 -0.38423 -0.68581 0.61809
153.21 68.805 -641.61 -0.49578 -0.64779 0.57842
153.71 68.35 -641.63 -0.56176 -0.6117 0.557
154.22 67.841 -641.64 -0.60188 -0.59494 0.53272
154.73 67.263 -641.67 -0.70016 -0.48466 0.52429
-50.003 -0.45222 -675.07 -0.15712 -0.85056 0.50186
-49.525 -0.85657 -675.08 -0.15712 -0.85056 0.50186
-48.866 -0.7206 -674.98 -0.15712 -0.85056 0.50186
-48.25 -0.75031 -674.91 -0.092076 -0.8196 0.56549
-47.641 -0.75724 -674.85 -0.29417 -0.65862 0.6926
-47.062 -0.87317 -674.8 -0.42973 -0.77102 0.46995
-46.653 -1.5112 -674.85 -0.24219 -0.97 0.020855
-46.047 -1.5469 -674.79 0.35446 0.9264 0.12707
-42.741 -0.89418 -674.31 -0.41761 -0.88606 0.20125
-42.199 -1.1059 -674.28 -0.47511 -0.87095 0.12534
-41.699 -1.4642 -674.27 -0.6065 -0.77676 0.16972
-38.964 -6.393 -674.73 -0.94241 -0.26452 0.20467
-38.612 -7.2438 -674.82 -0.92375 -0.17202 0.34219
7.4565 -11.092 -670.16 0.38236 -0.55395 0.73955
8.2245 -10.466 -669.97 0.34718 -0.55959 0.75255
9.1231 -9.3249 -669.69 0.32066 -0.57931 0.74939
9.8305 -8.9631 -669.56 0.23728 -0.62628 0.74261
10.554 -8.5157 -669.4 0.18842 -0.63683 0.74763
11.278 -8.0561 -669.24 0.17209 -0.65231 0.73816
11.945 -7.8476 -669.14 0.17677 -0.64145 0.74652
12.651 -7.4884 -669 0.16402 -0.65421 0.73831
13.348 -7.1351 -668.87 0.14794 -0.68892 0.70958
14.029 -6.8412 -668.74 0.10087 -0.67493 0.73096
14.681 -6.6921 -668.65 0.058474 -0.67088 0.73926
15.304 -6.6327 -668.57 -0.026644 -0.66083 0.75006
15.941 -6.5237 -668.48 -0.10699 -0.65496 0.74805
16.516 -6.7068 -668.44 -0.13121 -0.64855 0.74978
17.125 -6.6972 -668.37 -0.094649 -0.62103 0.77805
65.03 25.261 -657.93 -0.27398 0.1358 0.9521
65.499 24.61 -657.99 -0.27398 0.1358 0.9521
65.978 23.985 -658.03 -0.27398 0.1358 0.9521
66.491 23.648 -658.02 -0.27398 0.1358 0.9521
67.05 23.524 -657.98 -0.19768 -0.32424 0.92509
67.669 23.785 -657.87 -0.24633 -0.41249 0.87703
68.43 24.95 -657.6 -0.58257 0.31717 0.74835
69.287 26.704 -657.23 -0.57392 0.27519 0.77129
70.001 27.661 -656.99 -0.41326 0.42366 0.80606
70.599 27.784 -656.91 -0.41264 0.46736 0.78186
71.166 27.752 -656.85 -0.31439 0.50235 0.80548
71.783 28.11 -656.72 -0.22473 0.57387 0.78751
72.369 28.195 -656.64 0.038171 0.55484 0.83108
82.726 29.044 -655.33 0.26051 -0.94739 0.186
83.321 29.247 -655.23 0.3157 -0.90006 0.30038
83.93 29.499 -655.13 0.28373 -0.90615 0.31367
84.507 29.602 -655.04 0.2437 -0.87727 0.41354
85.112 29.925 -654.92 0.23735 -0.86566 0.44079
85.7 30.039 -654.84 0.25145 -0.87353 0.4168
86.297 30.27 -654.73 0.23123 -0.88049 0.41386
86.899 30.572 -654.62 0.23877 -0.87599 0.41908
87.494 30.775 -654.52 0.2096 -0.88387 0.41815
88.068 30.839 -654.44 0.16238 -0.89955 0.40552
88.656 31.084 -654.34 0.13537 -0.91147 0.38846
89.23 31.148 -654.26 0.090843 -0.92473 0.36963
89.804 31.212 -654.18 0.039643 -0.93079 0.3634
90.377 31.259 -654.12 -0.012299 -0.91189 0.41025
90.941 31.324 -654.04 -0.076642 -0.91234 0.4022
91.502 31.229 -653.98 -0.14745 -0.89984 0.41055
92.058 31.179 -653.94 -0.1949 -0.88226 0.42851
92.607 31.056 -653.89 -0.22008 -0.87893 0.42314
93.157 30.953 -653.84 -0.25807 -0.87048 0.41913
93.704 30.792 -653.8 -0.28557 -0.86354 0.41563
95.855 29.978 -653.68 0.41282 0.78334 -0.46471
96.398 29.776 -653.65 -0.44313 -0.75283 0.4867
96.917 29.39 -653.66 -0.51584 -0.73662 0.43738
97.43 28.941 -653.67 -0.53231 -0.70284 0.47188
97.964 28.621 -653.65 -0.50203 -0.69689 0.51216
98.489 28.321 -653.64 -0.48116 -0.69347 0.53626
99.023 28.001 -653.63 -0.47193 -0.69442 0.54321
99.538 27.564 -653.64 -0.50139 -0.65696 0.56304
100.07 27.282 -653.62 -0.55187 -0.61514 0.56307
100.58 26.715 -653.65 -0.58821 -0.59292 0.54996
101.08 26.09 -653.7 -0.61819 -0.55457 0.55703
101.58 25.514 -653.73 -0.63188 -0.52416 0.57095
102.09 24.895 -653.76 -0.65065 -0.48542 0.58397
102.56 24.014 -653.85 -0.66261 -0.46233 0.58924
103.05 23.269 -653.91 -0.67438 -0.42854 0.6013
103.51 22.136 -654.02 -0.70791 -0.4262 0.56321
-49.272 -0.03876 -674.31 -0.1988 -0.8956 0.39797
-48.694 -0.1835 -674.27 -0.057749 -0.84807 0.52673
-48.05 -0.10683 -674.18 -0.13387 -0.94973 0.28299
-47.429 -0.076292 -674.1 -0.35239 -0.92678 0.12996
-46.978 -0.55821 -674.13 0.53951 0.82454 -0.17047
-46.57 -1.2058 -674.18 0.51531 0.85135 0.098281
-45.95 -1.1945 -674.11 0.47394 0.87886 0.054561
-43.329 -0.73608 -673.74 0.15717 0.97058 0.18243
-42.723 -0.77444 -673.67 0.42017 0.89899 0.12359
-42.207 -1.0707 -673.67 -0.50089 -0.86376 -0.05512
-41.719 -1.4664 -673.67 0.5905 0.80567 0.046972
-41.234 -1.8936 -673.68 -0.78571 -0.61771 -0.033216
-38.827 -5.9133 -674.03 -0.96145 -0.24877 0.11721
-38.633 -7.2487 -674.21 -0.97738 -0.16791 0.12859
-38.533 -8.8856 -674.45 -0.96323 -0.11529 0.24267
-38.179 -9.7075 -674.53 -0.96811 -0.083496 0.23621
-39.088 -14.52 -675.38 -0.95188 -0.098909 0.29006
-38.767 -15.518 -675.5 -0.96384 -0.07568 0.25553
-38.603 -16.972 -675.7 -0.9706 -0.16923 0.17118
-38.294 -17.988 -675.83 -0.97558 -0.18225 0.12261
-38.08 -19.325 -676.01 -0.97034 -0.1912 0.1479
-38 -21.089 -676.27 -0.98441 -0.16554 0.059422
7.7485 -9.7806 -669.3 0.38895 -0.57161 0.72249
8.5597 -8.9897 -669.09 0.3302 -0.58799 0.73841
9.3989 -8.0923 -668.85 0.22525 -0.66044 0.7163
10.021 -8.0426 -668.77 0.2158 -0.67323 0.70724
10.734 -7.6205 -668.63 0.19049 -0.69042 0.69788
11.457 -7.1897 -668.48 0.20076 -0.71024 0.67473
12.124 -6.9551 -668.37 0.17677 -0.71414 0.67731
12.802 -6.7187 -668.26 0.17916 -0.73358 0.65556
13.483 -6.4344 -668.14 0.17579 -0.73003 0.66042
14.182 -6.0428 -667.99 0.13409 -0.72353 0.67715
14.835 -5.8648 -667.89 0.085744 -0.71978 0.68888
15.473 -5.7462 -667.8 -0.0054793 -0.7168 0.69726
16.093 -5.7348 -667.73 -0.065611 -0.69689 0.71417
16.668 -5.911 -667.69 -0.032365 -0.67951 0.73295
17.366 -5.5386 -667.55 -0.048253 -0.6895 0.72267
17.99 -5.4862 -667.48 -0.077618 -0.73402 0.67468
18.51 -5.8367 -667.46 -0.13317 -0.74028 0.65898
19.131 -5.8062 -667.39 -0.16519 -0.70774 0.68689
19.739 -5.8227 -667.33 -0.13327 -0.67849 0.72242
20.273 -6.1523 -667.32 -0.11534 -0.68263 0.72161
20.908 -6.0555 -667.22 -0.064178 -0.71233 0.6989
21.576 -5.8183 -667.12 -0.1159 -0.6144 0.78043
22.229 -5.6403 -667.02 -0.078286 -0.59066 0.80311
22.775 -5.9325 -667 -0.17517 -0.8475 0.50106
23.215 -6.6729 -667.06 -0.2257 -0.69635 0.68129
23.979 -5.9768 -666.87 -0.31426 -0.83364 0.45419
24.43 -6.7086 -666.93 0.3809 0.79689 -0.46891
25.008 -6.8533 -666.88 -0.39836 -0.77209 0.49516
25.552 -7.1647 -666.87 0.091015 -0.97586 0.19855
26.115 -7.3591 -666.83 0.32546 -0.9288 0.17722
27.084 -5.7149 -666.47 -0.14991 0.95812 0.24401
27.661 -5.8693 -666.43 -0.18987 0.96585 0.1763
28.519 -4.7336 -666.16 -0.39673 0.83438 0.38265
28.952 -5.5631 -666.23 -0.26496 0.74971 0.60641
29.027 -8.0341 -666.61 -0.54997 -0.60125 0.57968
30.472 -4.1412 -665.84 -0.0025411 0.7913 0.61142
30.874 -5.1181 -665.94 -0.079714 0.65547 0.75101
31.521 -4.8885 -665.84 -0.066845 0.56708 0.82094
32.657 -5.2879 -665.77 -0.29219 0.63282 0.71705
33.505 -4.1609 -665.5 0.30835 -0.63827 -0.70536
33.908 -5.1256 -665.61 -0.46287 0.41692 0.78226
34.924 -3.1271 -665.18 -0.86915 0.44974 0.20571
36.145 -0.18041 -664.59 0.32335 -0.4001 0.85753
38.446 2.2851 -663.95 0.14594 -0.30121 0.94232
39.322 3.6565 -663.63 0.03791 -0.3518 0.93531
39.821 3.1411 -663.65 0.03791 -0.3518 0.93531
40.241 2.2811 -663.73 0.03791 -0.3518 0.93531
41.166 3.8619 -663.39 -0.054767 -0.38787 0.92008
41.784 3.9824 -663.3 -0.073468 -0.3841 0.92036
69.008 25.286 -656.9 -0.56942 0.29255 0.76823
69.711 26.088 -656.7 -0.57392 0.27519 0.77129
70.34 26.476 -656.57 -0.47736 0.3537 0.80438
71.018 27.1 -656.39 -0.3345 0.47865 0.81179
71.629 27.372 -656.28 -0.35192 0.51256 0.78322
103.57 23.262 -653.27 -0.69118 -0.45119 0.56453
104.06 22.488 -653.34 -0.72328 -0.41256 0.55377
145.75 66.408 -641.78 0.61283 -0.58131 0.53527
146.3 67.333 -641.58 0.56564 -0.60814 0.55698
146.84 67.99 -641.41 0.44312 -0.69969 0.56043
147.36 68.327 -641.3 0.2639 -0.71259 0.65006
147.89 68.479 -641.22 0.18461 -0.7091 0.68051
148.41 68.577 -641.14 0.19664 -0.75064 0.63077
148.93 68.668 -641.07 0.25021 -0.79795 0.54834
149.46 68.948 -640.97 0.33759 -0.8101 0.47934
150 69.685 -640.79 0.45292 -0.82882 0.32852
150.52 69.975 -640.69 0.33616 -0.83643 0.43288
151.05 70.101 -640.6 0.25344 -0.86231 0.4384
151.56 70.183 -640.53 0.0615 -0.89263 0.44658
152.08 70.172 -640.47 -0.15704 -0.86441 0.47764
152.59 70.085 -640.43 -0.34744 -0.82551 0.44476
153.11 69.767 -640.42 -0.50105 -0.74705 0.43689
153.61 69.449 -640.41 -0.57674 -0.69203 0.43413
154.12 68.943 -640.43 -0.62665 -0.6486 0.432
154.63 68.376 -640.46 -0.68635 -0.59191 0.42257
155.13 67.757 -640.5 -0.76683 -0.47363 0.43318
155.63 66.054 -640.7 -0.85018 -0.3386 0.40318
156.11 64.232 -640.93 -0.80734 -0.42673 0.40757
156.62 63.316 -641.01 -0.80084 -0.42575 0.42118
157.14 62.846 -641.03 -0.80084 -0.42575 0.42118
-48.636 0.053895 -673.61 0.095671 0.99377 0.057099
-48.173 -0.40015 -673.63 0.2893 0.94427 0.15703
-47.488 -0.19623 -673.52 0.35068 0.90945 0.22343
-47.09 -0.84287 -673.57 0.74546 0.63878 0.1904
1.6365 -14.235 -670.07 0.25319 -0.59138 0.76561
2.3101 -14.049 -669.97 0.24887 -0.59739 0.76236
5.5405 -11.064 -669.14 0.41798 -0.57656 0.70205
6.3472 -10.323 -668.93 0.36645 -0.57535 0.73122
7.232 -9.2386 -668.67 0.36668 -0.59472 0.71544
7.9688 -8.7512 -668.5 0.38539 -0.61822 0.68503
8.783 -7.9288 -668.29 0.32147 -0.68073 0.65823
9.5217 -7.4125 -668.12 0.24333 -0.76123 0.60111
10.156 -7.3515 -668.04 0.23572 -0.75488 0.61203
10.908 -6.7951 -667.87 0.25172 -0.72655 0.63934
11.56 -6.646 -667.78 0.21972 -0.74511 0.62971
12.243 -6.3232 -667.64 0.16488 -0.75459 0.63515
12.924 -6.0389 -667.52 0.18919 -0.7744 0.60374
13.619 -5.7145 -667.4 0.17008 -0.80858 0.56327
14.271 -5.5488 -667.29 0.17315 -0.81184 0.55761
14.967 -5.1955 -667.16 0.10306 -0.77278 0.62625
15.606 -5.0769 -667.07 0.034371 -0.7845 0.61918
16.199 -5.1431 -667.01 -0.12894 -0.75909 0.63809
16.792 -5.219 -666.96 -0.039511 -0.78048 0.62394
17.459 -4.9843 -666.84 -0.046828 -0.83377 0.55012
18.037 -5.1291 -666.8 -0.14392 -0.79763 0.58572
18.63 -5.2049 -666.74 -0.15848 -0.78742 0.5957
19.258 -5.0853 -666.65 -0.10637 -0.78513 0.61013
19.865 -5.1211 -666.6 -0.11814 -0.73925 0.66298
20.413 -5.3748 -666.57 -0.096259 -0.71522 0.69224
21.065 -5.216 -666.47 -0.033931 -0.77277 0.63378
21.658 -5.2823 -666.42 -0.063105 -0.82024 0.56853
29.705 -7.5259 -665.84 -0.49085 -0.56259 0.66525
32.634 -8.1127 -665.6 -0.19038 -0.73778 0.64763
33.269 -8.0255 -665.51 -0.19038 -0.73778 0.64763
35.385 -0.71119 -664.15 0.60409 -0.46229 0.64912
37.034 4.3701 -663.18 0.17027 -0.24907 0.9534
38.009 6.2151 -662.79 0.028768 -0.37545 0.9264
67.733 24.771 -656.55 -0.48101 0.1712 0.85984
70.104 25.215 -656.21 -0.51797 0.4627 0.71945
70.856 26.393 -655.95 -0.46338 0.38637 0.7975
71.479 26.702 -655.83 -0.35192 0.51256 0.78322
72.046 26.677 -655.76 -0.35192 0.51256 0.78322
82.673 29.288 -654.15 0.36619 -0.8646 0.34406
83.278 29.621 -654.04 0.36619 -0.8646 0.34406
83.899 30.029 -653.9 0.38842 -0.81864 0.42304
86.27 30.851 -653.5 0.24659 -0.87022 0.42652
86.869 31.105 -653.4 0.20264 -0.88476 0.41969
87.463 31.298 -653.3 0.17876 -0.88779 0.42411
88.044 31.461 -653.2 0.12236 -0.91743 0.37862
88.617 31.505 -653.13 0.083559 -0.93062 0.35631
89.193 31.591 -653.06 0.08869 -0.92281 0.37492
90.348 31.811 -652.89 0.031395 -0.92771 0.37198
91.464 31.785 -652.77 -0.096254 -0.91606 0.38933
92.03 31.75 -652.71 -0.17688 -0.91161 0.37105
92.583 31.669 -652.66 0.24728 0.89785 -0.36431
93.117 31.487 -652.62 -0.32671 -0.87601 0.35478
100.07 28.209 -652.33 -0.55344 -0.68978 0.4668
100.59 27.801 -652.34 -0.61144 -0.6662 0.42698
101.1 27.263 -652.36 -0.6299 -0.66487 0.40146
101.6 26.708 -652.39 -0.64688 -0.63528 0.42187
102.12 26.179 -652.41 -0.63504 -0.61477 0.46775
102.62 25.532 -652.45 -0.66726 -0.54757 0.50491
-48.166 -0.31526 -673.01 0.45491 0.87599 0.16033
-47.599 -0.46866 -672.97 0.58147 0.72435 0.37042
-47.046 -0.66215 -672.93 0.56882 0.66005 0.49069
-46.806 -1.7838 -673.07 0.51188 0.76658 0.38773
-46.122 -1.5895 -672.96 0.24167 0.82317 0.51379
-45.488 -1.538 -672.89 -0.29601 0.81994 0.48998
-44.764 -1.2095 -672.75 -0.26267 0.6828 0.68175
-44.106 -1.0927 -672.66 -0.14789 0.84017 0.52177
-43.513 -1.1685 -672.6 0.030514 0.85782 0.51305
-42.894 -1.1764 -672.54 0.15184 0.87041 0.46833
-42.341 -1.3699 -672.5 0.33653 0.85912 0.38557
-41.801 -1.6105 -672.48 0.59955 0.71035 0.3687
-41.353 -2.1142 -672.5 0.65303 0.60756 0.45212
-40.971 -2.8394 -672.56 -0.36959 -0.87023 -0.32572
-40.442 -3.0982 -672.55 0.47509 0.85256 0.21778
-39.864 -3.2429 -672.51 0.56477 0.78333 0.25968
-39.39 -3.6787 -672.51 -0.84874 -0.48248 -0.21646
-39.155 -4.8772 -672.68 0.9433 0.30131 0.13928
-38.868 -5.9135 -672.8 -0.96304 -0.26484 0.049102
-38.687 -7.2794 -672.98 -0.96655 -0.24871 0.062706
-38.292 -7.9644 -673.05 -0.96834 -0.22834 0.10085
-38.048 -9.1664 -673.2 -0.98059 -0.14046 0.13677
-38.108 -11.317 -673.54 -0.97954 -0.019629 0.20027
-38.462 -14.407 -674.05 -0.95424 -0.012507 0.29878
-38.498 -16.492 -674.37 -0.96843 -0.12923 0.21316
-37.433 -23.202 -675.27 -0.93735 -0.20905 0.27871
0.30962 -14.458 -669.63 0.28671 -0.62026 0.73012
1.1762 -13.48 -669.39 0.28398 -0.60934 0.74031
1.8941 -13.11 -669.25 0.21423 -0.62561 0.75015
2.5546 -12.955 -669.14 0.19957 -0.61725 0.76104
3.3351 -12.309 -668.96 0.21887 -0.6342 0.74154
4.0387 -11.988 -668.83 0.36235 -0.63918 0.67835
5.024 -10.522 -668.5 0.43001 -0.60414 0.67089
5.8045 -9.8591 -668.31 0.42102 -0.60122 0.67917
6.6268 -9.0498 -668.08 0.37873 -0.61348 0.69296
7.4247 -8.306 -667.88 0.3661 -0.67793 0.63748
8.1596 -7.8473 -667.73 0.36273 -0.70522 0.60917
8.9001 -7.3188 -667.56 0.28795 -0.77983 0.55583
9.6231 -6.888 -667.42 0.31364 -0.78996 0.52687
10.247 -6.8191 -667.33 0.27235 -0.78245 0.56001
11.044 -6.0848 -667.13 0.263 -0.7946 0.54721
11.694 -5.9383 -667.03 0.19602 -0.7997 0.5675
12.362 -5.7106 -666.93 0.1662 -0.82397 0.54172
13.029 -5.476 -666.81 0.16325 -0.85007 0.50072
13.667 -5.3573 -666.72 0.15558 -0.85649 0.49216
14.32 -5.1698 -666.62 0.23164 -0.8525 0.46861
15.05 -4.6595 -666.46 0.1418 -0.85053 0.50645
15.686 -4.5697 -666.38 -0.059835 -0.86364 0.50055
16.281 -4.6167 -666.31 -0.098535 -0.85459 0.50986
16.869 -4.7528 -666.27 -0.047608 -0.85567 0.51532
17.513 -4.5643 -666.17 -0.077278 -0.86314 0.49902
18.106 -4.6401 -666.11 -0.13 -0.84559 0.51776
18.696 -4.7474 -666.06 -0.13515 -0.85087 0.50769
19.305 -4.7447 -665.99 -0.089963 -0.87548 0.4748
19.926 -4.7142 -665.91 -0.11381 -0.86103 0.49565
24.02 -5.4534 -665.56 -0.32844 -0.84965 0.41258
24.595 -5.6366 -665.53 -0.30518 -0.82608 0.47377
25.131 -5.9278 -665.51 -0.27919 -0.80748 0.51964
25.719 -6.0543 -665.46 -0.2369 -0.82808 0.50809
26.313 -6.1205 -665.4 -0.0070759 -0.97801 0.20844
29.822 -6.8137 -665.11 -0.17112 -0.75767 0.62981
30.417 -6.8607 -665.05 -0.19645 -0.74036 0.64286
31.022 -6.8991 -664.98 -0.23075 -0.77396 0.58969
31.586 -7.1005 -664.96 -0.21709 -0.75476 0.61904
32.141 -7.3936 -664.94 -0.19038 -0.73778 0.64763
32.737 -7.431 -664.87 -0.19038 -0.73778 0.64763
33.359 -7.3812 -664.79 -0.14091 -0.74649 0.65031
36.262 3.6926 -662.77 -0.39176 0.34744 -0.85194
39.399 10.282 -661.4 0.025578 -0.27813 0.9602
39.676 8.7299 -661.62 -0.021044 -0.3372 0.9412
39.789 6.374 -661.97 -0.051778 -0.38534 0.92132
40.552 7.1792 -661.75 -0.11088 -0.3165 0.94209
41.289 7.9261 -661.55 -0.11172 -0.15178 0.98208
42.021 8.5962 -661.37 -0.11172 -0.15178 0.98208
42.658 8.8337 -661.26 -0.10179 -0.2525 0.96223
43.312 9.1427 -661.14 -0.020242 -0.3027 0.95287
44.014 9.6942 -660.97 -0.029035 -0.30318 0.95249
44.585 9.5984 -660.92 -0.029035 -0.30318 0.95249
61.184 26.985 -656.38 0.14662 -0.043145 0.98825
