84.207 25.325 -662.3 -0.31148 -0.19811 0.92937
84.779 25.325 -662.26 -0.31264 -0.20722 0.92699
85.288 25.14 -662.03 -0.40702 -0.21167 0.88856
85.805 24.949 -661.8 -0.25058 -0.19014 0.94924
86.385 24.988 -661.79 -0.20044 -0.1732 0.96427
86.929 24.908 -661.67 -0.25043 -0.17195 0.95274
87.459 24.772 -661.49 -0.38509 -0.1575 0.90934
87.971 24.607 -661.28 -0.34941 -0.12346 0.9288
88.53 24.552 -661.17 -0.30481 -0.093194 0.94784
89.037 24.361 -660.94 -0.29129 -0.1092 0.95038
89.603 24.344 -660.87 -0.3513 -0.078025 0.93301
90.109 24.147 -660.63 -0.33777 -0.14643 0.92977
90.607 23.913 -660.36 -0.29055 -0.16807 0.94198
91.208 24 -660.4 -0.23417 -0.16654 0.95782
92.778 23.552 -659.81 -0.25209 -0.077011 0.96463
93.388 23.675 -659.89 -0.30217 -0.11834 0.94588
93.909 23.496 -659.68 -0.37691 -0.045398 0.92514
94.399 23.231 -659.37 -0.35739 0.0021428 0.93395
94.931 23.11 -659.19 -0.2187 0.039562 0.97499
95.505 23.122 -659.16 -0.29055 0.039507 0.95604
96.024 22.937 -658.94 -0.42903 -0.040353 0.90239
96.501 22.617 -658.57 -0.47632 0.0016045 0.87927
97.008 22.381 -658.29 -0.43085 -0.026251 0.90204
97.537 22.248 -658.1 -0.47528 -0.03072 0.8793
98.043 22.006 -657.82 -0.54575 -0.011085 0.83787
98.503 21.611 -657.39 -0.52974 0.0078264 0.84812
99.008 21.377 -657.1 -0.4702 -0.0188 0.88236
99.547 21.279 -656.96 -0.46062 -0.040482 0.88667
100.05 21.032 -656.67 -0.54857 -0.087526 0.83151
100.51 20.618 -656.21 -0.64548 -0.10153 0.757
100.94 20.125 -655.66 -0.57205 -0.041319 0.81918
101.48 19.977 -655.47 -0.42998 0.0085027 0.9028
102 19.797 -655.25 -0.44823 0.02244 0.89364
102.48 19.458 -654.86 -0.5263 0.043638 0.84918
102.97 19.143 -654.5 -0.60558 0.0060971 0.79576
103.46 18.852 -654.17 -0.64998 -0.03017 0.75935
163.71 -13.841 -615.92 0.87033 -0.15972 0.46585
164.53 -11.979 -617.77 0.89167 -0.083832 0.44486
165.3 -10.543 -619.19 0.75079 0.050326 0.65863
166.03 -9.4503 -620.25 0.66226 0.10847 0.74138
166.7 -8.7444 -620.92 0.59403 0.12972 0.79391
167.39 -7.9137 -621.72 0.54018 0.11373 0.83383
168.03 -7.5659 -622.03 0.40713 0.19627 0.89203
168.67 -7.1163 -622.45 0.27069 0.21982 0.93723
169.28 -6.9869 -622.54 0.079403 0.23303 0.96922
169.88 -6.9578 -622.53 -0.1175 0.26229 0.95781
170.48 -6.902 -622.53 -0.20654 0.26884 0.94078
171.03 -7.3232 -622.06 -0.3233 0.29996 0.8975
171.62 -7.3804 -621.95 -0.3233 0.29996 0.8975
172.18 -7.6827 -621.6 -0.38299 0.25706 0.88726
67.604 32.032 -669.69 -0.098793 0.27091 0.95752
68.146 31.946 -669.57 -0.12649 0.31041 0.94215
68.746 32.064 -669.64 -0.16635 0.31019 0.93601
69.268 31.943 -669.47 -0.22986 0.31956 0.91926
69.741 31.692 -669.18 -0.2715 0.32461 0.90604
70.238 31.502 -668.95 -0.35837 0.28301 0.88965
70.754 31.349 -668.75 -0.43432 0.23171 0.87045
71.23 31.11 -668.47 -0.42415 0.21729 0.87914
71.659 30.718 -668.03 -0.47889 0.23054 0.84706
72.15 30.504 -667.77 -0.53061 0.19833 0.82408
72.59 30.155 -667.38 -0.59245 0.20991 0.77778
73.022 29.775 -666.95 -0.64857 0.1899 0.73708
73.438 29.32 -666.45 -0.70488 0.20732 0.67835
73.842 28.86 -665.95 -0.74765 0.12279 0.65265
74.203 28.265 -665.31 -0.76447 0.054859 0.64232
74.619 27.817 -664.81 -0.69237 -0.12489 0.71065
75.064 27.449 -664.39 -0.64785 -0.17155 0.7422
75.539 27.16 -664.06 -0.58942 -0.24733 0.76903
76.035 26.964 -663.83 -0.52678 -0.30368 0.7939
76.534 26.743 -663.56 -0.39768 -0.40954 0.82105
77.081 26.683 -663.45 -0.30578 -0.48371 0.82007
77.623 26.597 -663.32 -0.28149 -0.47801 0.83203
78.159 26.493 -663.17 -0.31856 -0.39389 0.86219
78.695 26.375 -663.02 -0.16425 -0.36006 0.91835
79.276 26.42 -663.01 -0.18741 -0.31696 0.92974
79.823 26.359 -662.9 -0.26597 -0.29521 0.91766
80.334 26.181 -662.69 -0.17025 -0.32728 0.92946
80.931 26.248 -662.71 -0.0093111 -0.39098 0.92035
81.508 26.267 -662.69 -0.21979 -0.42373 0.87872
82.028 26.14 -662.51 -0.23604 -0.37796 0.89523
82.59 26.097 -662.42 -0.12335 -0.35666 0.92605
83.184 26.189 -662.48 -0.12941 -0.34212 0.9307
83.726 26.111 -662.34 -0.27242 -0.29597 0.91552
84.256 25.975 -662.17 -0.27986 -0.28143 0.91786
84.81 25.939 -662.09 -0.33582 -0.2566 0.9063
85.327 25.748 -661.86 -0.37085 -0.24203 0.8966
85.828 25.533 -661.59 -0.21384 -0.26702 0.93967
86.421 25.627 -661.64 -0.18583 -0.23803 0.95331
86.953 25.497 -661.47 -0.26263 -0.25763 0.92987
87.478 25.344 -661.27 -0.37974 -0.24123 0.89309
87.999 25.209 -661.09 -0.33732 -0.26717 0.90268
93.948 24.155 -659.54 -0.38986 -0.20617 0.8975
94.441 23.903 -659.24 -0.38265 -0.1399 0.91324
95.007 23.878 -659.18 -0.27786 -0.1327 0.95141
95.544 23.774 -659.03 -0.34053 -0.16428 0.92577
96.047 23.521 -658.73 -0.54325 -0.18145 0.81973
96.541 23.274 -658.44 -0.54096 -0.16244 0.82521
98.091 22.702 -657.73 -0.55786 -0.0090906 0.82989
98.548 22.294 -657.28 -0.56552 -0.013185 0.82463
99.078 22.166 -657.1 -0.51794 -0.088061 0.85087
100.98 20.797 -655.54 -0.53436 -0.11689 0.83713
101.54 20.722 -655.42 -0.41896 -0.063331 0.9058
102.07 20.561 -655.22 -0.47151 -0.023566 0.88154
102.54 20.209 -654.82 -0.57362 -0.0044675 0.81911
103.05 19.944 -654.51 -0.64986 -0.069181 0.7569
103.51 19.544 -654.05 -0.67169 -0.065818 0.7379
103.99 19.197 -653.66 -0.71216 -0.075487 0.69795
104.44 18.727 -653.15 -0.71895 -0.088184 0.68945
104.9 18.295 -652.66 -0.69285 -0.12712 0.70978
105.39 18.012 -652.33 -0.71334 -0.12307 0.68992
105.88 17.658 -651.93 -0.73752 -0.078838 0.67071
106.33 17.182 -651.4 -0.80559 -0.061412 0.58928
106.77 16.656 -650.83 -0.81716 0.010041 0.57633
107.14 15.846 -649.97 -0.80431 0.064764 0.59067
107.6 15.388 -649.47 -0.78307 0.046841 0.62016
108 14.7 -648.73 -0.79627 0.069058 0.60098
108.48 14.323 -648.3 -0.83059 0.054093 0.55425
108.84 13.457 -647.38 -0.82091 0.12337 0.55758
109.26 12.807 -646.67 -0.78443 0.21713 0.58097
110.03 11.202 -644.96 -0.75573 0.23023 0.61308
166.75 -7.7025 -621.14 0.6826 0.062506 0.72812
167.42 -6.9967 -621.81 0.60695 0.11151 0.78688
168.08 -6.4051 -622.38 0.36478 0.19291 0.91089
168.72 -6.0565 -622.69 0.23008 0.24497 0.94183
169.33 -5.8885 -622.81 0.099622 0.2861 0.95301
169.93 -5.896 -622.75 -0.084112 0.29066 0.95312
170.51 -5.985 -622.62 -0.18848 0.26177 0.94655
171.09 -6.0801 -622.48 -0.24527 0.26618 0.9322
171.68 -6.1758 -622.34 -0.3651 0.30544 0.87943
172.19 -6.9078 -621.54 -0.35137 0.29502 0.88854
67.23 33.055 -669.98 -0.060381 0.27527 0.95947
67.829 33.129 -670.01 -0.060381 0.27527 0.95947
68.394 33.142 -669.98 -0.11925 0.26439 0.95702
68.942 33.088 -669.88 -0.20157 0.22839 0.95247
69.45 32.942 -669.69 -0.26605 0.21919 0.93871
69.97 32.807 -669.51 -0.35999 0.24027 0.90149
70.455 32.606 -669.27 -0.4206 0.2501 0.87209
70.888 32.232 -668.85 -0.46712 0.22129 0.85606
71.33 31.889 -668.47 -0.45968 0.21972 0.86047
71.825 31.687 -668.22 -0.49246 0.19215 0.84886
72.312 31.461 -667.95 -0.55696 0.14432 0.81791
72.723 31.032 -667.47 -0.67452 0.07483 0.73446
73.148 30.621 -667.02 -0.72121 0.076991 0.68842
73.539 30.113 -666.45 -0.78864 0.021881 0.61446
73.94 29.64 -665.94 -0.85864 -0.024518 0.51199
74.246 28.892 -665.14 -0.87627 -0.15319 0.45682
77.064 27.136 -663.12 -0.17249 -0.66688 0.72493
77.627 27.099 -663.04 -0.213 -0.62134 0.75404
78.172 27.033 -662.92 -0.21253 -0.58611 0.78186
78.718 26.959 -662.81 -0.1857 -0.53613 0.82346
79.287 26.954 -662.76 -0.21961 -0.53083 0.81853
79.831 26.874 -662.64 -0.24663 -0.59677 0.76357
80.343 26.709 -662.42 -0.14917 -0.47517 0.86716
80.946 26.794 -662.47 -0.098487 -0.52828 0.84334
81.524 26.827 -662.45 -0.11964 -0.53287 0.8377
82.043 26.686 -662.27 -0.15814 -0.52376 0.83706
82.614 26.687 -662.22 -0.11271 -0.47875 0.87069
83.195 26.723 -662.22 -0.12224 -0.42994 0.89454
83.74 26.657 -662.1 -0.20875 -0.45819 0.86399
84.286 26.583 -661.99 -0.25461 -0.43706 0.86264
84.844 26.528 -661.89 -0.36418 -0.40568 0.83833
85.327 26.277 -661.59 -0.34421 -0.34285 0.87406
85.885 26.222 -661.49 -0.16441 -0.35663 0.91967
86.442 26.197 -661.43 0.19251 0.32682 -0.92527
87.002 26.148 -661.33 -0.34044 -0.36105 0.86819
87.506 25.946 -661.09 -0.34454 -0.33174 0.87821
88.045 25.848 -660.94 -0.34332 -0.31815 0.88369
88.585 25.764 -660.8 -0.26735 -0.34032 0.9015
89.107 25.59 -660.59 -0.29747 -0.32819 0.89655
89.691 25.647 -660.6 -0.35558 -0.37146 0.85766
90.189 25.42 -660.32 -0.31652 -0.2467 0.91594
90.7 25.241 -660.11 -0.29281 -0.2088 0.93309
94.496 24.586 -659.13 -0.30133 -0.22208 0.9273
95.036 24.494 -659 -0.32961 -0.19152 0.92449
95.596 24.445 -658.9 -0.46066 -0.23453 0.85603
96.076 24.137 -658.55 -0.54439 -0.23766 0.80446
96.561 23.846 -658.22 -0.39878 -0.28117 0.87288
97.107 23.786 -658.11 -0.41593 -0.24827 0.87485
97.649 23.656 -657.94 -0.4721 -0.26229 0.84162
98.163 23.452 -657.69 -0.60463 -0.16388 0.77946
98.607 23.041 -657.22 -0.56182 -0.11855 0.81872
99.127 22.862 -657 -0.54337 -0.04643 0.83821
99.628 22.602 -656.7 -0.57409 -0.10255 0.81234
100.13 22.331 -656.38 -0.6288 -0.10727 0.77013
100.56 21.844 -655.84 -0.61363 -0.049876 0.78802
101.06 21.579 -655.52 -0.4877 -0.037123 0.87222
101.6 21.469 -655.37 -0.44016 -0.025622 0.89756
102.12 21.245 -655.11 -0.53285 -0.073133 0.84305
102.6 20.931 -654.75 -0.68962 -0.16864 0.70427
103.08 20.61 -654.38 -0.69141 -0.13905 0.70895
103.55 20.215 -653.93 -0.71452 -0.13198 0.68705
104.02 19.825 -653.5 -0.74949 -0.10544 0.65357
104.48 19.375 -652.99 -0.74065 -0.090358 0.66579
104.97 19.078 -652.65 -0.71993 -0.11978 0.68363
105.44 18.689 -652.21 -0.70728 -0.14578 0.69174
105.92 18.342 -651.82 -0.75697 -0.16128 0.63323
106.36 17.824 -651.24 -0.81023 -0.11892 0.57392
106.82 17.354 -650.72 -0.82738 -0.051711 0.55925
107.22 16.678 -650 -0.81551 0.017554 0.57848
107.67 16.184 -649.46 -0.79682 0.041592 0.60278
108.11 15.653 -648.87 -0.79629 0.034039 0.60396
108.54 15.09 -648.25 -0.82738 -0.012429 0.56151
108.96 14.465 -647.58 -0.82515 0.077736 0.55954
109.34 13.66 -646.72 -0.80183 0.15886 0.57605
109.73 12.899 -645.91 -0.76898 0.20565 0.60529
110.16 12.285 -645.25 -0.75448 0.23027 0.6146
110.57 11.578 -644.49 -0.76247 0.23987 0.60092
166.77 -6.8234 -621.19 0.71264 0.063759 0.69862
167.48 -5.8486 -622.13 0.59933 0.19505 0.77638
168.13 -5.3692 -622.59 0.37396 0.2274 0.89914
168.78 -4.8638 -623.06 0.31601 0.23274 0.91977
169.4 -4.6461 -623.23 0.11256 0.26728 0.95702
170 -4.5665 -623.27 -0.07287 0.26189 0.96234
170.58 -4.6615 -623.13 -0.21343 0.29474 0.93144
171.15 -4.8814 -622.86 -0.27702 0.27275 0.92134
171.72 -5.1014 -622.58 -0.34862 0.22579 0.90966
172.29 -5.3093 -622.32 -0.4526 0.26648 0.85097
67.45 34.127 -670.27 -0.11043 0.22306 0.96853
68.036 34.189 -670.29 -0.12493 0.22477 0.96637
68.571 34.116 -670.18 -0.16998 0.20126 0.96468
69.074 33.952 -669.97 -0.24785 0.20679 0.94647
69.612 33.898 -669.87 -0.26683 0.21865 0.93861
70.102 33.671 -669.61 -0.35397 0.20813 0.9118
70.571 33.408 -669.3 -0.4751 0.17728 0.86189
71.067 33.22 -669.06 -0.51633 0.1732 0.83869
71.506 32.864 -668.66 -0.54584 0.16738 0.821
83.724 27.111 -661.77 -0.19819 -0.60433 0.77169
84.28 27.05 -661.66 -0.29688 -0.57319 0.76375
84.827 26.99 -661.55 -0.31951 -0.5655 0.76035
85.333 26.793 -661.31 -0.30672 -0.47896 0.82251
85.901 26.774 -661.26 -0.26451 -0.51737 0.81386
86.45 26.72 -661.16 -0.26014 -0.52893 0.80781
86.987 26.616 -661.01 -0.33398 -0.52043 0.78588
87.496 26.431 -660.78 -0.34666 -0.46972 0.8119
88.057 26.396 -660.69 -0.31532 -0.3983 0.86135
88.596 26.298 -660.55 -0.26602 -0.41484 0.87014
89.116 26.163 -660.37 -0.30926 -0.38825 0.86812
89.688 26.164 -660.33 -0.35558 -0.37146 0.85766
90.187 25.935 -660.06 -0.28508 -0.27803 0.91729
90.714 25.787 -659.87 0.28605 0.28256 -0.91561
91.305 25.876 -659.9 -0.25504 -0.38153 0.88848
91.859 25.795 -659.78 -0.22346 -0.38418 0.89581
92.373 25.636 -659.58 -0.26346 -0.33028 0.90637
92.936 25.599 -659.5 -0.32804 -0.34805 0.87821
93.469 25.483 -659.33 -0.34908 -0.3197 0.88087
93.995 25.329 -659.13 -0.35377 -0.31835 0.87949
94.53 25.211 -658.98 -0.3449 -0.35973 0.86697
95.084 25.183 -658.9 0.39372 0.40466 -0.82537
95.599 24.986 -658.65 0.50547 0.423 -0.75204
96.064 24.616 -658.24 -0.52786 -0.24977 0.81177
96.606 24.53 -658.11 -0.39188 -0.26252 0.88177
97.132 24.376 -657.91 -0.39115 -0.27011 0.8798
97.654 24.21 -657.69 -0.49886 -0.33259 0.80032
98.153 23.945 -657.38 -0.60821 -0.32764 0.723
98.649 23.705 -657.1 -0.61556 -0.26557 0.742
101.66 22.208 -655.31 -0.53089 -0.20892 0.82128
102.15 21.929 -655 -0.60053 -0.21913 0.76899
102.62 21.541 -654.56 -0.68777 -0.19169 0.70017
103.1 21.17 -654.14 -0.68624 -0.21261 0.69561
103.59 20.881 -653.79 -0.72212 -0.1727 0.66986
104.06 20.479 -653.35 -0.76551 -0.1464 0.62655
104.51 20.059 -652.88 -0.74526 -0.16279 0.64659
104.98 19.682 -652.46 -0.7378 -0.16556 0.6544
105.44 19.226 -651.94 -0.73322 -0.1559 0.66187
105.94 18.928 -651.6 -0.76928 -0.1726 0.61516
106.4 18.496 -651.12 -0.80795 -0.13217 0.57424
106.83 17.926 -650.5 -0.81317 -0.11404 0.57075
107.27 17.42 -649.94 -0.82693 -0.089561 0.55512
107.75 17.011 -649.49 -0.81632 -0.010099 0.57751
166.08 -7.018 -620.19 0.74588 0.05052 0.66416
166.78 -6.1129 -621.07 0.71545 0.12077 0.68815
167.52 -4.8326 -622.33 0.54203 0.19591 0.81721
168.18 -4.1705 -622.96 0.32769 0.21481 0.92004
168.82 -3.8665 -623.23 0.12442 0.28654 0.94995
169.44 -3.5796 -623.48 0.10141 0.25985 0.96031
170.04 -3.5187 -623.5 -0.062349 0.28047 0.95783
170.62 -3.6515 -623.32 -0.18084 0.26452 0.94727
171.19 -3.809 -623.11 -0.27678 0.27395 0.92106
68.173 35.085 -670.41 -0.17045 0.28619 0.94289
68.717 35.005 -670.29 -0.21841 0.26939 0.93794
69.261 34.969 -670.21 -0.21486 0.22054 0.95142
69.788 34.866 -670.07 -0.30481 0.22631 0.92514
70.287 34.69 -669.84 -0.4228 0.1981 0.88431
70.752 34.401 -669.51 -0.50736 0.19678 0.83896
71.18 34.046 -669.12 -0.54367 0.17668 0.82049
71.619 33.698 -668.71 -0.59014 0.13698 0.79559
72.056 33.337 -668.31 -0.63178 0.11498 0.76657
72.514 33.024 -667.95 -0.67465 0.12465 0.72753
72.946 32.645 -667.52 -0.76944 0.061711 0.63574
73.299 32.056 -666.89 -0.81564 0.052942 0.57613
73.688 31.534 -666.32 -0.84876 0.028241 0.52802
73.995 30.8 -665.53 -0.92037 -0.029173 0.38997
74.334 30.15 -664.83 -0.93466 -0.050693 0.35192
74.684 29.505 -664.13 -0.89428 -0.15875 0.4184
75.04 28.884 -663.47 -0.8364 -0.33853 0.43107
75.484 28.51 -663.05 -0.7144 -0.51171 0.47727
75.963 28.246 -662.74 -0.56622 -0.60406 0.56081
76.446 27.994 -662.45 -0.44156 -0.73922 0.5085
76.967 27.867 -662.26 -0.32964 -0.74517 0.5797
77.533 27.842 -662.2 -0.22358 -0.77324 0.59339
78.062 27.709 -662.01 -0.13733 -0.76948 0.62373
78.622 27.696 -661.96 -0.083636 -0.74562 0.6611
79.201 27.735 -661.95 -0.1291 -0.71936 0.68253
79.768 27.71 -661.89 -0.15726 -0.71687 0.67924
80.283 27.557 -661.69 0.11073 0.70763 -0.69785
80.888 27.648 -661.74 -0.095714 -0.72419 0.68293
81.458 27.643 -661.69 0.10866 0.73019 -0.67455
81.989 27.521 -661.52 -0.22447 -0.71448 0.66267
82.553 27.529 -661.48 -0.12157 -0.7128 0.69075
96.093 25.224 -658.06 -0.39463 -0.38321 0.83511
96.637 25.152 -657.94 -0.36024 -0.34835 0.86538
97.159 24.986 -657.72 -0.46672 -0.34159 0.81578
97.661 24.733 -657.42 -0.58768 -0.34764 0.7306
98.161 24.504 -657.16 -0.58472 -0.36327 0.72536
102.61 22.034 -654.25 -0.68647 -0.24799 0.68356
103.13 21.842 -654.01 -0.68416 -0.24863 0.68564
103.6 21.46 -653.58 -0.70625 -0.22079 0.67265
104.08 21.121 -653.19 -0.76557 -0.19438 0.61329
104.54 20.675 -652.7 -0.77632 -0.19244 0.60024
105.02 20.33 -652.3 -0.74674 -0.18962 0.63751
105.48 19.91 -651.83 -0.74477 -0.18052 0.64244
105.95 19.527 -651.4 -0.76329 -0.18337 0.61948
106.4 19.033 -650.85 -0.78703 -0.16029 0.59573
106.88 18.642 -650.42 -0.81191 -0.1173 0.57188
107.34 18.192 -649.91 -0.83123 -0.084194 0.54952
107.76 17.616 -649.29 -0.82039 -0.068555 0.56768
108.19 17.054 -648.67 -0.83211 -0.066632 0.55059
108.63 16.504 -648.06 -0.83825 -0.033059 0.54429
109.03 15.793 -647.3 -0.80755 -0.029916 0.58904
109.48 15.298 -646.75 -0.7624 -0.022792 0.6467
109.93 14.777 -646.18 -0.74546 0.054024 0.66436
110.41 14.362 -645.72 -0.74297 0.12058 0.65838
110.83 13.712 -645.01 -0.74382 0.18542 0.64215
111.24 13.05 -644.29 -0.77494 0.20655 0.59733
169.5 -2.4136 -623.83 0.097856 0.22359 0.96976
170.09 -2.3957 -623.8 -0.04206 0.24461 0.96871
170.67 -2.4529 -623.7 -0.1807 0.26508 0.94714
171.26 -2.5865 -623.52 -0.30355 0.26376 0.91558
171.83 -2.6935 -623.36 -0.39967 0.28451 0.87139
172.38 -3.094 -622.9 -0.46249 0.30156 0.83377
172.91 -3.6453 -622.29 -0.58416 0.24007 0.77532
173.45 -4.2737 -621.61 -0.54563 0.24375 0.8018
66.614 35.92 -670.61 0.041629 0.25331 0.96649
67.308 36.27 -670.92 -0.01692 0.28318 0.95892
67.889 36.314 -670.91 -0.01692 0.28318 0.95892
68.428 36.253 -670.82 -0.20171 0.27135 0.94111
68.957 36.156 -670.68 -0.28172 0.27062 0.92054
69.435 35.931 -670.4 -0.3209 0.24676 0.9144
69.94 35.778 -670.21 -0.38754 0.20943 0.89775
70.387 35.461 -669.84 -0.41925 0.20779 0.88377
70.88 35.253 -669.59 -0.53597 0.13126 0.83397
71.328 34.941 -669.23 -0.59454 0.11507 0.79579
71.742 34.532 -668.77 -0.66097 0.08765 0.74527
72.179 34.17 -668.36 -0.68198 0.057241 0.72913
72.583 33.71 -667.86 -0.71355 0.0097507 0.70053
73.001 33.319 -667.42 -0.78417 -0.0094349 0.62048
73.373 32.768 -666.81 -0.85848 -0.033017 0.51179
73.737 32.185 -666.19 -0.90003 -0.038943 0.43408
74.074 31.529 -665.48 -0.93595 -0.055408 0.34775
74.365 30.719 -664.62 -0.95242 -0.11787 0.28109
74.672 29.976 -663.83 -0.95997 -0.13851 0.24346
76.388 28.327 -661.98 -0.33151 -0.8603 0.38728
76.902 28.16 -661.78 -0.22794 -0.85506 0.46575
77.48 28.193 -661.75 -0.19361 -0.83135 0.52094
77.999 28.052 -661.57 -0.093934 -0.8435 0.52885
78.599 28.126 -661.6 -0.08623 -0.82895 0.55264
79.178 28.164 -661.59 -0.1056 -0.76391 0.63663
79.715 28.06 -661.44 -0.19731 -0.74786 0.63386
80.247 27.93 -661.27 -0.12432 -0.80091 0.58574
80.837 28.005 -661.31 -0.018377 -0.77306 0.63407
81.41 28.012 -661.27 -0.16595 -0.77616 0.60831
81.952 27.926 -661.14 -0.19091 -0.78733 0.58623
82.515 27.889 -661.06 -0.037351 -0.79145 0.61009
83.13 28.038 -661.16 -0.014126 -0.80564 0.59224
83.666 27.928 -661 -0.13914 -0.72534 0.67418
84.222 27.904 -660.94 -0.21985 -0.68943 0.69018
84.751 27.762 -660.75 -0.19856 -0.67874 0.70702
85.309 27.751 -660.69 -0.23138 -0.6197 0.74996
85.879 27.738 -660.64 -0.26133 -0.62702 0.73386
86.388 27.561 -660.42 -0.32837 -0.60607 0.72447
86.919 27.426 -660.24 -0.27352 -0.6364 0.72124
87.467 27.371 -660.14 -0.20459 -0.59012 0.78096
88.044 27.39 -660.11 -0.23061 -0.56737 0.79052
92.961 26.724 -659.04 -0.29308 -0.39955 0.8686
93.477 26.526 -658.8 -0.36819 -0.39646 0.84099
94.022 26.46 -658.69 -0.42192 -0.38895 0.81897
94.548 26.307 -658.49 -0.44291 -0.43352 0.78478
95.075 26.159 -658.3 -0.49134 -0.49723 0.71508
95.551 25.839 -657.93 -0.45677 -0.49697 0.73782
96.099 25.785 -657.82 -0.38808 -0.45986 0.7987
96.633 25.669 -657.66 -0.34717 -0.43404 0.83132
97.16 25.521 -657.47 -0.50504 -0.41988 0.75408
97.658 25.25 -657.15 -0.57217 -0.47268 0.67022
98.147 24.985 -656.83 -0.541 -0.40949 0.7346
98.673 24.832 -656.63 -0.55426 -0.38218 0.73941
99.18 24.596 -656.36 -0.58049 -0.39883 0.70991
99.686 24.363 -656.07 -0.65587 -0.40385 0.63776
100.15 24.005 -655.67 -0.60171 -0.34125 0.72215
100.64 23.684 -655.3 -0.57088 -0.31912 0.75648
101.17 23.543 -655.12 -0.61885 -0.36003 0.69814
101.68 23.321 -654.85 -0.63061 -0.37379 0.68016
102.15 22.957 -654.43 -0.68435 -0.30995 0.65999
103.14 22.365 -653.74 -0.67619 -0.24667 0.69421
103.62 22.02 -653.34 -0.72392 -0.29509 0.62359
104.11 21.743 -653.01 -0.76893 -0.25063 0.58816
104.54 21.218 -652.44 -0.77734 -0.20417 0.59502
105.02 20.853 -652.03 -0.74098 -0.23134 0.63042
105.51 20.514 -651.64 -0.75026 -0.24222 0.61517
105.97 20.093 -651.17 -0.77145 -0.19104 0.60694
107.33 18.717 -649.63 -0.82366 -0.13595 0.55054
107.76 18.129 -648.99 -0.84178 -0.13187 0.52346
108.24 17.74 -648.55 -0.85607 -0.13634 0.49856
108.65 17.12 -647.88 -0.83611 -0.068677 0.54424
109.08 16.52 -647.23 -0.80129 -0.048905 0.59628
109.55 16.069 -646.72 -0.75215 -0.0017593 0.65898
110.02 15.66 -646.27 -0.74462 0.016207 0.66729
110.48 15.153 -645.7 -0.7615 0.047221 0.64645
110.9 14.535 -645.02 -0.78709 0.07784 0.61191
111.33 13.915 -644.36 -0.77774 0.16121 0.60756
111.75 13.273 -643.65 -0.77165 0.18627 0.60816
112.13 12.462 -642.78 -0.76992 0.19355 0.60808
167.65 -2.4441 -623.09 0.31638 0.22605 0.92131
168.3 -1.9448 -623.55 0.29611 0.26836 0.91668
168.92 -1.6519 -623.81 0.26441 0.28844 0.92027
169.54 -1.3798 -624.05 0.12449 0.26329 0.95665
170.14 -1.2735 -624.11 -0.071131 0.19779 0.97766
170.72 -1.3426 -623.99 -0.19009 0.23101 0.9542
171.29 -1.5558 -623.73 -0.25285 0.22901 0.94001
171.87 -1.6894 -623.55 -0.34977 0.24702 0.90368
172.41 -2.1345 -623.04 -0.47644 0.27998 0.83344
172.95 -2.6233 -622.5 -0.56968 0.26936 0.77647
66.873 37.114 -671.03 0.042515 0.24933 0.96748
67.474 37.193 -671.07 0.013966 0.21962 0.97549
68.035 37.195 -671.03 -0.079731 0.23772 0.96806
68.604 37.22 -671.01 -0.19269 0.25288 0.94812
69.119 37.112 -670.86 -0.28669 0.24013 0.92744
69.591 36.855 -670.56 -0.40137 0.19263 0.89543
70.096 36.703 -670.36 -0.45282 0.20785 0.86704
73.768 32.754 -665.98 -0.91374 -0.076005 0.39912
79.67 28.441 -661.03 -0.20664 -0.80556 0.55531
80.201 28.305 -660.86 -0.14055 -0.78811 0.59928
80.784 28.356 -660.86 -0.065881 -0.83724 0.54286
81.352 28.336 -660.8 -0.16126 -0.8438 0.51186
81.892 28.244 -660.67 -0.19639 -0.80956 0.55321
82.437 28.178 -660.55 -0.048168 -0.84391 0.53432
83.045 28.29 -660.62 -0.0015676 -0.81107 0.58495
83.598 28.253 -660.54 -0.085651 -0.81593 0.57177
84.191 28.295 -660.54 -0.18427 -0.76922 0.61183
84.728 28.191 -660.39 -0.166 -0.7155 0.6786
85.278 28.143 -660.3 -0.23683 -0.67902 0.69487
85.849 28.144 -660.25 -0.22186 -0.76981 0.59847
86.359 27.959 -660.03 -0.28265 -0.74718 0.60152
86.905 27.899 -659.92 -0.25689 -0.69679 0.66969
87.45 27.833 -659.8 -0.20046 -0.70833 0.67682
88.023 27.84 -659.76 -0.22304 -0.72165 0.65534
88.542 27.654 -659.54 -0.24021 -0.69765 0.67497
89.096 27.618 -659.46 -0.2809 -0.67196 0.68525
89.628 27.496 -659.29 -0.16753 -0.66794 0.72512
90.165 27.392 -659.14 -0.1228 -0.65385 0.74659
90.752 27.46 -659.16 -0.13497 -0.60269 0.78648
91.314 27.417 -659.07 -0.11898 -0.59107 0.7978
91.854 27.325 -658.94 -0.17118 -0.56065 0.81016
92.439 27.374 -658.96 -0.22914 -0.54136 0.80896
94.544 26.824 -658.21 -0.50871 -0.51895 0.68696
95.03 26.539 -657.89 -0.48982 -0.56203 0.66648
95.538 26.312 -657.61 -0.42804 -0.5039 0.75024
96.107 26.307 -657.55 -0.33355 -0.45973 0.82304
96.636 26.165 -657.37 -0.36927 -0.5125 0.77523
99.186 25.113 -656.08 -0.61683 -0.41394 0.66946
99.666 24.805 -655.73 -0.65926 -0.41515 0.62692
100.14 24.484 -655.36 -0.59395 -0.36616 0.71635
100.66 24.274 -655.1 -0.56161 -0.32009 0.76298
101.19 24.109 -654.89 -0.60791 -0.35136 0.71204
101.65 23.733 -654.46 -0.66935 -0.37222 0.64298
102.14 23.45 -654.13 -0.62459 -0.39385 0.67436
102.66 23.24 -653.87 -0.623 -0.27754 0.73133
103.15 22.931 -653.51 -0.70094 -0.27457 0.65825
103.62 22.581 -653.11 -0.73616 -0.29407 0.60958
104.1 22.228 -652.71 -0.74841 -0.2821 0.60025
104.57 21.822 -652.24 -0.77571 -0.23309 0.58647
105.04 21.445 -651.82 -0.77395 -0.23919 0.58633
109.59 16.797 -646.65 -0.73381 -0.081923 0.67439
110.06 16.346 -646.14 -0.76019 -0.047923 0.64793
110.51 15.84 -645.58 -0.75805 0.020649 0.65187
167.72 -1.1978 -623.53 0.34053 0.25305 0.90554
168.34 -0.885 -623.79 0.25688 0.29048 0.92176
168.98 -0.39886 -624.26 0.2599 0.24433 0.93421
171.33 -0.45949 -624.02 -0.2699 0.23719 0.93322
171.92 -0.52266 -623.9 -0.29051 0.23887 0.92658
172.48 -0.79233 -623.58 -0.34762 0.29054 0.89149
173.03 -1.157 -623.16 -0.44149 0.3403 0.83023
173.55 -1.877 -622.38 -0.56944 0.27357 0.77518
174.08 -2.4915 -621.7 -0.56968 0.26936 0.77647
66.444 37.945 -671.13 0.036875 0.22759 0.97306
67.094 38.191 -671.34 0.041083 0.24881 0.96768
67.692 38.303 -671.41 -0.032407 0.22847 0.97301
68.247 38.273 -671.34 -0.12617 0.23143 0.96464
68.791 38.238 -671.26 -0.28827 0.18682 0.93915
69.29 38.062 -671.03 -0.36941 0.19276 0.90906
69.763 37.811 -670.74 -0.44094 0.178 0.87971
70.226 37.56 -670.45 -0.50621 0.18194 0.843
70.664 37.213 -670.04 -0.52796 0.2074 0.82356
71.134 36.95 -669.73 -0.61806 0.14243 0.77312
71.536 36.528 -669.27 -0.72538 0.10746 0.67991
71.95 36.111 -668.81 -0.74851 0.081698 0.65807
72.331 35.604 -668.25 -0.7643 0.022868 0.64446
72.752 35.175 -667.77 -0.84128 0.0023621 0.54059
73.116 34.636 -667.18 -0.87766 -0.035588 0.47797
73.486 34.079 -666.57 -0.92775 -0.058322 0.36862
73.811 33.373 -665.81 -0.94177 -0.074887 0.32782
74.123 32.657 -665.04 -0.96835 -0.07705 0.23739
74.369 31.75 -664.07 -0.98284 -0.13145 0.12942
74.639 30.891 -663.17 -0.97608 -0.16638 0.13992
74.913 30.013 -662.23 -0.93793 -0.30573 0.16374
75.27 29.4 -661.57 -0.78914 -0.61291 0.03994
75.721 29.064 -661.18 -0.66288 -0.74286 0.093535
76.206 28.818 -660.89 -0.46962 -0.8334 0.29138
76.741 28.708 -660.73 -0.25702 -0.89938 0.35363
77.333 28.758 -660.73 -0.079648 -0.93488 0.34591
77.877 28.678 -660.61 0.016497 -0.92901 0.36969
78.448 28.678 -660.57 -0.017107 -0.93807 0.34602
79.058 28.796 -660.64 -0.057248 -0.93108 0.36029
79.6 28.71 -660.51 -0.14658 -0.91077 0.38601
80.136 28.606 -660.36 -0.1432 -0.93143 0.33455
80.711 28.619 -660.33 -0.051058 -0.91409 0.40228
81.284 28.625 -660.29 -0.10024 -0.90226 0.41937
81.828 28.545 -660.17 -0.1622 -0.86279 0.47883
90.755 27.957 -658.87 -0.094255 -0.61663 0.78159
91.294 27.859 -658.73 -0.15432 -0.60141 0.78389
91.851 27.835 -658.67 -0.14942 -0.61352 0.77541
92.421 27.829 -658.61 -0.16765 -0.63677 0.75261
92.954 27.713 -658.45 -0.27788 -0.57696 0.76805
93.496 27.627 -658.32 -0.41306 -0.50467 0.75808
96.628 26.656 -657.07 -0.43924 -0.53795 0.7195
97.133 26.423 -656.79 -0.57441 -0.55606 0.60071
97.604 26.085 -656.39 -0.49793 -0.52701 0.68871
98.145 25.993 -656.26 -0.51832 -0.47464 0.71138
98.669 25.833 -656.05 -0.53763 -0.46635 0.70248
99.169 25.574 -655.75 -0.60981 -0.46046 0.64506
99.642 25.242 -655.36 -0.62023 -0.4222 0.66111
100.16 25.045 -655.12 -0.59322 -0.38531 0.70685
100.68 24.891 -654.92 -0.55205 -0.33106 0.76527
101.18 24.614 -654.59 -0.61349 -0.32989 0.7175
101.63 24.2 -654.14 -0.66163 -0.37824 0.64744
102.17 24.034 -653.92 -0.61163 -0.4038 0.68034
102.66 23.763 -653.6 -0.62531 -0.39945 0.67039
103.16 23.492 -653.28 -0.69521 -0.35573 0.62461
103.61 23.048 -652.78 -0.72986 -0.31272 0.60787
104.09 22.715 -652.39 -0.74314 -0.33316 0.58031
104.59 22.424 -652.06 -0.75659 -0.28795 0.58708
105.04 21.98 -651.56 -0.75923 -0.23201 0.60807
105.49 21.512 -651.03 -0.76859 -0.2467 0.59026
106 21.271 -650.75 0.775 0.24918 -0.58076
106.45 20.802 -650.22 -0.79768 -0.23788 0.55419
106.9 20.338 -649.71 -0.81173 -0.21409 0.54337
107.37 19.893 -649.21 -0.82855 -0.23742 0.50708
107.83 19.461 -648.73 -0.84815 -0.19496 0.49258
108.25 18.867 -648.08 -0.83724 -0.18172 0.51575
108.7 18.355 -647.51 -0.80817 -0.17678 0.5618
109.13 17.799 -646.9 -0.78746 -0.13063 0.60237
109.63 17.483 -646.53 -0.78946 -0.13138 0.59957
111.91 15.003 -643.77 -0.71127 0.11321 0.69374
112.36 14.434 -643.14 -0.73634 0.1691 0.65514
112.81 13.945 -642.6 -0.73634 0.1691 0.65514
168.41 0.38597 -624.27 0.2364 0.26939 0.93357
169.02 0.59048 -624.44 0.22964 0.26051 0.93776
169.63 0.75247 -624.55 0.056074 0.27565 0.95962
170.23 0.90126 -624.67 -0.10009 0.30328 0.94763
170.81 0.76371 -624.47 -0.17267 0.26527 0.94859
171.37 0.56842 -624.23 -0.20082 0.25694 0.94533
171.96 0.51122 -624.12 -0.2929 0.22751 0.92868
172.52 0.2861 -623.84 -0.36256 0.18025 0.91436
173.09 0.066188 -623.57 -0.44986 0.16985 0.8768
66.684 39.096 -671.52 0.025746 0.22791 0.97334
67.265 39.133 -671.52 -0.023689 0.23062 0.97276
67.865 39.251 -671.59 -0.06443 0.15971 0.98506
68.4 39.186 -671.48 -0.08949 0.20819 0.97399
68.932 39.1 -671.35 -0.30038 0.14338 0.94298
69.888 38.642 -670.8 -0.46678 0.13584 0.87388
70.374 38.455 -670.56 -0.53865 0.16386 0.82644
70.814 38.105 -670.17 -0.55877 0.1351 0.81824
71.238 37.732 -669.75 -0.65872 0.10213 0.74543
72.413 36.301 -668.17 -0.81725 -0.062299 0.5729
72.796 35.8 -667.62 -0.87979 -0.069056 0.47032
73.141 35.182 -666.94 -0.91323 -0.12768 0.38693
73.522 34.666 -666.38 -0.94456 -0.12233 0.30471
73.811 33.903 -665.55 0.96651 0.14927 -0.20877
74.141 33.215 -664.82 0.96943 0.157 -0.18858
74.341 32.154 -663.7 -0.98199 -0.15791 0.10375
74.609 31.297 -662.78 -0.97913 -0.17712 0.099643
74.846 30.338 -661.77 -0.90942 -0.41521 0.023555
75.214 29.731 -661.11 -0.88316 -0.45697 0.10584
77.161 28.763 -659.95 0.0052603 -0.99108 0.13317
77.732 28.764 -659.9 0.043809 -0.98867 0.14358
78.341 28.881 -659.98 0.054865 -0.98721 0.14967
78.92 28.906 -659.96 0.0018769 -0.98787 0.15526
79.461 28.82 -659.83 -0.076644 -0.95863 0.27415
80.024 28.791 -659.75 -0.098472 -0.92921 0.35619
80.609 28.839 -659.76 -0.048075 -0.94087 0.33534
81.195 28.857 -659.74 -0.052259 -0.94831 0.31301
81.74 28.791 -659.62 -0.092184 -0.92549 0.36739
82.317 28.81 -659.6 -0.097318 -0.91383 0.39427
85.704 28.715 -659.24 -0.11382 -0.89152 0.43845
86.248 28.635 -659.12 -0.1005 -0.86777 0.48671
86.819 28.635 -659.07 -0.17026 -0.80047 0.57468
87.368 28.581 -658.97 -0.17103 -0.79726 0.57891
87.924 28.52 -658.86 -0.15574 -0.81835 0.55322
88.468 28.44 -658.74 -0.21358 -0.75573 0.61908
89.039 28.441 -658.69 -0.19125 -0.77359 0.60413
89.556 28.294 -658.5 -0.13626 -0.77448 0.61775
90.135 28.319 -658.49 -0.09412 -0.72737 0.67976
90.711 28.337 -658.47 -0.063251 -0.7032 0.70818
91.254 28.265 -658.34 -0.12621 -0.66264 0.73822
91.832 28.29 -658.33 -0.14222 -0.66249 0.73545
92.389 28.221 -658.22 -0.21631 -0.66446 0.71534
92.936 28.161 -658.11 -0.27178 -0.6606 0.69982
93.476 28.069 -657.98 -0.31328 -0.64378 0.69814
94.01 27.953 -657.81 -0.5343 -0.55469 0.63784
94.478 27.595 -657.41 -0.55953 -0.64034 0.52621
94.975 27.368 -657.13 -0.26654 -0.62301 0.7354
95.532 27.308 -657.02 -0.32683 -0.494 0.8057
96.084 27.265 -656.93 -0.33551 -0.56774 0.75173
96.601 27.074 -656.7 -0.61113 -0.57603 0.54288
97.079 26.76 -656.34 -0.58889 -0.54846 0.59363
97.611 26.638 -656.16 -0.51594 -0.52487 0.67699
109.18 18.526 -646.83 -0.7921 -0.18273 0.58239
109.67 18.149 -646.4 -0.82258 -0.17893 0.53977
110.12 17.668 -645.85 -0.81761 -0.16856 0.55055
167.81 0.95236 -624.05 0.29783 0.2526 0.92059
168.46 1.4823 -624.56 0.26707 0.25852 0.92835
169.09 1.8635 -624.9 0.18637 0.26134 0.94708
169.69 1.9491 -624.94 0.052123 0.25248 0.9662
170.28 1.9105 -624.86 -0.14036 0.22617 0.96392
170.85 1.8541 -624.75 -0.20234 0.20383 0.95787
171.43 1.6966 -624.55 -0.21733 0.21289 0.9526
70.495 39.275 -670.61 -0.60832 0.086284 0.78899
70.916 38.882 -670.19 -0.61022 0.11967 0.78314
71.339 38.517 -669.76 -0.72569 0.055864 0.68575
71.735 38.072 -669.26 -0.79776 0.078577 0.59784
72.466 36.964 -668.05 -0.85468 -0.041104 0.51753
72.837 36.413 -667.45 -0.88366 -0.053478 0.46507
73.187 35.813 -666.8 -0.92666 -0.12226 0.35546
73.51 35.146 -666.07 -0.95225 -0.12693 0.27767
73.786 34.318 -665.19 -0.96299 -0.23007 0.1404
74.09 33.563 -664.39 -0.95833 -0.24193 0.15192
74.264 32.436 -663.19 -0.97651 -0.20425 0.068554
74.781 30.639 -661.28 -0.93909 -0.29321 0.17929
75.111 29.96 -660.54 0.92539 0.34938 -0.14696
75.492 29.408 -659.93 -0.73549 -0.66586 0.12526
75.957 29.082 -659.56 -0.43876 -0.8725 0.21504
76.473 28.929 -659.36 0.29937 0.92031 -0.25182
77.039 28.904 -659.29 -0.10919 -0.96341 0.24477
77.601 28.861 -659.21 -0.00022847 -0.98169 0.1905
78.19 28.944 -659.23 0.050395 -0.98916 0.13794
81.612 28.909 -658.94 0.034577 -0.98854 0.14694
82.218 29.006 -659 0.046902 -0.98972 0.13508
82.771 28.97 -658.92 0.0054863 -0.98034 0.19726
83.348 28.989 -658.9 0.0017499 -0.9809 0.1945
83.916 28.977 -658.84 0.033994 -0.98415 0.17403
88.412 28.771 -658.28 -0.17586 -0.83348 0.52382
88.976 28.748 -658.21 -0.19222 -0.82624 0.52951
89.512 28.63 -658.05 -0.15878 -0.82093 0.5485
90.075 28.637 -658.02 -0.05649 -0.81285 0.57973
91.803 28.688 -657.94 -0.16724 -0.67152 0.72187
92.343 28.604 -657.8 -0.21832 -0.68336 0.69667
92.906 28.566 -657.72 -0.24002 -0.66574 0.70652
93.44 28.443 -657.56 -0.36276 -0.6582 0.65968
93.97 28.315 -657.38 -0.5792 -0.6226 0.52621
94.417 27.916 -656.92 -0.52917 -0.60962 0.59021
94.958 27.83 -656.79 -0.24469 -0.59836 0.76295
95.527 27.811 -656.74 -0.23337 -0.55114 0.80111
96.062 27.701 -656.58 0.42559 0.59468 -0.68207
96.559 27.474 -656.3 -0.61914 -0.5687 0.54152
97.052 27.185 -655.96 -0.46455 -0.6253 0.62705
97.597 27.111 -655.85 -0.48362 -0.54844 0.68215
98.123 26.957 -655.65 -0.52963 -0.55456 0.64184
102.14 25 -653.29 -0.62587 -0.43021 0.65054
102.65 24.753 -653 -0.68683 -0.42701 0.58815
103.12 24.39 -652.58 -0.69829 -0.43136 0.57124
107.84 20.54 -648.2 -0.82778 -0.2851 0.48323
108.25 19.917 -647.51 -0.83522 -0.25769 0.4858
108.72 19.514 -647.07 -0.82177 -0.25935 0.50738
109.19 19.095 -646.59 -0.8072 -0.26763 0.52612
109.66 18.65 -646.08 -0.81938 -0.24194 0.5197
110.09 18.062 -645.44 -0.79552 -0.22477 0.56269
110.59 17.766 -645.09 -0.67339 -0.18457 0.71588
111.07 17.351 -644.63 -0.70731 -0.10484 0.69909
111.56 17.012 -644.23 -0.46189 0.17333 0.86984
112.05 16.639 -643.81 -0.4233 0.18078 0.88777
112.55 16.344 -643.46 -0.41725 0.22652 0.88011
113.1 16.22 -643.28 -0.33889 0.27763 0.89893
167.89 2.2671 -624.57 0.31762 0.27187 0.90841
168.5 2.5102 -624.77 0.29495 0.24953 0.92235
169.13 2.821 -625.05 0.16293 0.2363 0.95792
169.75 3.1138 -625.31 -0.086979 0.21567 0.97258
170.32 3.0068 -625.15 -0.18536 0.20935 0.96011
170.88 2.6688 -624.75 -0.21283 0.21548 0.95303
171.46 2.6183 -624.66 -0.19847 0.22937 0.95289
172.05 2.7225 -624.73 -0.25321 0.25542 0.93308
172.62 2.5798 -624.53 -0.29653 0.33416 0.89465
173.17 2.2031 -624.09 -0.44803 0.27982 0.8491
173.7 1.6458 -623.47 -0.5762 0.25025 0.77805
174.22 0.96369 -622.72 -0.5705 0.22728 0.78923
65.952 41.106 -672.08 0.21996 0.22762 0.94858
66.536 41.155 -672.1 0.010993 0.1949 0.98076
67.159 41.328 -672.23 -0.10027 0.23074 0.96784
67.681 41.243 -672.1 -0.17493 0.22773 0.95788
68.205 41.128 -671.94 -0.29027 0.1398 0.94668
68.694 40.953 -671.71 -0.39903 0.096945 0.9118
69.175 40.74 -671.45 -0.46584 0.080694 0.88118
69.655 40.513 -671.19 -0.48479 0.083431 0.87064
70.118 40.271 -670.89 -0.5596 0.036575 0.82795
70.599 40.057 -670.63 -0.628 0.01243 0.77811
71.017 39.667 -670.19 -0.70876 0.029574 0.70483
71.433 39.256 -669.74 -0.78572 0.0074854 0.61854
71.817 38.761 -669.19 -0.84584 -0.0058264 0.5334
72.157 38.169 -668.54 -0.90552 -0.048146 0.42157
72.499 37.531 -667.85 -0.89422 -0.062969 0.44318
72.88 37.024 -667.29 -0.92456 -0.056938 0.37675
73.196 36.333 -666.54 -0.95092 -0.13884 0.27655
73.51 35.622 -665.77 -0.95843 -0.16756 0.23094
73.712 34.612 -664.7 -0.95915 -0.26475 0.099667
74.062 33.975 -664 -0.96761 -0.24236 0.07067
74.251 32.909 -662.87 -0.9779 -0.20509 0.040578
74.605 32.29 -662.2 0.9751 0.21772 -0.042185
74.702 30.923 -660.76 0.96076 0.27598 0.027959
75.063 30.328 -660.11 -0.92331 -0.38402 0.0046227
75.438 29.752 -659.48 -0.67834 -0.73119 0.072255
75.883 29.384 -659.06 -0.47032 -0.84313 0.26064
76.408 29.23 -658.86 -0.2234 -0.90247 0.36829
76.943 29.12 -658.7 -0.19091 -0.90025 0.39129
77.49 29.052 -658.6 -0.14868 -0.94603 0.28794
78.057 29.035 -658.53 -0.11247 -0.97211 0.2058
78.623 29.01 -658.47 -0.05487 -0.99291 0.10545
79.168 28.944 -658.35 0.047811 0.99801 0.041074
79.764 29.006 -658.37 0.012096 -0.99908 0.04124
80.351 29.06 -658.39 0.029219 -0.99887 0.037573
80.917 29.043 -658.32 0.0087101 -0.99086 0.13459
81.451 28.919 -658.16 0.017034 -0.98945 0.14389
82.078 29.118 -658.31 0.037874 -0.98634 0.16032
82.641 29.081 -658.23 0.036897 -0.99225 0.11867
83.211 29.068 -658.18 0.0017499 -0.9809 0.1945
83.794 29.119 -658.18 0.011397 -0.98197 0.18872
84.387 29.16 -658.19 -0.0082728 -0.95492 0.29674
84.971 29.217 -658.2 -0.0076692 -0.9216 0.38806
85.508 29.113 -658.05 -0.013428 -0.90236 0.43078
86.091 29.163 -658.05 -0.07185 -0.89988 0.43018
86.689 29.231 -658.07 -0.089716 -0.89244 0.44216
87.244 29.201 -658 -0.1224 -0.86881 0.47977
87.777 29.085 -657.84 -0.15571 -0.84111 0.51797
88.352 29.098 -657.81 -0.18018 -0.83942 0.51274
88.915 29.061 -657.73 -0.14486 -0.82439 0.54717
89.438 28.932 -657.56 -0.10071 -0.76317 0.6383
90.039 29.011 -657.6 -0.013655 -0.76505 0.64383
90.63 29.1 -657.64 0.019449 -0.74306 0.66894
91.204 29.112 -657.6 -0.074955 -0.72092 0.68895
91.777 29.119 -657.57 -0.14511 -0.6891 0.70999
92.318 29.027 -657.43 -0.20031 -0.69373 0.69182
92.869 28.985 -657.35 -0.28533 -0.68318 0.6722
93.421 28.898 -657.22 -0.30818 -0.68495 0.6602
93.927 28.701 -656.98 -0.53167 -0.65709 0.53438
94.389 28.319 -656.54 0.42194 0.52257 -0.74087
94.95 28.321 -656.5 -0.34289 -0.52528 0.77878
95.518 28.31 -656.44 -0.32968 -0.62093 0.71117
96.039 28.13 -656.22 -0.48637 -0.60556 0.62987
96.508 27.786 -655.82 -0.56819 -0.58655 0.57716
97.037 27.645 -655.64 -0.52175 -0.57862 0.62688
98.083 27.319 -655.21 -0.54351 -0.5859 0.6011
98.543 26.931 -654.77 -0.54713 -0.57672 0.60666
99.071 26.798 -654.58 -0.55524 -0.60416 0.57158
99.627 26.723 -654.47 -0.53826 -0.58463 0.60703
100.12 26.496 -654.19 -0.54547 -0.56939 0.61502
100.6 26.114 -653.76 -0.61069 -0.49949 0.61447
101.11 25.916 -653.52 -0.59543 -0.50904 0.62156
101.63 25.751 -653.3 -0.57245 -0.49216 0.6558
102.14 25.505 -653 -0.62802 -0.49594 0.59969
102.63 25.214 -652.67 -0.68547 -0.45977 0.56457
103.11 24.882 -652.28 -0.72153 -0.40482 0.56171
103.6 24.575 -651.91 -0.73587 -0.39374 0.55087
104.05 24.149 -651.44 -0.76085 -0.37099 0.53243
104.54 23.846 -651.09 -0.78742 -0.41256 0.45801
106.91 21.941 -648.91 -0.82187 -0.31364 0.47556
107.34 21.379 -648.29 -0.80723 -0.32499 0.4927
107.81 20.966 -647.82 -0.83155 -0.35699 0.42554
110.1 18.637 -645.21 -0.69208 -0.24602 0.6786
110.6 18.359 -644.88 0.67577 0.20519 -0.70798
111.11 18.087 -644.56 -0.52566 0.0033447 0.85069
111.62 17.797 -644.21 -0.35904 0.15032 0.92114
112.74 17.654 -643.98 -0.23647 0.26188 0.93568
167.29 2.8781 -624.39 0.35237 0.26122 0.89867
167.95 3.3953 -624.88 0.33632 0.26885 0.90256
168.57 3.7931 -625.26 0.26101 0.26808 0.92737
169.2 4.0414 -625.47 0.1161 0.24681 0.96208
169.77 3.979 -625.36 -0.13466 0.16532 0.977
170.35 3.9026 -625.24 -0.13696 0.1805 0.97399
172.1 3.7504 -624.95 -0.28138 0.22338 0.93324
172.65 3.5758 -624.72 -0.37877 0.24767 0.89173
173.21 3.2437 -624.33 -0.52525 0.21153 0.82424
66.144 42.089 -672.31 0.25916 0.17065 0.95064
66.738 42.189 -672.36 0.054512 0.16661 0.98451
67.305 42.209 -672.34 -0.12888 0.14373 0.98119
70.218 41.041 -670.9 -0.57787 0.042256 0.81504
70.661 40.711 -670.52 -0.61954 0.032328 0.7843
71.09 40.365 -670.12 -0.77207 -0.037303 0.63444
71.512 39.986 -669.69 -0.85505 -0.039472 0.51705
71.858 39.374 -669.02 -0.88643 -0.039456 0.46118
72.224 38.841 -668.45 -0.90836 -0.061102 0.41371
72.543 38.156 -667.7 -0.91826 -0.10579 0.38158
72.929 37.667 -667.16 0.95296 0.10713 -0.28354
73.15 36.699 -666.13 -0.95342 -0.20147 0.2245
73.469 36.014 -665.38 -0.97459 -0.1689 0.1471
73.681 35.003 -664.31 -0.96922 -0.23368 0.077533
73.968 34.226 -663.48 -0.97204 -0.22355 0.071928
74.206 33.289 -662.47 -0.9754 -0.21966 0.018493
74.431 32.29 -661.41 -0.96941 -0.24544 0.0015307
74.713 31.449 -660.51 -0.96346 -0.26702 -0.020927
75.199 31.218 -660.22 -0.94298 -0.33259 -0.013355
75.314 29.888 -658.81 0.71136 0.67723 -0.18797
75.74 29.476 -658.36 -0.42617 -0.83854 0.33945
76.326 29.494 -658.34 -0.31344 -0.85898 0.40485
76.874 29.44 -658.23 -0.19644 -0.91668 0.348
77.401 29.292 -658.04 -0.23801 -0.91806 0.31706
77.94 29.194 -657.9 -0.22404 -0.9455 0.2363
78.473 29.078 -657.73 -0.22845 -0.96378 0.13761
78.987 28.919 -657.53 -0.095791 -0.99538 -0.0068435
79.506 28.742 -657.3 0.11909 0.99022 0.072608
100.58 26.593 -653.45 -0.57754 -0.64572 0.4995
101.1 26.421 -653.22 -0.5735 -0.60953 0.54734
101.6 26.144 -652.89 -0.57245 -0.49216 0.6558
102.11 25.917 -652.61 -0.63449 -0.51567 0.57576
103.09 25.313 -651.91 -0.69984 -0.46465 0.54251
103.58 25.01 -651.56 -0.729 -0.38392 0.56671
104.06 24.697 -651.18 -0.76282 -0.47709 0.43645
104.55 24.37 -650.81 -0.76319 -0.45707 0.45676
104.96 23.778 -650.16 -0.7593 -0.46341 0.45687
105.46 23.501 -649.83 -0.75343 -0.48458 0.44445
105.96 23.199 -649.47 -0.77679 -0.42738 0.46254
106.42 22.779 -649 -0.8188 -0.38393 0.42682
106.87 22.304 -648.47 -0.83198 -0.37335 0.41039
107.31 21.793 -647.89 -0.81547 -0.40642 0.41212
107.8 21.471 -647.52 0.83405 0.36909 -0.41004
108.27 21.082 -647.08 -0.81704 -0.37818 0.43523
108.72 20.55 -646.5 -0.82804 -0.31297 0.46519
109.14 19.946 -645.82 -0.78381 -0.27383 0.55737
109.63 19.625 -645.45 -0.72581 -0.1828 0.66316
110.12 19.273 -645.04 -0.67403 -0.21918 0.70544
110.64 19.037 -644.76 -0.51897 -0.12451 0.84568
111.16 18.808 -644.48 -0.42273 -0.020209 0.90603
111.74 18.797 -644.42 -0.30656 0.069907 0.94928
112.29 18.71 -644.29 -0.21671 0.18339 0.95886
112.85 18.61 -644.14 -0.22008 0.17294 0.96003
113.41 18.567 -644.06 -0.20295 0.26629 0.94228
113.96 18.424 -643.87 -0.19375 0.31313 0.92974
114.51 18.263 -643.66 -0.22887 0.31365 0.92154
116.59 17.279 -642.47 -0.26839 0.35331 0.89618
117.17 17.329 -642.47 -0.26333 0.35658 0.89639
117.72 17.192 -642.29 -0.24931 0.36026 0.89892
167.36 4.054 -624.77 0.33632 0.26885 0.90256
168 4.5215 -625.21 0.28805 0.26781 0.9194
168.62 4.8954 -625.56 0.18419 0.27105 0.94478
170.94 4.637 -625.11 -0.16011 0.19382 0.96788
171.54 4.7532 -625.19 -0.19337 0.25066 0.94857
172.14 4.8209 -625.22 -0.20815 0.23895 0.94846
172.7 4.5512 -624.9 -0.39672 0.22556 0.8898
173.25 4.2756 -624.57 -0.5144 0.21849 0.82925
173.8 3.8631 -624.09 -0.58869 0.19087 0.7855
174.32 3.175 -623.33 -0.60234 0.20596 0.77121
64.83 42.062 -671.58 0.28737 0.21016 0.93448
65.617 42.668 -672.16 0.25692 0.20462 0.94452
66.318 43.042 -672.51 0.054106 0.17907 0.98235
66.88 43.044 -672.46 -0.064059 0.13883 0.98824
67.427 43.02 -672.4 -0.24561 0.11559 0.96245
68.453 42.786 -672.07 -0.40717 0.05816 0.9115
68.934 42.572 -671.81 -0.5166 -0.016693 0.85607
69.373 42.261 -671.45 -0.57911 -0.0049872 0.81523
69.854 42.048 -671.19 -0.62193 -0.069034 0.78002
70.305 41.756 -670.85 -0.64278 -0.069312 0.76291
70.762 41.482 -670.52 -0.72786 -0.050526 0.68386
71.154 41.025 -670.01 -0.82177 -0.074473 0.56493
71.574 40.64 -669.57 -0.88183 -0.073827 0.46575
71.876 39.924 -668.81 -0.90494 -0.056195 0.42182
72.239 39.379 -668.21 -0.93009 -0.10492 0.35202
72.551 38.671 -667.43 -0.93874 -0.13748 0.31601
73.14 37.185 -665.83 -0.97468 -0.17009 0.14513
73.451 36.462 -665.05 -0.9771 -0.18205 0.11018
73.633 35.372 -663.89 -0.97167 -0.23062 0.051608
73.937 34.617 -663.08 0.96611 0.25778 -0.013156
74.107 33.486 -661.87 0.96665 0.25592 0.0093304
74.339 32.518 -660.83 0.95628 0.28931 -0.042763
74.38 30.997 -659.24 0.91304 0.40781 0.0064431
78.381 29.306 -657.16 -0.25527 -0.96676 0.014785
105.48 24.073 -649.61 -0.75794 -0.4941 0.42592
172.17 5.8356 -625.43 -0.15391 0.28852 0.94502
172.73 5.6423 -625.18 -0.3644 0.2649 0.89277
173.3 5.4105 -624.89 -0.40244 0.24311 0.88258
173.83 4.7908 -624.2 -0.58194 0.21395 0.78458
174.36 4.29 -623.64 -0.59582 0.20834 0.77563
65.888 43.86 -672.6 0.033024 0.19018 0.98119
66.483 43.952 -672.66 -0.034682 0.17269 0.98437
67.031 43.942 -672.6 -0.15938 0.10821 0.98127
67.548 43.84 -672.45 -0.27464 0.074143 0.95869
68.039 43.671 -672.23 -0.36822 0.028717 0.92929
68.522 43.464 -671.98 -0.48187 -0.047279 0.87497
69.015 43.3 -671.77 -0.51206 -0.015378 0.85881
69.486 43.043 -671.47 -0.54993 -0.022426 0.83491
70.353 42.385 -670.71 -0.65476 -0.062745 0.75323
70.821 42.116 -670.4 -0.71076 -0.089706 0.6977
71.223 41.703 -669.92 -0.80387 -0.073174 0.59028
71.566 41.123 -669.29 -0.8754 -0.092127 0.47455
71.937 40.572 -668.68 -0.93015 -0.081643 0.358
72.247 39.894 -667.95 -0.94278 -0.12137 0.31053
72.546 39.166 -667.16 -0.95506 -0.13334 0.26471
72.86 38.463 -666.39 -0.96816 -0.15235 0.19864
73.117 37.606 -665.47 -0.9773 -0.16534 0.1325
73.4 36.811 -664.61 -0.98258 -0.15466 0.10305
73.597 35.782 -663.52 -0.9792 -0.19073 0.069169
73.88 34.956 -662.62 -0.96844 -0.24923 0.0016721
74 33.689 -661.28 0.96665 0.25592 0.0093304
74.393 33.186 -660.72 -0.93647 -0.34939 0.030867
79.192 28.817 -655.76 -0.11964 -0.99282 -0.0011935
79.753 28.774 -655.68 0.086153 0.99619 0.013613
80.28 28.626 -655.49 0.023663 -0.99706 0.072904
80.865 28.683 -655.5 -0.039605 -0.89792 0.43837
81.432 28.658 -655.43 0.0032944 -0.89122 0.45356
82.029 28.725 -655.46 0.094478 -0.9337 0.34537
82.627 28.793 -655.48 -0.22948 0.95202 -0.2025
83.253 28.978 -655.63 0.32061 -0.93308 0.16301
83.962 29.39 -656 0.33707 -0.92129 0.1939
84.597 29.574 -656.15 0.27999 -0.94494 0.16938
85.18 29.617 -656.15 0.22756 -0.9514 0.20751
85.785 29.716 -656.2 0.16669 -0.94912 0.26719
86.392 29.82 -656.28 0.14143 -0.93636 0.3213
88.169 30.036 -656.37 0.068112 -0.8806 0.46893
88.708 29.938 -656.22 0.10173 -0.85935 0.50116
89.309 30.018 -656.26 0.05663 -0.82242 0.56605
89.898 30.092 -656.3 0.020737 -0.82933 0.55838
90.476 30.117 -656.28 -0.039459 -0.85214 0.52182
91.029 30.089 -656.2 -0.075733 -0.85102 0.51965
95.369 29.353 -655.1 -0.41412 -0.73012 0.54354
99.001 28.094 -653.5 -0.44566 -0.70352 0.55358
99.468 27.73 -653.09 -0.48958 -0.67866 0.54748
99.993 27.577 -652.89 -0.48476 -0.67691 0.5539
104.44 25.009 -649.85 -0.76584 -0.4567 0.45268
107.72 22.253 -646.7 -0.75442 -0.44775 0.47998
108.18 21.772 -646.15 -0.69852 -0.38976 0.60013
108.68 21.469 -645.81 -0.63517 -0.36736 0.67942
109.18 21.179 -645.46 -0.52739 -0.19934 0.82591
109.72 21.018 -645.25 -0.38502 -0.11284 0.91598
110.26 20.884 -645.06 -0.248 -0.056297 0.96712
110.82 20.82 -644.96 -0.13941 0.071975 0.98762
111.38 20.765 -644.86 -0.050853 0.074401 0.99593
111.97 20.809 -644.85 -0.057347 0.13801 0.98877
112.56 20.807 -644.82 -0.080953 0.17311 0.98157
113.1 20.702 -644.66 -0.10328 0.17898 0.97842
113.69 20.734 -644.64 -0.13824 0.19128 0.97175
114.26 20.727 -644.6 -0.17214 0.21249 0.96188
114.81 20.604 -644.42 -0.22007 0.2478 0.94349
115.34 20.417 -644.2 -0.2445 0.29859 0.92253
115.87 20.183 -643.91 -0.23567 0.3164 0.91888
116.39 19.972 -643.65 -0.23753 0.33179 0.91296
116.98 19.984 -643.62 -0.23756 0.32915 0.91391
117.52 19.886 -643.47 -0.21418 0.32731 0.92032
167.48 6.3827 -625.5 0.30829 0.27604 0.91036
168.12 6.8422 -625.94 0.19656 0.26981 0.94264
168.75 7.2281 -626.31 0.031117 0.40315 0.9146
169.35 7.3522 -626.39 -0.078262 0.30063 0.95053
169.92 7.2779 -626.26 -0.22413 0.21193 0.95124
170.47 6.9823 -625.92 -0.17999 0.18259 0.96657
171.04 6.8515 -625.73 -0.13322 0.21409 0.96769
171.64 6.9884 -625.83 -0.10576 0.20916 0.97214
172.23 7.0123 -625.81 -0.19498 0.22273 0.95518
65.411 44.561 -672.58 0.088884 0.18637 0.97845
68.616 44.202 -671.96 -0.48803 0.012594 0.87274
69.074 43.934 -671.64 -0.53045 -0.04299 0.84662
69.537 43.692 -671.35 -0.63627 -0.099945 0.76496
69.99 43.398 -671.02 -0.66997 -0.089386 0.73699
70.391 42.978 -670.53 -0.72039 -0.11682 0.68366
71.235 42.229 -669.68 -0.83608 -0.1636 0.52365
71.596 41.678 -669.07 -0.89538 -0.12786 0.42655
71.963 41.16 -668.5 -0.9426 -0.10295 0.31765
72.236 40.365 -667.64 -0.96416 -0.13252 0.22984
72.554 39.68 -666.9 -0.95627 -0.24046 0.16653
72.866 38.971 -666.12 0.96823 0.2154 -0.12702
73.121 38.095 -665.19 -0.97406 -0.20229 0.1014
73.344 37.141 -664.16 0.96085 0.27505 0.033332
73.5 35.984 -662.93 0.96421 0.26183 0.041753
73.714 34.993 -661.86 -0.96787 -0.24893 -0.035451
71.543 23.855 -650.29 0.20347 0.44173 0.87377
72.2 24.088 -650.48 0.077801 0.50975 0.8568
81.37 28.978 -654.95 0.0032944 -0.89122 0.45356
81.975 29.07 -655 0.11394 -0.90588 0.40793
82.508 28.954 -654.83 0.16517 -0.90246 0.39784
83.132 29.089 -654.93 0.29907 -0.93168 0.20622
83.787 29.353 -655.16 0.36854 -0.91152 0.18251
92.088 30.304 -655.53 -0.16161 -0.84213 0.5145
92.635 30.235 -655.42 -0.16977 -0.85323 0.49313
93.183 30.181 -655.32 -0.20323 -0.8819 0.42538
93.719 30.071 -655.16 -0.30581 -0.85452 0.41986
94.288 30.066 -655.11 -0.35052 -0.85525 0.38168
94.816 29.918 -654.92 -0.36343 -0.84291 0.39677
95.283 29.568 -654.51 -0.41058 -0.78203 0.46889
95.821 29.457 -654.37 -0.45056 -0.75526 0.476
96.381 29.408 -654.27 -0.45727 -0.75162 0.47537
100.49 27.823 -652.29 -0.49726 -0.66077 0.56224
101 27.633 -652.04 -0.60921 -0.61583 0.49961
101.49 27.33 -651.7 -0.62816 -0.65066 0.42667
101.98 27.005 -651.3 -0.67202 -0.60212 0.43111
106.32 24.004 -647.83 -0.80895 -0.42557 0.40558
106.82 23.697 -647.46 -0.82111 -0.41328 0.39367
107.25 23.153 -646.86 -0.81958 -0.36625 0.44063
107.69 22.655 -646.29 -0.79814 -0.40334 0.44754
108.21 22.413 -646.01 -0.59646 -0.14021 0.7903
108.71 22.117 -645.65 -0.56284 -0.10661 0.81966
109.24 21.969 -645.46 -0.47933 -0.10696 0.87109
109.79 21.839 -645.27 -0.38405 -0.078262 0.91999
