-0.086996 -0.10126 0.421 0.43324 0.044814 -0.90016
-0.086996 -0.10048 0.421 0.42393 0.13165 -0.89607
-0.087203 -0.099937 0.422 0.20932 0.44348 -0.8715
-0.088882 -0.12446 0.434 0.46326 -0.62319 -0.6301
-0.088677 -0.12337 0.433 0.40772 -0.59138 -0.69572
-0.088677 -0.12257 0.433 0.53418 -0.53173 -0.6572
-0.088472 -0.12149 0.432 0.51825 -0.50055 -0.69344
-0.088268 -0.12041 0.431 0.50535 -0.45202 -0.73505
-0.088063 -0.11933 0.43 0.5033 -0.38664 -0.77279
-0.088063 -0.11854 0.43 0.55335 -0.38039 -0.74102
-0.087858 -0.11747 0.429 0.53669 -0.3213 -0.78021
-0.087653 -0.1164 0.428 0.51095 -0.24643 -0.82353
-0.087653 -0.11561 0.428 0.52921 -0.24534 -0.81225
-0.087448 -0.11455 0.427 0.50909 -0.16108 -0.84551
-0.087448 -0.11376 0.427 0.52751 -0.15297 -0.83567
-0.087244 -0.11271 0.426 0.4985 -0.090435 -0.86216
-0.087244 -0.11192 0.426 0.51095 -0.084925 -0.8554
-0.087244 -0.11113 0.426 0.52092 -0.061503 -0.85139
-0.087039 -0.11008 0.425 0.51934 -0.020454 -0.85432
-0.087039 -0.1093 0.425 0.51328 0.016207 -0.85807
-0.087039 -0.10851 0.425 0.48778 0.073966 -0.86983
-0.086834 -0.10747 0.424 0.48571 0.10618 -0.86765
-0.086629 -0.10643 0.423 0.46906 0.12021 -0.87495
-0.086424 -0.1054 0.422 0.47423 0.093584 -0.87541
-0.086629 -0.10487 0.423 0.40867 0.19185 -0.89229
-0.086629 -0.10409 0.423 0.34265 0.25335 -0.90466
-0.086424 -0.10306 0.422 0.3672 0.1948 -0.90951
-0.086424 -0.10228 0.422 0.32475 0.27124 -0.90607
-0.08622 -0.10126 0.421 0.39344 0.14959 -0.9071
-0.08622 -0.10048 0.421 0.37063 0.2185 -0.90271
-0.088284 -0.12555 0.435 0.35977 -0.6715 -0.6478
-0.088284 -0.12475 0.435 0.49522 -0.62796 -0.60036
-0.088081 -0.12366 0.434 0.4745 -0.62351 -0.62135
-0.087878 -0.12257 0.433 0.44007 -0.58771 -0.67892
-0.087675 -0.12149 0.432 0.44994 -0.5304 -0.71849
-0.087675 -0.12069 0.432 0.54096 -0.51485 -0.66505
-0.087472 -0.11961 0.431 0.53533 -0.46064 -0.70798
-0.087269 -0.11854 0.43 0.5315 -0.39922 -0.74708
-0.087269 -0.11774 0.43 0.56709 -0.40728 -0.71591
-0.087066 -0.11668 0.429 0.55263 -0.34162 -0.76019
-0.086863 -0.11561 0.428 0.53202 -0.25552 -0.80726
-0.086863 -0.11482 0.428 0.56656 -0.24202 -0.78768
-0.086661 -0.11376 0.427 0.54508 -0.15522 -0.82389
-0.086661 -0.11297 0.427 0.56056 -0.14631 -0.81509
-0.086458 -0.11192 0.426 0.53739 -0.081631 -0.83937
-0.086255 -0.11087 0.425 0.51438 -0.016164 -0.85741
-0.086255 -0.11008 0.425 0.53463 -0.0086857 -0.84504
-0.086255 -0.1093 0.425 0.53683 0.0231 -0.84337
-0.086052 -0.10826 0.424 0.52177 0.071646 -0.85007
-0.086052 -0.10747 0.424 0.50881 0.12034 -0.85243
-0.085849 -0.10643 0.423 0.47996 0.15831 -0.86289
-0.085849 -0.10565 0.423 0.45491 0.17885 -0.87239
-0.085849 -0.10487 0.423 0.42068 0.20224 -0.88438
-0.085646 -0.10384 0.422 0.40999 0.19401 -0.89122
-0.085646 -0.10306 0.422 0.35891 0.23691 -0.9028
-0.085646 -0.10228 0.422 0.30909 0.29524 -0.90404
-0.085443 -0.10126 0.421 0.35143 0.23439 -0.9064
-0.085443 -0.10048 0.421 0.31471 0.29092 -0.90351
-0.08524 -0.099463 0.42 0.42179 0.13814 -0.89611
-0.08524 -0.098686 0.42 0.37044 0.15643 -0.91559
-0.085037 -0.097676 0.419 0.47059 -0.065873 -0.87989
-0.08524 -0.097132 0.42 0.25746 0.22877 -0.93882
-0.087683 -0.12584 0.436 0.38911 -0.66968 -0.63255
-0.087683 -0.12503 0.436 0.51135 -0.63993 -0.5736
-0.087482 -0.12394 0.435 0.50073 -0.62894 -0.59473
-0.08728 -0.12285 0.434 0.49743 -0.61331 -0.61353
-0.08728 -0.12205 0.434 0.55949 -0.60511 -0.5664
-0.087079 -0.12097 0.433 0.55662 -0.57378 -0.60078
-0.086878 -0.11989 0.432 0.56068 -0.53864 -0.62889
-0.086677 -0.11881 0.431 0.55592 -0.4825 -0.67687
-0.086476 -0.11774 0.43 0.55582 -0.41899 -0.71799
-0.086275 -0.11668 0.429 0.54237 -0.35348 -0.76216
-0.086275 -0.11588 0.429 0.57826 -0.36095 -0.73166
-0.086074 -0.11482 0.428 0.57425 -0.26958 -0.77302
-0.085873 -0.11376 0.427 0.55652 -0.1532 -0.81659
-0.085873 -0.11297 0.427 0.5792 -0.16286 -0.79875
-0.085672 -0.11192 0.426 0.54601 -0.058045 -0.83577
-0.08547 -0.11087 0.425 0.5131 0.035356 -0.8576
-0.08547 -0.11008 0.425 0.54443 0.021822 -0.83853
-0.08547 -0.1093 0.425 0.55324 0.042029 -0.83196
-0.085269 -0.10826 0.424 0.53547 0.10019 -0.83859
-0.085269 -0.10747 0.424 0.52376 0.1431 -0.83976
-0.085068 -0.10643 0.423 0.48655 0.19328 -0.852
-0.085068 -0.10565 0.423 0.46707 0.20539 -0.86004
-0.084867 -0.10462 0.422 0.45725 0.21197 -0.86371
-0.084867 -0.10384 0.422 0.41736 0.23882 -0.8768
-0.084867 -0.10306 0.422 0.36415 0.27572 -0.88959
-0.084867 -0.10228 0.422 0.31087 0.32013 -0.89492
-0.084666 -0.10126 0.421 0.32574 0.28655 -0.90099
-0.084666 -0.10048 0.421 0.29017 0.33301 -0.89717
-0.084666 -0.0997 0.421 0.22316 0.37766 -0.89865
-0.084465 -0.098686 0.42 0.31763 0.23168 -0.91948
-0.084264 -0.097676 0.419 0.42709 0.01289 -0.90412
-0.084465 -0.097132 0.42 0.20156 0.27495 -0.94009
-0.087277 -0.12642 0.438 0.50853 -0.6984 -0.50363
-0.087077 -0.12532 0.437 0.50688 -0.66051 -0.5539
-0.086878 -0.12423 0.436 0.50581 -0.64276 -0.57534
-0.086878 -0.12342 0.436 0.5579 -0.65648 -0.50772
-0.086679 -0.12233 0.435 0.54897 -0.64506 -0.53153
-0.08648 -0.12125 0.434 0.55461 -0.62342 -0.55115
-0.08628 -0.12017 0.433 0.57411 -0.59181 -0.56582
-0.086081 -0.11909 0.432 0.58045 -0.55003 -0.60045
-0.085882 -0.11802 0.431 0.58516 -0.48906 -0.64685
-0.085683 -0.11695 0.43 0.58628 -0.41317 -0.69682
-0.085483 -0.11588 0.429 0.58445 -0.33932 -0.73707
-0.085284 -0.11482 0.428 0.58668 -0.2366 -0.77448
-0.085085 -0.11376 0.427 0.56588 -0.10587 -0.81766
-0.085085 -0.11297 0.427 0.59349 -0.14789 -0.79114
-0.084886 -0.11192 0.426 0.55866 -0.021139 -0.82913
-0.084886 -0.11113 0.426 0.58897 -0.045318 -0.80688
-0.084686 -0.11008 0.425 0.55867 0.042136 -0.82832
-0.084686 -0.1093 0.425 0.57523 0.04404 -0.8168
-0.084487 -0.10826 0.424 0.54642 0.11246 -0.82993
-0.084487 -0.10747 0.424 0.54178 0.13897 -0.82895
-0.084288 -0.10643 0.423 0.49845 0.19639 -0.84438
-0.084288 -0.10565 0.423 0.48452 0.20525 -0.85036
-0.084089 -0.10462 0.422 0.46793 0.2261 -0.85435
-0.084089 -0.10384 0.422 0.4372 0.24851 -0.86435
-0.083889 -0.10282 0.421 0.41389 0.25165 -0.87485
-0.083889 -0.10204 0.421 0.3795 0.27187 -0.88434
-0.083889 -0.10126 0.421 0.32885 0.30779 -0.89282
-0.083889 -0.10048 0.421 0.28472 0.35275 -0.89135
-0.083889 -0.0997 0.421 0.20974 0.39786 -0.89315
-0.08369 -0.098686 0.42 0.2638 0.30157 -0.91622
-0.08369 -0.097909 0.42 0.21909 0.32444 -0.92019
-0.083491 -0.096901 0.419 0.29525 0.12957 -0.94659
-0.083292 -0.095896 0.418 0.35792 -0.12527 -0.92531
-0.086469 -0.12642 0.438 0.40026 -0.68454 -0.60926
-0.086469 -0.12561 0.438 0.48783 -0.69287 -0.53098
-0.086271 -0.12451 0.437 0.49841 -0.65586 -0.56695
-0.086271 -0.1237 0.437 0.53655 -0.6942 -0.4798
-0.086074 -0.12261 0.436 0.53319 -0.68029 -0.5029
-0.085876 -0.12153 0.435 0.54209 -0.66331 -0.5159
-0.085679 -0.12044 0.434 0.56847 -0.63683 -0.52084
-0.085482 -0.11937 0.433 0.58737 -0.60694 -0.53537
-0.085284 -0.11829 0.432 0.60464 -0.56648 -0.55992
-0.085087 -0.11722 0.431 0.61247 -0.51092 -0.60319
-0.084889 -0.11615 0.43 0.60853 -0.42715 -0.66876
-0.084692 -0.11509 0.429 0.61834 -0.35668 -0.70031
-0.084494 -0.11403 0.428 0.62024 -0.25312 -0.74245
-0.084297 -0.11297 0.427 0.60571 -0.12667 -0.78554
-0.084297 -0.11218 0.427 0.6248 -0.18328 -0.75897
-0.0841 -0.11113 0.426 0.60787 -0.05286 -0.79228
-0.083902 -0.11008 0.425 0.57268 0.046185 -0.81848
-0.083705 -0.10904 0.424 0.53784 0.13591 -0.83202
-0.083705 -0.10826 0.424 0.56224 0.1064 -0.8201
-0.083507 -0.10722 0.423 0.52839 0.17424 -0.83093
-0.083507 -0.10643 0.423 0.51781 0.17624 -0.83715
-0.08331 -0.1054 0.422 0.48722 0.20974 -0.84772
-0.08331 -0.10462 0.422 0.48143 0.21262 -0.8503
-0.083113 -0.10359 0.421 0.45668 0.23414 -0.85827
-0.083113 -0.10282 0.421 0.42853 0.2438 -0.87001
-0.083113 -0.10204 0.421 0.38884 0.26596 -0.88208
-0.083113 -0.10126 0.421 0.34357 0.29525 -0.89151
-0.082915 -0.10024 0.42 0.34833 0.27683 -0.89556
-0.082915 -0.099463 0.42 0.30347 0.29671 -0.90547
-0.082915 -0.098686 0.42 0.23817 0.33109 -0.91305
-0.082915 -0.097909 0.42 0.1922 0.36387 -0.91141
-0.082915 -0.097132 0.42 0.11527 0.40288 -0.90797
-0.082718 -0.096126 0.419 0.18679 0.24859 -0.95043
-0.082718 -0.095351 0.419 0.13297 0.26894 -0.95393
-0.08252 -0.09435 0.418 0.18831 -0.035155 -0.98148
-0.08252 -0.093576 0.418 0.16329 -0.03177 -0.98607
-0.08252 -0.092803 0.418 0.15283 -0.012168 -0.98818
-0.085661 -0.12399 0.438 0.51506 -0.71963 -0.46567
-0.085465 -0.12289 0.437 0.51908 -0.70005 -0.49039
-0.085269 -0.12181 0.436 0.53186 -0.68137 -0.50285
-0.085074 -0.12072 0.435 0.56316 -0.6582 -0.49962
-0.084878 -0.11964 0.434 0.5819 -0.63408 -0.50926
-0.084683 -0.11856 0.433 0.60233 -0.60986 -0.51504
-0.084487 -0.11749 0.432 0.6174 -0.57797 -0.53363
-0.084292 -0.11642 0.431 0.62374 -0.53171 -0.57292
-0.084096 -0.11536 0.43 0.62242 -0.47083 -0.62523
-0.0839 -0.11429 0.429 0.62345 -0.38752 -0.67907
-0.083705 -0.11324 0.428 0.64428 -0.29186 -0.70691
-0.083509 -0.11218 0.427 0.64212 -0.17878 -0.74547
-0.083314 -0.11113 0.426 0.62487 -0.061707 -0.77829
-0.083118 -0.11008 0.425 0.58461 0.031375 -0.81071
-0.082923 -0.10904 0.424 0.5453 0.1246 -0.82893
-0.082923 -0.10826 0.424 0.58232 0.072006 -0.80977
-0.082727 -0.10722 0.423 0.54075 0.14559 -0.82849
-0.082727 -0.10643 0.423 0.53802 0.13479 -0.83208
-0.082531 -0.1054 0.422 0.49959 0.18269 -0.84678
-0.082336 -0.10437 0.421 0.47575 0.20741 -0.85477
-0.082336 -0.10359 0.421 0.47644 0.20324 -0.85539
-0.08214 -0.10257 0.42 0.46511 0.20839 -0.86037
-0.08214 -0.10179 0.42 0.42779 0.22989 -0.87416
-0.08214 -0.10102 0.42 0.38945 0.2582 -0.88412
-0.08214 -0.10024 0.42 0.3541 0.28486 -0.89077
-0.08214 -0.099463 0.42 0.30936 0.30793 -0.89971
-0.08214 -0.098686 0.42 0.24398 0.34816 -0.90513
-0.081945 -0.097676 0.419 0.2812 0.28033 -0.91779
-0.081945 -0.096901 0.419 0.20937 0.30346 -0.92956
-0.081945 -0.096126 0.419 0.14594 0.32815 -0.93329
-0.081945 -0.095351 0.419 0.085597 0.35683 -0.93024
-0.081945 -0.094575 0.419 0.03641 0.36496 -0.93031
-0.081749 -0.093576 0.418 0.12429 0.12859 -0.98388
-0.081749 -0.092803 0.418 0.12552 0.13647 -0.98266
-0.081749 -0.09203 0.418 0.10009 0.12602 -0.98697
-0.081749 -0.091256 0.418 0.12161 0.14771 -0.98153
-0.081749 -0.090483 0.418 0.11537 0.15339 -0.98141
-0.084659 -0.12209 0.437 0.52283 -0.68705 -0.50459
-0.084465 -0.121 0.436 0.55847 -0.66189 -0.50002
-0.084271 -0.11992 0.435 0.57863 -0.64672 -0.49693
-0.084077 -0.11884 0.434 0.60011 -0.62596 -0.49804
-0.083884 -0.11776 0.433 0.61202 -0.60766 -0.50613
-0.08369 -0.11669 0.432 0.6245 -0.58452 -0.51801
-0.083496 -0.11562 0.431 0.62325 -0.55242 -0.55353
-0.083303 -0.11456 0.43 0.62589 -0.51954 -0.58167
-0.082915 -0.11324 0.428 0.67286 -0.24018 -0.69969
-0.082721 -0.11218 0.427 0.66151 -0.15249 -0.73427
-0.082528 -0.11113 0.426 0.63621 -0.058494 -0.7693
-0.082334 -0.11008 0.425 0.59069 0.036957 -0.80606
-0.08214 -0.10904 0.424 0.54993 0.12533 -0.82575
-0.08214 -0.10826 0.424 0.5987 0.040014 -0.79997
-0.081946 -0.10722 0.423 0.55249 0.11616 -0.82539
-0.081946 -0.10643 0.423 0.55877 0.08543 -0.82491
-0.081753 -0.1054 0.422 0.5132 0.15276 -0.84457
-0.081559 -0.10437 0.421 0.48407 0.19379 -0.8533
-0.081365 -0.10335 0.42 0.47251 0.21213 -0.85542
-0.081365 -0.10257 0.42 0.47422 0.21318 -0.85421
-0.081365 -0.10179 0.42 0.44915 0.22505 -0.86465
-0.081365 -0.10102 0.42 0.40677 0.25737 -0.87653
-0.081365 -0.10024 0.42 0.36924 0.27381 -0.88808
-0.081172 -0.099227 0.419 0.35043 0.27831 -0.89428
-0.081172 -0.098451 0.419 0.2976 0.31164 -0.9024
-0.081172 -0.097676 0.419 0.26902 0.32419 -0.90694
-0.081172 -0.096901 0.419 0.19539 0.3556 -0.91399
-0.081172 -0.096126 0.419 0.12575 0.38727 -0.91335
-0.081172 -0.095351 0.419 0.066457 0.41705 -0.90645
-0.081172 -0.094575 0.419 0.014892 0.44002 -0.89786
-0.081172 -0.0938 0.419 -0.025623 0.46301 -0.88598
-0.081172 -0.093025 0.419 -0.045062 0.49188 -0.8695
-0.081172 -0.09225 0.419 -0.071367 0.50224 -0.86178
-0.080978 -0.091256 0.418 0.089861 0.3206 -0.94294
-0.081172 -0.090699 0.419 -0.13008 0.49271 -0.86041
-0.083661 -0.11939 0.436 0.55249 -0.71303 -0.43167
-0.083469 -0.11831 0.435 0.55513 -0.7092 -0.43459
-0.083085 -0.11696 0.433 0.61957 -0.60908 -0.49513
-0.082893 -0.11589 0.432 0.62613 -0.60502 -0.49185
-0.082701 -0.11483 0.431 0.6203 -0.58674 -0.52055
-0.08155 -0.1093 0.425 0.6546 -0.0706 -0.75267
-0.081358 -0.10826 0.424 0.61374 0.011361 -0.78943
-0.081166 -0.10722 0.423 0.57037 0.090852 -0.81635
-0.080974 -0.10618 0.422 0.50674 0.17025 -0.84512
-0.080782 -0.10515 0.421 0.4576 0.2259 -0.85998
-0.080782 -0.10437 0.421 0.49082 0.17519 -0.85347
-0.080782 -0.10359 0.421 0.50076 0.16 -0.85067
-0.08059 -0.10257 0.42 0.48092 0.20465 -0.85255
-0.08059 -0.10179 0.42 0.45925 0.20866 -0.86345
-0.08059 -0.10102 0.42 0.42402 0.22842 -0.87637
-0.080399 -0.1 0.419 0.37646 0.27193 -0.88562
-0.080399 -0.099227 0.419 0.34196 0.29541 -0.89208
-0.080399 -0.098451 0.419 0.2967 0.32446 -0.89816
-0.080399 -0.097676 0.419 0.27587 0.33914 -0.89938
-0.080207 -0.09667 0.418 0.25206 0.32656 -0.91095
-0.080207 -0.095896 0.418 0.18957 0.35087 -0.91703
-0.080399 -0.095351 0.419 0.08241 0.44331 -0.89257
-0.080399 -0.094575 0.419 0.026087 0.46996 -0.8823
-0.080399 -0.0938 0.419 -0.023472 0.49876 -0.86642
-0.080399 -0.093025 0.419 -0.06512 0.52964 -0.84572
-0.080399 -0.09225 0.419 -0.11027 0.55027 -0.82767
-0.080207 -0.091256 0.418 0.021568 0.42307 -0.90584
-0.080207 -0.090483 0.418 0.0025115 0.42254 -0.90634
-0.080576 -0.10826 0.424 0.6282 -0.003994 -0.77804
-0.080386 -0.10722 0.423 0.59172 0.075082 -0.80264
-0.080196 -0.10618 0.422 0.52928 0.16458 -0.83233
-0.080196 -0.1054 0.422 0.54708 0.069703 -0.83418
-0.080006 -0.10437 0.421 0.49727 0.15677 -0.85331
-0.080006 -0.10359 0.421 0.51853 0.1176 -0.84693
-0.079815 -0.10257 0.42 0.48691 0.19418 -0.85159
-0.079815 -0.10179 0.42 0.46584 0.18496 -0.86533
-0.079625 -0.10078 0.419 0.42258 0.26066 -0.86803
-0.079625 -0.1 0.419 0.38128 0.26662 -0.88518
-0.079435 -0.09899 0.418 0.32213 0.33798 -0.88431
-0.079435 -0.098216 0.418 0.29095 0.34229 -0.89341
-0.079435 -0.097443 0.418 0.29119 0.3356 -0.89587
-0.079435 -0.09667 0.418 0.25232 0.34434 -0.9043
-0.079435 -0.095896 0.418 0.17973 0.37736 -0.90846
-0.079435 -0.095123 0.418 0.12151 0.40848 -0.90464
-0.079435 -0.09435 0.418 0.076928 0.42514 -0.90185
-0.079435 -0.093576 0.418 0.048819 0.43652 -0.89837
-0.079435 -0.092803 0.418 0.022419 0.45161 -0.89193
-0.079435 -0.09203 0.418 -0.0067467 0.46976 -0.88277
-0.079435 -0.091256 0.418 -0.033624 0.49164 -0.87015
-0.079625 -0.090699 0.419 -0.26942 0.57036 -0.77595
-0.079435 -0.08971 0.418 -0.081808 0.49241 -0.86651
-0.079793 -0.10747 0.424 0.66931 -0.15838 -0.72591
-0.079417 -0.10618 0.422 0.54299 0.13997 -0.82799
-0.079417 -0.1054 0.422 0.56148 0.020423 -0.82724
-0.079229 -0.10437 0.421 0.5121 0.13162 -0.84878
-0.079229 -0.10359 0.421 0.54116 0.057899 -0.83893
-0.079041 -0.10257 0.42 0.50195 0.17233 -0.84755
-0.079041 -0.10179 0.42 0.48421 0.13285 -0.86481
-0.078852 -0.10078 0.419 0.43153 0.25753 -0.86456
-0.078852 -0.1 0.419 0.38801 0.25126 -0.88674
-0.078664 -0.09899 0.418 0.30434 0.37135 -0.8772
-0.078664 -0.098216 0.418 0.27552 0.3652 -0.88922
-0.078664 -0.097443 0.418 0.28 0.3557 -0.89167
-0.078664 -0.09667 0.418 0.24792 0.36009 -0.89937
-0.078664 -0.095896 0.418 0.18499 0.38665 -0.90348
-0.078476 -0.094895 0.417 0.10357 0.44247 -0.89078
-0.078476 -0.094124 0.417 0.077337 0.44638 -0.8915
-0.078476 -0.093352 0.417 0.083834 0.43324 -0.89737
-0.078664 -0.092803 0.418 0.023709 0.47247 -0.88103
-0.078664 -0.09203 0.418 -0.027976 0.49091 -0.87076
-0.078664 -0.091256 0.418 -0.099482 0.50638 -0.85655
-0.078664 -0.090483 0.418 -0.16269 0.51086 -0.84413
-0.078664 -0.08971 0.418 -0.19651 0.51497 -0.83438
-0.079011 -0.10747 0.424 0.66921 -0.17659 -0.72178
-0.078825 -0.10643 0.423 0.62498 -0.10943 -0.77293
-0.078825 -0.10565 0.423 0.62253 -0.22884 -0.74839
-0.078452 -0.10437 0.421 0.53032 0.11512 -0.83995
-0.078452 -0.10359 0.421 0.5597 0.0081263 -0.82866
-0.078266 -0.10257 0.42 0.52227 0.14516 -0.84034
-0.078266 -0.10179 0.42 0.50627 0.063659 -0.86002
-0.078079 -0.10078 0.419 0.45727 0.21958 -0.86179
-0.078079 -0.1 0.419 0.41593 0.18347 -0.8907
-0.077893 -0.09899 0.418 0.32171 0.35341 -0.87841
-0.077707 -0.09721 0.417 0.21654 0.44546 -0.86872
-0.077707 -0.096438 0.417 0.1935 0.43375 -0.88001
-0.077707 -0.095667 0.417 0.13308 0.44945 -0.88334
-0.077707 -0.094895 0.417 0.098027 0.45812 -0.88347
-0.077707 -0.094124 0.417 0.081025 0.46571 -0.88122
-0.077707 -0.093352 0.417 0.081194 0.46588 -0.88111
-0.077707 -0.092581 0.417 0.083892 0.47035 -0.87848
-0.077707 -0.091809 0.417 0.074455 0.47755 -0.87544
-0.077707 -0.091038 0.417 0.052525 0.48819 -0.87115
-0.077707 -0.090266 0.417 0.015619 0.50071 -0.86547
-0.077707 -0.089495 0.417 -0.022261 0.51223 -0.85856
-0.077707 -0.088723 0.417 -0.031536 0.51915 -0.8541
-0.078229 -0.10669 0.424 0.6418 -0.30933 -0.70172
-0.07786 -0.1054 0.422 0.57846 -0.012992 -0.81561
-0.077675 -0.10437 0.421 0.53977 0.11819 -0.83347
-0.07786 -0.10384 0.422 0.58848 -0.26179 -0.76495
-0.077491 -0.10179 0.42 0.52778 0.011068 -0.84931
-0.077306 -0.10078 0.419 0.48444 0.18605 -0.85481
-0.077122 -0.099763 0.418 0.38774 0.3661 -0.84595
-0.077122 -0.09899 0.418 0.357 0.32047 -0.87741
-0.076937 -0.097981 0.417 0.22155 0.47541 -0.85141
-0.076937 -0.09721 0.417 0.22725 0.44426 -0.86659
-0.076937 -0.096438 0.417 0.19779 0.43058 -0.88061
-0.076937 -0.095667 0.417 0.1398 0.44804 -0.88301
-0.076937 -0.094895 0.417 0.11027 0.45716 -0.88252
-0.076753 -0.093898 0.416 0.0075851 0.53589 -0.84425
-0.076753 -0.093129 0.416 0.04452 0.52182 -0.85189
-0.076753 -0.092359 0.416 0.080565 0.5038 -0.86005
-0.076753 -0.091589 0.416 0.11453 0.49259 -0.86269
-0.076753 -0.09082 0.416 0.15347 0.49037 -0.8579
-0.076753 -0.09005 0.416 0.16932 0.49738 -0.85085
-0.076753 -0.08928 0.416 0.16418 0.51315 -0.84245
-0.076753 -0.088511 0.416 0.15886 0.52449 -0.83647
-0.076937 -0.087952 0.417 -0.14994 0.56916 -0.80844
-0.077264 -0.10565 0.423 0.61182 -0.23458 -0.75542
-0.077081 -0.10462 0.422 0.59907 -0.13685 -0.78892
-0.076716 -0.10102 0.42 0.52802 -0.13576 -0.83831
-0.076533 -0.1 0.419 0.48574 0.053353 -0.87247
-0.076351 -0.09899 0.418 0.4068 0.26308 -0.87482
-0.076168 -0.09721 0.417 0.27559 0.39751 -0.87524
-0.076168 -0.096438 0.417 0.24432 0.36886 -0.8968
-0.076168 -0.095667 0.417 0.19866 0.37962 -0.90356
-0.075985 -0.094668 0.416 0.04105 0.51702 -0.85499
-0.075985 -0.093898 0.416 0.040509 0.51844 -0.85416
-0.075985 -0.093129 0.416 0.062914 0.51529 -0.8547
-0.075985 -0.092359 0.416 0.082584 0.50939 -0.85657
-0.075985 -0.091589 0.416 0.092704 0.51126 -0.85441
-0.075985 -0.09082 0.416 0.095779 0.51646 -0.85094
-0.075985 -0.09005 0.416 0.08055 0.52704 -0.84601
-0.075985 -0.08928 0.416 0.053151 0.54274 -0.83822
-0.075985 -0.088511 0.416 0.039105 0.55264 -0.8325
-0.075985 -0.087741 0.416 -0.0022931 0.56913 -0.82225
-0.075941 -0.10102 0.42 0.55435 -0.16438 -0.81589
-0.07576 -0.1 0.419 0.50896 -0.002047 -0.86079
-0.075218 -0.096207 0.416 0.18961 0.48543 -0.85347
-0.075218 -0.095438 0.416 0.14274 0.46482 -0.87382
-0.075218 -0.094668 0.416 0.10757 0.44846 -0.88731
-0.075218 -0.093898 0.416 0.10467 0.46117 -0.88112
-0.075218 -0.093129 0.416 0.11284 0.46969 -0.87559
-0.075218 -0.092359 0.416 0.12035 0.47498 -0.87173
-0.075218 -0.091589 0.416 0.10873 0.49203 -0.86376
-0.075037 -0.090601 0.415 0.13371 0.51385 -0.84739
-0.075037 -0.089833 0.415 0.1735 0.50795 -0.84373
-0.075037 -0.089066 0.415 0.18465 0.51675 -0.83599
-0.075037 -0.088298 0.415 0.18886 0.52805 -0.82795
-0.075037 -0.08753 0.415 0.15184 0.54942 -0.82164
-0.07445 -0.095438 0.416 0.21094 0.39666 -0.8934
-0.07445 -0.094668 0.416 0.18923 0.36503 -0.91156
-0.07445 -0.093898 0.416 0.21021 0.37177 -0.90421
-0.074271 -0.092905 0.415 0.065408 0.53783 -0.84051
-0.074271 -0.092137 0.415 0.086501 0.52619 -0.84596
-0.074271 -0.091369 0.415 0.10164 0.52185 -0.84696
-0.074271 -0.090601 0.415 0.11157 0.51386 -0.85059
-0.074271 -0.089833 0.415 0.1005 0.52072 -0.84779
-0.074271 -0.089066 0.415 0.065559 0.53889 -0.83982
-0.074271 -0.088298 0.415 0.042952 0.55345 -0.83177
-0.073683 -0.094668 0.416 0.28493 0.26261 -0.92187
-0.073683 -0.093898 0.416 0.32905 0.2618 -0.9073
-0.073506 -0.092905 0.415 0.15994 0.4596 -0.87361
-0.073506 -0.092137 0.415 0.1718 0.46033 -0.87097
-0.073506 -0.091369 0.415 0.16687 0.4631 -0.87046
-0.073328 -0.090383 0.414 0.10378 0.54247 -0.83364
-0.073328 -0.089617 0.414 0.15002 0.51531 -0.84377
-0.073328 -0.088851 0.414 0.1642 0.50364 -0.84816
-0.073328 -0.088085 0.414 0.17131 0.50371 -0.84671
-0.07274 -0.093673 0.415 0.22511 0.38269 -0.89603
-0.07274 -0.092905 0.415 0.25414 0.36166 -0.897
-0.07274 -0.092137 0.415 0.26241 0.35067 -0.89898
-0.072565 -0.091149 0.414 0.099893 0.51068 -0.85395
-0.072565 -0.090383 0.414 0.13118 0.4866 -0.86372
-0.072565 -0.089617 0.414 0.13556 0.46855 -0.87297
-0.072565 -0.088851 0.414 0.11369 0.47341 -0.87348
-0.072565 -0.088085 0.414 0.077487 0.48325 -0.87205
-0.072565 -0.087319 0.414 0.016796 0.50031 -0.86568
-0.071974 -0.092137 0.415 0.34092 0.26539 -0.90185
-0.071801 -0.091149 0.414 0.17641 0.4566 -0.87201
-0.071801 -0.090383 0.414 0.19786 0.42929 -0.88123
-0.071627 -0.089401 0.413 0.11004 0.53883 -0.8352
-0.071627 -0.088636 0.413 0.15171 0.48503 -0.86123
-0.071627 -0.087872 0.413 0.19957 0.43661 -0.87724
-0.071627 -0.087108 0.413 0.18887 0.43107 -0.88233
-0.071037 -0.090383 0.414 0.30546 0.30343 -0.90256
-0.070865 -0.089401 0.413 0.15044 0.4885 -0.8595
-0.070865 -0.088636 0.413 0.15109 0.44915 -0.88059
-0.070865 -0.087872 0.413 0.14878 0.42644 -0.89219
-0.070694 -0.086897 0.412 0.32048 0.35558 -0.87798
-0.069934 -0.089184 0.412 0.033215 0.62211 -0.78223
-0.069934 -0.088422 0.412 0.042506 0.5843 -0.81043
-0.069934 -0.086897 0.412 0.18243 0.43546 -0.88153
-0.069934 -0.086135 0.412 0.22333 0.36563 -0.90357
-0.06603 -0.058296 0.389 0.29013 0.37297 -0.88132
-0.069173 -0.089946 0.412 0.12755 0.57546 -0.80782
-0.069173 -0.089184 0.412 0.10221 0.54652 -0.83119
-0.069173 -0.088422 0.412 0.094687 0.51224 -0.85361
-0.069006 -0.087447 0.411 -0.015827 0.67809 -0.73481
-0.069341 -0.087108 0.413 0.14978 0.19106 -0.97008
-0.069173 -0.086135 0.412 0.1471 0.35238 -0.92422
-0.069173 -0.085373 0.412 0.14142 0.34389 -0.9283
-0.069173 -0.084611 0.412 0.1487 0.35878 -0.9215
-0.065312 -0.058296 0.389 0.30719 0.44492 -0.84124
-0.065144 -0.057428 0.388 0.3181 0.24573 -0.91566
-0.065312 -0.056857 0.389 0.17674 0.54893 -0.81697
-0.068579 -0.089401 0.413 0.31538 0.18225 -0.9313
-0.068579 -0.088636 0.413 0.32657 0.1015 -0.93971
-0.068579 -0.087872 0.413 0.32017 0.019408 -0.94716
-0.068413 -0.085373 0.412 0.16813 0.27214 -0.94746
-0.068247 -0.084405 0.411 0.19974 0.31131 -0.92908
-0.068413 -0.083848 0.412 0.13961 0.43134 -0.89132
-0.068247 -0.081364 0.411 0.27726 0.38146 -0.88182
-0.068247 -0.080603 0.411 0.28311 0.46835 -0.83695
-0.064428 -0.058864 0.388 0.32611 0.167 -0.93047
-0.064428 -0.058146 0.388 0.3285 0.25602 -0.90914
-0.064428 -0.057428 0.388 0.29596 0.33285 -0.89533
-0.064428 -0.05671 0.388 0.23986 0.38961 -0.8892
-0.064428 -0.055993 0.388 0.16316 0.43664 -0.88472
-0.067653 -0.085373 0.412 0.30476 -0.010274 -0.95237
-0.067653 -0.084611 0.412 0.36687 -0.031279 -0.92975
-0.067489 -0.083645 0.411 0.23449 0.28494 -0.92942
-0.067489 -0.081364 0.411 0.2032 0.52565 -0.82607
-0.067325 -0.080407 0.41 0.42766 0.27625 -0.8607
-0.063876 -0.060455 0.389 0.44287 0.30851 -0.84184
-0.063712 -0.059582 0.388 0.34054 0.1629 -0.92601
-0.063712 -0.058864 0.388 0.33955 0.25961 -0.90405
-0.063712 -0.058146 0.388 0.32459 0.34604 -0.88028
-0.063712 -0.057428 0.388 0.2776 0.41503 -0.86643
-0.063712 -0.05671 0.388 0.20564 0.47131 -0.85766
-0.063548 -0.055848 0.387 0.28873 0.27506 -0.91705
-0.066731 -0.082884 0.411 0.35421 0.17537 -0.91858
-0.066568 -0.081924 0.41 0.27853 0.32488 -0.90381
-0.066568 -0.081166 0.41 0.38598 0.28276 -0.87811
-0.066568 -0.080407 0.41 0.36489 0.39064 -0.84514
-0.066568 -0.079648 0.41 0.35712 0.49926 -0.78943
-0.063159 -0.061175 0.389 0.48419 0.27648 -0.83013
-0.063159 -0.060455 0.389 0.46326 0.37222 -0.80427
-0.062996 -0.059582 0.388 0.36989 0.26219 -0.89131
-0.062996 -0.058864 0.388 0.3589 0.34291 -0.8681
-0.062996 -0.058146 0.388 0.33031 0.409 -0.85066
-0.062834 -0.05728 0.387 0.34208 0.2543 -0.90461
-0.062834 -0.056564 0.387 0.29539 0.3153 -0.90185
-0.062834 -0.055848 0.387 0.23906 0.36304 -0.90058
-0.065812 -0.081924 0.41 0.23479 0.43887 -0.86733
-0.065812 -0.081166 0.41 0.31873 0.42321 -0.84812
-0.065812 -0.080407 0.41 0.31788 0.47633 -0.81979
-0.065651 -0.079454 0.409 0.45378 0.38854 -0.80195
-0.062441 -0.061175 0.389 0.49959 0.34282 -0.79554
-0.06228 -0.0603 0.388 0.40499 0.25482 -0.8781
-0.06228 -0.059582 0.388 0.39964 0.33501 -0.85326
-0.06228 -0.058864 0.388 0.37411 0.39253 -0.84022
-0.06212 -0.057996 0.387 0.33996 0.28712 -0.89554
-0.06212 -0.05728 0.387 0.31262 0.33556 -0.88863
-0.06212 -0.056564 0.387 0.25355 0.38011 -0.88951
-0.06212 -0.055848 0.387 0.18886 0.42619 -0.8847
-0.06212 -0.055132 0.387 0.13064 0.46675 -0.87469
-0.063244 -0.039364 0.394 -0.068814 0.82727 -0.55757
-0.063244 -0.038635 0.394 -0.063449 0.81984 -0.56906
-0.063244 -0.037906 0.394 -0.077149 0.80963 -0.58185
-0.063244 -0.037177 0.394 -0.080434 0.80103 -0.5932
-0.063244 -0.036448 0.394 -0.055372 0.79182 -0.60824
-0.063244 -0.035719 0.394 -0.034169 0.78648 -0.61668
-0.063244 -0.03499 0.394 -0.029322 0.7841 -0.61994
-0.063404 -0.034348 0.395 -0.22017 0.76707 -0.6026
-0.065214 -0.082884 0.411 0.5154 0.10441 -0.85057
-0.065055 -0.081924 0.41 0.36671 0.34194 -0.86522
-0.065055 -0.081166 0.41 0.45197 0.27884 -0.84733
-0.065055 -0.080407 0.41 0.46188 0.31003 -0.83099
-0.064897 -0.079454 0.409 0.4297 0.43125 -0.79334
-0.064579 -0.076054 0.407 0.49337 0.44354 -0.74823
-0.064421 -0.075116 0.406 0.59021 0.43172 -0.68211
-0.063151 -0.07069 0.398 0.82543 0.29733 -0.47986
-0.062993 -0.069778 0.397 0.78016 0.37295 -0.50225
-0.062199 -0.065998 0.392 0.71449 0.16479 -0.67996
-0.062041 -0.065106 0.391 0.67617 0.11843 -0.72717
-0.062041 -0.064383 0.391 0.64701 0.29689 -0.70231
-0.061882 -0.063497 0.39 0.60627 0.24287 -0.75726
-0.061882 -0.062775 0.39 0.58317 0.36783 -0.7243
-0.061723 -0.061895 0.389 0.5324 0.29473 -0.79353
-0.061565 -0.061018 0.388 0.45699 0.22283 -0.86111
-0.061565 -0.0603 0.388 0.43889 0.31623 -0.84105
-0.061565 -0.059582 0.388 0.42602 0.36647 -0.82717
-0.061406 -0.058712 0.387 0.34645 0.30425 -0.88736
-0.061406 -0.057996 0.387 0.34203 0.34176 -0.87534
-0.061406 -0.05728 0.387 0.29481 0.38344 -0.87525
-0.061406 -0.056564 0.387 0.22732 0.42271 -0.87729
-0.061247 -0.055704 0.386 0.29425 0.31553 -0.90214
-0.061247 -0.05499 0.386 0.27043 0.3424 -0.8998
-0.061247 -0.054276 0.386 0.22886 0.37449 -0.89854
-0.061247 -0.053562 0.386 0.17146 0.40458 -0.89828
-0.061247 -0.052847 0.386 0.1387 0.43556 -0.88941
-0.062358 -0.041445 0.393 -0.017947 0.87769 -0.47889
-0.062358 -0.040718 0.393 -0.029845 0.8682 -0.49532
-0.062358 -0.039991 0.393 -0.043174 0.85637 -0.51455
-0.062358 -0.039264 0.393 -0.077856 0.84795 -0.52433
-0.062358 -0.038537 0.393 -0.08267 0.84003 -0.53621
-0.062358 -0.037809 0.393 -0.097679 0.82939 -0.55007
-0.062358 -0.037082 0.393 -0.082462 0.81707 -0.57061
-0.062358 -0.036355 0.393 -0.057121 0.80913 -0.58485
-0.064142 -0.080211 0.409 0.47123 0.33055 -0.81773
-0.064142 -0.079454 0.409 0.5252 0.29723 -0.79738
-0.064142 -0.078698 0.409 0.38221 0.42224 -0.82197
-0.063828 -0.076807 0.407 0.51929 0.39071 -0.76005
-0.063828 -0.076054 0.407 0.41527 0.47978 -0.77289
-0.063672 -0.075116 0.406 0.53035 0.46514 -0.70879
-0.063358 -0.073998 0.404 0.73268 0.39994 -0.55066
-0.06226 -0.070512 0.397 0.81043 0.23526 -0.53652
-0.062103 -0.069602 0.396 0.79589 0.27569 -0.53904
-0.061946 -0.068696 0.395 0.77206 0.30192 -0.55925
-0.061633 -0.066894 0.393 0.7295 0.28935 -0.61977
-0.061476 -0.065998 0.392 0.70343 0.24959 -0.6655
-0.061319 -0.065106 0.391 0.67235 0.20337 -0.71175
-0.061319 -0.064383 0.391 0.64574 0.35477 -0.67614
-0.061162 -0.063497 0.39 0.61035 0.30483 -0.73113
-0.061006 -0.062614 0.389 0.56621 0.24447 -0.78717
-0.061006 -0.061895 0.389 0.5475 0.33168 -0.76827
-0.060849 -0.061018 0.388 0.48904 0.27882 -0.8265
-0.060849 -0.0603 0.388 0.46604 0.33873 -0.81736
-0.060692 -0.059428 0.387 0.38778 0.29862 -0.87204
-0.060692 -0.058712 0.387 0.36885 0.33159 -0.86833
-0.060692 -0.057996 0.387 0.34546 0.35878 -0.86714
-0.060535 -0.057132 0.386 0.3375 0.31735 -0.88622
-0.060535 -0.056418 0.386 0.29338 0.34113 -0.89306
-0.060535 -0.055704 0.386 0.25544 0.35752 -0.89829
-0.060535 -0.05499 0.386 0.21666 0.38423 -0.89745
-0.060535 -0.054276 0.386 0.1616 0.42119 -0.89246
-0.060535 -0.053562 0.386 0.10349 0.45258 -0.8857
-0.060535 -0.052847 0.386 0.059903 0.48024 -0.87509
-0.060535 -0.052133 0.386 0.012304 0.49927 -0.86636
-0.061319 -0.040511 0.391 -0.14649 0.872 -0.46707
-0.061476 -0.039889 0.392 -0.0077606 0.87166 -0.49006
-0.061476 -0.039164 0.392 -0.059809 0.86548 -0.49735
-0.061476 -0.038438 0.392 -0.087605 0.85941 -0.50373
-0.061476 -0.037713 0.392 -0.11762 0.85128 -0.51135
-0.061476 -0.036988 0.392 -0.1203 0.84358 -0.52336
-0.061476 -0.036263 0.392 -0.097199 0.83671 -0.53896
-0.061633 -0.035628 0.393 -0.20338 0.8304 -0.51872
-0.063232 -0.07926 0.408 0.51706 0.27231 -0.81148
-0.063232 -0.078505 0.408 0.59833 0.18891 -0.77866
-0.063077 -0.07756 0.407 0.60513 0.25508 -0.75416
-0.063077 -0.076807 0.407 0.52254 0.33085 -0.78581
-0.062148 -0.073449 0.401 0.84409 0.088618 -0.52883
-0.061838 -0.072344 0.399 0.8357 0.036748 -0.54796
-0.061528 -0.070512 0.397 0.81138 0.2887 -0.50824
-0.061373 -0.069602 0.396 0.79774 0.32723 -0.50649
-0.061063 -0.068522 0.394 0.73865 0.25237 -0.62506
-0.060908 -0.067621 0.393 0.71611 0.23511 -0.6572
-0.060753 -0.066723 0.392 0.69457 0.19233 -0.69323
-0.060598 -0.06583 0.391 0.66475 0.14543 -0.73277
-0.060598 -0.065106 0.391 0.66486 0.27031 -0.69634
-0.060443 -0.064218 0.39 0.635 0.23409 -0.73619
-0.060443 -0.063497 0.39 0.61346 0.32988 -0.71753
-0.060288 -0.062614 0.389 0.57535 0.28873 -0.76525
-0.060133 -0.061735 0.388 0.52673 0.25692 -0.81028
-0.060133 -0.061018 0.388 0.50568 0.30727 -0.80615
-0.059978 -0.060144 0.387 0.44291 0.28378 -0.85047
-0.059978 -0.059428 0.387 0.41324 0.31184 -0.85556
-0.059978 -0.058712 0.387 0.38325 0.33386 -0.8612
-0.059823 -0.057846 0.386 0.35821 0.31619 -0.87847
-0.059823 -0.057132 0.386 0.32808 0.33512 -0.88321
-0.059823 -0.056418 0.386 0.27449 0.35862 -0.89221
-0.059823 -0.055704 0.386 0.23278 0.3733 -0.89803
-0.059823 -0.05499 0.386 0.18445 0.4031 -0.89638
-0.059668 -0.054135 0.385 0.27341 0.28222 -0.91956
-0.059668 -0.053423 0.385 0.23597 0.28651 -0.92856
-0.059668 -0.05271 0.385 0.20701 0.30473 -0.92967
-0.059668 -0.051998 0.385 0.15367 0.31867 -0.93533
-0.060288 -0.041023 0.389 -0.23655 0.82928 -0.5063
-0.060443 -0.040407 0.39 -0.11894 0.87581 -0.46777
-0.060443 -0.039685 0.39 -0.14474 0.86073 -0.48805
-0.060598 -0.039064 0.391 -0.040174 0.85818 -0.51177
-0.060598 -0.03834 0.391 -0.092052 0.85443 -0.51135
-0.060598 -0.037617 0.391 -0.14121 0.85044 -0.50676
-0.060598 -0.036894 0.391 -0.14898 0.84795 -0.5087
-0.060598 -0.03617 0.391 -0.14138 0.8474 -0.51178
-0.060753 -0.035537 0.392 -0.25273 0.8051 -0.5366
-0.06202 -0.077928 0.405 0.25843 0.347 -0.90156
-0.062173 -0.075867 0.406 0.53872 0.38443 -0.74966
-0.060642 -0.070335 0.396 0.76442 0.30535 -0.56782
-0.060489 -0.069426 0.395 0.76919 0.28255 -0.57317
-0.060336 -0.068522 0.394 0.74979 0.2869 -0.59624
-0.060183 -0.067621 0.393 0.72295 0.275 -0.63381
-0.06003 -0.066723 0.392 0.69569 0.23976 -0.67715
-0.059876 -0.06583 0.391 0.66657 0.205 -0.7167
-0.059723 -0.06494 0.39 0.63062 0.17166 -0.75687
-0.059723 -0.064218 0.39 0.63991 0.26796 -0.72022
-0.05957 -0.063334 0.389 0.6025 0.24762 -0.75873
-0.059417 -0.062453 0.388 0.56264 0.2258 -0.79527
-0.059417 -0.061735 0.388 0.54355 0.28368 -0.78999
-0.059417 -0.061018 0.388 0.51727 0.3103 -0.79759
-0.059264 -0.060144 0.387 0.47105 0.29722 -0.83052
-0.059264 -0.059428 0.387 0.43243 0.31721 -0.84403
-0.059111 -0.058561 0.386 0.38417 0.31279 -0.86867
-0.059111 -0.057846 0.386 0.35637 0.32982 -0.8742
-0.059111 -0.057132 0.386 0.31426 0.34542 -0.88427
-0.059111 -0.056418 0.386 0.26019 0.36186 -0.89519
-0.058958 -0.05556 0.385 0.26835 0.31834 -0.9092
-0.058958 -0.054847 0.385 0.24835 0.31204 -0.91704
-0.058958 -0.054135 0.385 0.22013 0.31638 -0.92274
-0.058958 -0.053423 0.385 0.18106 0.32888 -0.92685
-0.058958 -0.05271 0.385 0.14902 0.3567 -0.92226
-0.058958 -0.051998 0.385 0.10653 0.37518 -0.92081
-0.058958 -0.051286 0.385 0.066031 0.40346 -0.91261
-0.058958 -0.050574 0.385 0.023452 0.41659 -0.90879
-0.058958 -0.047724 0.385 -0.042001 0.44398 -0.89505
-0.059111 -0.047134 0.386 -0.058948 0.65327 -0.75483
-0.059111 -0.044278 0.386 -0.11628 0.62331 -0.77328
-0.059111 -0.043563 0.386 -0.15319 0.60399 -0.78213
-0.059264 -0.040812 0.387 -0.25765 0.67722 -0.6892
-0.059417 -0.0402 0.388 -0.23079 0.77858 -0.58357
-0.059417 -0.039482 0.388 -0.25502 0.76092 -0.59663
-0.059417 -0.038764 0.388 -0.26568 0.74204 -0.61546
-0.05957 -0.038144 0.389 -0.20424 0.82781 -0.5225
-0.05957 -0.037425 0.389 -0.18759 0.82054 -0.53993
-0.059723 -0.036799 0.39 -0.20458 0.83185 -0.51591
-0.059723 -0.036078 0.39 -0.19442 0.83071 -0.52166
-0.059723 -0.035356 0.39 -0.17068 0.82487 -0.53895
-0.059723 -0.034635 0.39 -0.13617 0.81331 -0.56567
-0.059723 -0.033913 0.39 -0.095389 0.79689 -0.59655
-0.061576 -0.079066 0.407 0.45631 0.42408 -0.78226
-0.061576 -0.078313 0.407 0.59394 0.28507 -0.75231
-0.061424 -0.077369 0.406 0.62626 0.33575 -0.70361
-0.061424 -0.076618 0.406 0.64554 0.27863 -0.71109
-0.061273 -0.07568 0.405 0.69352 0.27305 -0.66669
-0.060819 -0.074376 0.402 0.84751 0.31349 -0.4283
-0.060214 -0.072163 0.398 0.80953 0.20482 -0.5502
-0.05976 -0.069426 0.395 0.79856 0.26712 -0.5394
-0.059609 -0.068522 0.394 0.77883 0.27128 -0.56553
-0.059458 -0.067621 0.393 0.74542 0.26795 -0.61037
-0.059306 -0.066723 0.392 0.70721 0.25929 -0.65775
-0.059155 -0.06583 0.391 0.67533 0.23593 -0.69876
-0.059004 -0.06494 0.39 0.64353 0.21731 -0.73392
-0.058852 -0.064054 0.389 0.6074 0.20753 -0.76681
-0.058852 -0.063334 0.389 0.61194 0.26193 -0.74627
-0.058701 -0.062453 0.388 0.57937 0.25048 -0.77562
-0.058701 -0.061735 0.388 0.55614 0.27803 -0.7832
-0.05855 -0.06086 0.387 0.51782 0.27548 -0.80992
-0.05855 -0.060144 0.387 0.48611 0.29641 -0.82209
-0.058399 -0.059275 0.386 0.43336 0.29873 -0.85027
-0.058399 -0.058561 0.386 0.39031 0.31576 -0.86484
-0.058399 -0.057846 0.386 0.35448 0.32493 -0.87679
-0.058399 -0.057132 0.386 0.30596 0.33555 -0.89095
-0.058247 -0.056272 0.385 0.27404 0.33267 -0.90235
-0.058247 -0.05556 0.385 0.24561 0.33781 -0.9086
-0.058247 -0.054847 0.385 0.22249 0.33443 -0.91578
-0.058247 -0.054135 0.385 0.19277 0.34294 -0.91937
-0.058247 -0.053423 0.385 0.15006 0.3643 -0.91911
-0.058247 -0.05271 0.385 0.11567 0.38842 -0.91419
-0.058096 -0.051863 0.384 0.23721 0.23262 -0.9432
-0.058096 -0.051153 0.384 0.18803 0.24728 -0.95052
-0.058096 -0.050442 0.384 0.12059 0.25188 -0.96022
-0.058247 -0.049861 0.385 -0.019618 0.48309 -0.87535
-0.058247 -0.047724 0.385 -0.041316 0.52459 -0.85035
-0.058247 -0.047012 0.385 -0.057775 0.52968 -0.84622
-0.058247 -0.0463 0.385 -0.048466 0.52956 -0.84689
-0.058247 -0.044163 0.385 -0.10542 0.51556 -0.85034
-0.058399 -0.043563 0.386 -0.10831 0.6834 -0.72197
-0.058247 -0.042738 0.385 -0.17321 0.48088 -0.85951
-0.058399 -0.040707 0.386 -0.22335 0.62016 -0.75201
-0.058399 -0.039993 0.386 -0.24676 0.59867 -0.76204
-0.05855 -0.03938 0.387 -0.23918 0.72162 -0.64965
-0.05855 -0.038664 0.387 -0.24768 0.70462 -0.66496
-0.05855 -0.037948 0.387 -0.2254 0.6923 -0.68551
-0.058701 -0.037328 0.388 -0.21556 0.77706 -0.59136
-0.058701 -0.036611 0.388 -0.17258 0.76904 -0.61547
-0.058852 -0.035985 0.389 -0.22473 0.80745 -0.54546
-0.058852 -0.035265 0.389 -0.20158 0.79659 -0.56992
-0.058852 -0.034546 0.389 -0.15935 0.78205 -0.6025
-0.059004 -0.033913 0.39 -0.27262 0.79535 -0.54139
-0.060825 -0.078313 0.407 0.63167 0.24097 -0.73683
-0.060675 -0.077369 0.406 0.66271 0.30537 -0.68379
-0.060526 -0.076429 0.405 0.73347 0.30149 -0.6092
-0.060376 -0.075493 0.404 0.72825 0.34985 -0.58929
-0.058882 -0.068522 0.394 0.7945 0.25025 -0.55331
-0.058583 -0.067449 0.392 0.67808 0.23646 -0.69591
-0.058434 -0.066553 0.391 0.65153 0.21238 -0.72829
-0.058434 -0.06583 0.391 0.68652 0.23601 -0.68774
-0.058284 -0.06494 0.39 0.65779 0.22586 -0.71854
-0.058135 -0.064054 0.389 0.62292 0.22492 -0.74925
-0.058135 -0.063334 0.389 0.62121 0.24822 -0.74329
-0.057985 -0.062453 0.388 0.58944 0.25134 -0.76771
-0.057985 -0.061735 0.388 0.56161 0.25877 -0.78589
-0.057836 -0.06086 0.387 0.52757 0.27049 -0.8053
-0.057686 -0.059989 0.386 0.48262 0.26911 -0.83346
-0.057686 -0.059275 0.386 0.44972 0.28593 -0.84616
-0.057686 -0.058561 0.386 0.40339 0.29293 -0.86687
-0.057686 -0.057846 0.386 0.36501 0.30079 -0.88108
-0.057537 -0.056984 0.385 0.31589 0.3119 -0.89607
-0.057537 -0.056272 0.385 0.27503 0.3226 -0.9057
-0.057537 -0.05556 0.385 0.24231 0.32998 -0.91236
-0.057537 -0.054847 0.385 0.21705 0.32816 -0.91935
-0.057387 -0.053994 0.384 0.22842 0.30197 -0.92555
-0.057387 -0.053284 0.384 0.20199 0.30129 -0.93189
-0.057387 -0.052574 0.384 0.19412 0.29445 -0.93574
-0.057387 -0.051863 0.384 0.17415 0.28796 -0.94167
-0.057387 -0.051153 0.384 0.13145 0.30757 -0.9424
-0.057387 -0.050442 0.384 0.081631 0.33436 -0.9389
-0.057387 -0.049732 0.384 0.059867 0.34499 -0.9367
-0.057387 -0.049021 0.384 0.040249 0.34958 -0.93604
-0.057387 -0.0476 0.384 -0.0092331 0.35694 -0.93408
-0.057537 -0.047012 0.385 -0.03999 0.58453 -0.81039
-0.057537 -0.0463 0.385 -0.029445 0.58836 -0.80807
-0.057537 -0.045587 0.385 -0.037325 0.58914 -0.80717
-0.057537 -0.044163 0.385 -0.098237 0.58655 -0.80393
-0.057537 -0.043451 0.385 -0.10936 0.58573 -0.80309
-0.057537 -0.042738 0.385 -0.13567 0.57359 -0.80783
-0.057537 -0.042026 0.385 -0.16328 0.55976 -0.81241
-0.057537 -0.040601 0.385 -0.22393 0.53692 -0.81337
-0.057686 -0.039993 0.386 -0.19691 0.67273 -0.71321
-0.057686 -0.039278 0.386 -0.22789 0.65678 -0.71883
-0.057686 -0.038564 0.386 -0.23998 0.64366 -0.72672
-0.057686 -0.03785 0.386 -0.23005 0.63016 -0.7416
-0.057836 -0.037232 0.387 -0.2186 0.72855 -0.64918
-0.057836 -0.036516 0.387 -0.19106 0.71927 -0.66794
-0.057836 -0.0358 0.387 -0.1677 0.69667 -0.69752
-0.060221 -0.078505 0.408 0.69675 -0.044454 -0.71594
-0.059926 -0.077369 0.406 0.74118 0.23242 -0.62978
-0.059483 -0.076052 0.403 0.65514 0.49535 -0.57046
-0.058007 -0.068348 0.393 0.73561 0.24428 -0.63182
-0.05786 -0.067449 0.392 0.69835 0.2412 -0.67389
-0.057712 -0.066553 0.391 0.67393 0.22092 -0.70499
-0.057565 -0.065661 0.39 0.64076 0.20427 -0.74006
-0.057565 -0.06494 0.39 0.66514 0.22171 -0.71305
-0.057417 -0.064054 0.389 0.63212 0.22254 -0.74223
-0.057269 -0.063171 0.388 0.60408 0.22 -0.76596
-0.057269 -0.062453 0.388 0.59315 0.23515 -0.76999
-0.057122 -0.061576 0.387 0.56231 0.23601 -0.79253
-0.057122 -0.06086 0.387 0.53479 0.24801 -0.80777
-0.056974 -0.059989 0.386 0.49608 0.24926 -0.83173
-0.056974 -0.059275 0.386 0.45614 0.26091 -0.8508
-0.056974 -0.058561 0.386 0.40846 0.27222 -0.87124
-0.056827 -0.057697 0.385 0.37394 0.28378 -0.88297
-0.056827 -0.056984 0.385 0.3221 0.29722 -0.89884
-0.056827 -0.056272 0.385 0.27854 0.30628 -0.91028
-0.056827 -0.05556 0.385 0.24443 0.31401 -0.91742
-0.056679 -0.054705 0.384 0.22967 0.30701 -0.92358
-0.056679 -0.053994 0.384 0.20473 0.30664 -0.92955
-0.056679 -0.053284 0.384 0.17315 0.30769 -0.9356
-0.056679 -0.052574 0.384 0.16391 0.31112 -0.93613
-0.056679 -0.051863 0.384 0.14128 0.31893 -0.93719
-0.056679 -0.051153 0.384 0.099351 0.34465 -0.93346
-0.056679 -0.050442 0.384 0.061357 0.37267 -0.92593
-0.056679 -0.049732 0.384 0.045417 0.39253 -0.91862
-0.056679 -0.049021 0.384 0.030315 0.40857 -0.91222
-0.056679 -0.048311 0.384 0.01747 0.41902 -0.90781
-0.056679 -0.04689 0.384 -0.026601 0.46692 -0.8839
-0.056679 -0.046179 0.384 -0.030274 0.47828 -0.87769
-0.056679 -0.045469 0.384 -0.041787 0.48615 -0.87288
-0.056679 -0.044759 0.384 -0.044639 0.48379 -0.87404
-0.056679 -0.043338 0.384 -0.099418 0.4956 -0.86284
-0.056679 -0.042627 0.384 -0.14483 0.48532 -0.86226
-0.056679 -0.041917 0.384 -0.18294 0.47659 -0.85988
-0.056827 -0.041314 0.385 -0.15468 0.62297 -0.7668
-0.056827 -0.039889 0.385 -0.20023 0.60599 -0.76986
-0.056827 -0.039177 0.385 -0.23153 0.5866 -0.77608
-0.056827 -0.038464 0.385 -0.23665 0.57333 -0.7844
-0.056974 -0.03785 0.386 -0.22037 0.68041 -0.69891
-0.056974 -0.037136 0.386 -0.22479 0.67402 -0.70368
-0.056974 -0.036422 0.386 -0.19918 0.66048 -0.72394
-0.056974 -0.035708 0.386 -0.17929 0.63468 -0.75169
-0.057122 -0.035084 0.387 -0.20741 0.71138 -0.67151
-0.059614 -0.078698 0.409 0.64077 -0.40391 -0.65289
-0.059469 -0.07775 0.408 0.61129 -0.38151 -0.69338
-0.05874 -0.075306 0.403 0.82638 0.17587 -0.53494
-0.058594 -0.074376 0.402 0.86203 0.09077 -0.49867
-0.057137 -0.068174 0.392 0.6516 0.19913 -0.73196
-0.056991 -0.066553 0.391 0.70002 0.17535 -0.69226
-0.056845 -0.065661 0.39 0.67149 0.16187 -0.72312
-0.056699 -0.064773 0.389 0.63188 0.16681 -0.7569
-0.056699 -0.064054 0.389 0.64119 0.19331 -0.74263
-0.056554 -0.063171 0.388 0.61731 0.1913 -0.76311
-0.056554 -0.062453 0.388 0.59585 0.20641 -0.77612
-0.056408 -0.061576 0.387 0.56952 0.2092 -0.79491
-0.056408 -0.06086 0.387 0.53955 0.21691 -0.81353
-0.056262 -0.059989 0.386 0.50392 0.22667 -0.83348
-0.056262 -0.059275 0.386 0.46038 0.23203 -0.85686
-0.056116 -0.058409 0.385 0.41556 0.24682 -0.87544
-0.056116 -0.057697 0.385 0.38228 0.25552 -0.88802
-0.056116 -0.056984 0.385 0.33127 0.27058 -0.90391
-0.056116 -0.056272 0.385 0.28801 0.27657 -0.91682
-0.056116 -0.05556 0.385 0.25911 0.28091 -0.92409
-0.05597 -0.054705 0.384 0.23379 0.27836 -0.93159
-0.05597 -0.053994 0.384 0.19979 0.28257 -0.93821
-0.05597 -0.053284 0.384 0.17155 0.28979 -0.94159
-0.05597 -0.052574 0.384 0.15857 0.29589 -0.94197
-0.05597 -0.051863 0.384 0.12997 0.31 -0.94181
-0.05597 -0.051153 0.384 0.086923 0.33923 -0.93668
-0.05597 -0.050442 0.384 0.05656 0.36719 -0.92843
-0.05597 -0.049732 0.384 0.043763 0.39274 -0.91861
-0.055825 -0.048894 0.383 0.076686 0.31103 -0.9473
-0.05597 -0.048311 0.384 0.015003 0.43716 -0.89926
-0.055825 -0.047476 0.383 0.031104 0.33987 -0.93996
-0.055825 -0.046768 0.383 -0.018368 0.37294 -0.92767
-0.05597 -0.046179 0.384 -0.020803 0.51585 -0.85642
-0.055825 -0.045351 0.383 -0.046965 0.3909 -0.91923
-0.05597 -0.044759 0.384 -0.041519 0.52675 -0.84901
-0.05597 -0.044048 0.384 -0.065069 0.53421 -0.84284
-0.05597 -0.043338 0.384 -0.085452 0.54641 -0.83315
-0.05597 -0.042627 0.384 -0.11995 0.54393 -0.83051
-0.05597 -0.041917 0.384 -0.1517 0.54041 -0.82761
-0.05597 -0.041206 0.384 -0.16599 0.53856 -0.82608
-0.05597 -0.040496 0.384 -0.18859 0.53969 -0.82047
-0.05597 -0.039785 0.384 -0.20053 0.53271 -0.82219
-0.056116 -0.039177 0.385 -0.20753 0.61983 -0.7568
-0.056116 -0.038464 0.385 -0.21375 0.61985 -0.75505
-0.056116 -0.037752 0.385 -0.21032 0.61335 -0.76129
-0.056116 -0.03704 0.385 -0.18794 0.60284 -0.77541
-0.056116 -0.036327 0.385 -0.16037 0.57273 -0.8039
-0.056262 -0.035708 0.386 -0.21963 0.66342 -0.71528
-0.056262 -0.034994 0.386 -0.21344 0.64504 -0.73373
-0.057852 -0.075119 0.402 0.8168 0.27451 -0.50743
-0.056701 -0.069251 0.394 0.80367 0.17287 -0.56941
-0.056413 -0.068174 0.392 0.67575 0.18592 -0.7133
-0.056269 -0.067277 0.391 0.65201 0.17462 -0.73783
-0.056269 -0.066553 0.391 0.71484 0.16371 -0.67986
-0.056125 -0.065661 0.39 0.67985 0.15173 -0.71748
-0.055982 -0.064773 0.389 0.64263 0.15283 -0.75078
-0.055982 -0.064054 0.389 0.64401 0.17637 -0.74441
-0.055838 -0.063171 0.388 0.62 0.1748 -0.76488
-0.055838 -0.062453 0.388 0.59789 0.17986 -0.78114
-0.055694 -0.061576 0.387 0.57117 0.18463 -0.7998
-0.05555 -0.060703 0.386 0.54236 0.18944 -0.81851
-0.05555 -0.059989 0.386 0.50549 0.20008 -0.83931
-0.055406 -0.059121 0.385 0.46289 0.20227 -0.86303
-0.055406 -0.058409 0.385 0.42647 0.21316 -0.87903
-0.055406 -0.057697 0.385 0.39317 0.22449 -0.89164
-0.055406 -0.056984 0.385 0.33678 0.2408 -0.91027
-0.055262 -0.056126 0.384 0.29289 0.24913 -0.92312
-0.055262 -0.055415 0.384 0.26302 0.25037 -0.93174
-0.055262 -0.054705 0.384 0.23125 0.25247 -0.93956
-0.055262 -0.053994 0.384 0.19916 0.26555 -0.9433
-0.055262 -0.053284 0.384 0.17344 0.27286 -0.94629
-0.055262 -0.052574 0.384 0.16156 0.27963 -0.94642
-0.055262 -0.051863 0.384 0.13329 0.29675 -0.94561
-0.055262 -0.051153 0.384 0.093621 0.32594 -0.94074
-0.055118 -0.050311 0.383 0.096513 0.32099 -0.94215
-0.055118 -0.049602 0.383 0.081814 0.338 -0.93758
-0.055118 -0.048894 0.383 0.068786 0.34684 -0.9354
-0.055118 -0.048185 0.383 0.057063 0.35189 -0.9343
-0.055118 -0.047476 0.383 0.026474 0.38516 -0.92247
-0.055118 -0.046768 0.383 -0.016254 0.41757 -0.9085
-0.055118 -0.046059 0.383 -0.029134 0.43006 -0.90233
-0.055118 -0.045351 0.383 -0.037317 0.43392 -0.90018
-0.055118 -0.044642 0.383 -0.033178 0.43893 -0.89791
-0.055118 -0.043933 0.383 -0.05125 0.46043 -0.88622
-0.055118 -0.043225 0.383 -0.065605 0.46944 -0.88053
-0.055118 -0.042516 0.383 -0.10066 0.46603 -0.87902
-0.055118 -0.041808 0.383 -0.12959 0.46702 -0.8747
-0.055262 -0.041206 0.384 -0.14514 0.54777 -0.82395
-0.055262 -0.040496 0.384 -0.17524 0.55208 -0.81517
-0.055262 -0.039785 0.384 -0.18773 0.55501 -0.81038
-0.055262 -0.039075 0.384 -0.20787 0.54879 -0.80971
-0.055262 -0.038364 0.384 -0.20376 0.54997 -0.80995
-0.055262 -0.037654 0.384 -0.17771 0.54333 -0.82049
-0.055406 -0.03704 0.385 -0.22074 0.60842 -0.76229
-0.055406 -0.036327 0.385 -0.20178 0.60398 -0.77104
-0.055406 -0.035615 0.385 -0.17822 0.58914 -0.78813
-0.055406 -0.034903 0.385 -0.16189 0.5641 -0.80968
-0.055406 -0.034191 0.385 -0.13762 0.52903 -0.83737
-0.05555 -0.033565 0.386 -0.21069 0.63781 -0.74081
-0.05555 -0.032851 0.386 -0.19491 0.6161 -0.76317
-0.05555 -0.032137 0.386 -0.17687 0.57634 -0.79784
-0.055694 -0.031504 0.387 -0.25357 0.64476 -0.7211
-0.055694 -0.030788 0.387 -0.25958 0.59764 -0.75858
-0.055694 -0.030072 0.387 -0.27169 0.53934 -0.79706
-0.059867 -0.016163 0.416 -0.32461 0.34784 -0.87956
-0.056542 -0.072899 0.398 0.80676 0.17902 -0.56311
-0.0564 -0.071981 0.397 0.82064 0.14233 -0.55343
-0.055974 -0.06998 0.394 0.75527 0.15962 -0.63568
-0.055832 -0.069075 0.393 0.72624 0.16467 -0.66742
-0.05569 -0.068174 0.392 0.69749 0.16516 -0.69731
-0.055548 -0.067277 0.391 0.67067 0.17089 -0.72181
-0.055406 -0.066383 0.39 0.64382 0.16284 -0.74765
-0.055406 -0.065661 0.39 0.6824 0.14673 -0.7161
-0.055264 -0.064773 0.389 0.64336 0.15203 -0.75031
-0.055264 -0.064054 0.389 0.64653 0.15811 -0.74632
-0.055122 -0.063171 0.388 0.62133 0.16059 -0.76692
-0.05498 -0.062292 0.387 0.58987 0.15826 -0.79184
-0.05498 -0.061576 0.387 0.57124 0.16607 -0.8038
-0.054838 -0.060703 0.386 0.54457 0.16739 -0.82184
-0.054838 -0.059989 0.386 0.51068 0.16878 -0.84304
-0.054696 -0.059121 0.385 0.46631 0.17312 -0.86752
-0.054696 -0.058409 0.385 0.43342 0.18129 -0.88277
-0.054696 -0.057697 0.385 0.39878 0.18947 -0.89726
-0.054554 -0.056836 0.384 0.34033 0.20598 -0.91747
-0.054554 -0.056126 0.384 0.29731 0.21533 -0.93018
-0.054554 -0.055415 0.384 0.26949 0.21303 -0.93914
-0.054554 -0.054705 0.384 0.24451 0.22077 -0.94418
-0.054554 -0.053994 0.384 0.21249 0.23397 -0.94874
-0.054554 -0.053284 0.384 0.18759 0.24353 -0.95158
-0.054411 -0.052437 0.383 0.18343 0.24659 -0.9516
-0.054411 -0.051728 0.383 0.16911 0.25578 -0.95183
-0.054411 -0.051019 0.383 0.13005 0.27659 -0.95215
-0.054411 -0.050311 0.383 0.11034 0.29392 -0.94944
-0.054411 -0.049602 0.383 0.090181 0.31573 -0.94455
-0.054411 -0.048894 0.383 0.07138 0.32798 -0.94199
-0.054411 -0.048185 0.383 0.052328 0.33806 -0.93967
-0.054411 -0.047476 0.383 0.027739 0.36436 -0.93084
-0.054411 -0.046768 0.383 -0.0055227 0.38888 -0.92127
-0.054411 -0.046059 0.383 -0.018457 0.40288 -0.91507
-0.054411 -0.045351 0.383 -0.029658 0.40633 -0.91325
-0.054411 -0.044642 0.383 -0.032221 0.41457 -0.90945
-0.054411 -0.043933 0.383 -0.044452 0.42602 -0.90362
-0.054411 -0.043225 0.383 -0.062063 0.44165 -0.89504
-0.054411 -0.042516 0.383 -0.088486 0.4539 -0.88665
-0.054411 -0.041808 0.383 -0.11644 0.46214 -0.87913
-0.054411 -0.041099 0.383 -0.14025 0.47404 -0.86926
-0.054411 -0.04039 0.383 -0.15854 0.48572 -0.85962
-0.054411 -0.039682 0.383 -0.16461 0.49263 -0.85453
-0.054411 -0.038973 0.383 -0.18841 0.49311 -0.84932
-0.054554 -0.038364 0.384 -0.19957 0.53515 -0.82085
