0.029502 -0.030342 0.41 -0.17525 -0.027877 -0.98413
0.029502 -0.029584 0.41 -0.18455 -0.03745 -0.98211
0.029574 -0.028895 0.411 -0.19532 -0.053217 -0.9793
0.029574 -0.028135 0.411 -0.22077 -0.052923 -0.97389
0.029574 -0.027375 0.411 -0.2238 -0.052886 -0.9732
0.029574 -0.026614 0.411 -0.22682 -0.052848 -0.9725
0.029574 -0.025854 0.411 -0.21372 -0.049837 -0.97562
0.029574 -0.025093 0.411 -0.21772 -0.055072 -0.97446
0.029646 -0.024392 0.412 -0.25407 -0.054442 -0.96565
0.029646 -0.02363 0.412 -0.27822 -0.063387 -0.95842
0.029646 -0.022868 0.412 -0.28373 -0.075658 -0.95592
0.029646 -0.022105 0.412 -0.27585 -0.08512 -0.95743
0.029646 -0.021343 0.412 -0.26422 -0.086442 -0.96058
0.029718 -0.020631 0.413 -0.26298 -0.070768 -0.9622
0.029718 -0.019867 0.413 -0.28389 -0.082658 -0.95529
0.029718 -0.019103 0.413 -0.28542 -0.09694 -0.95349
0.029718 -0.018339 0.413 -0.3163 -0.095954 -0.94379
0.02979 -0.017617 0.414 -0.32461 -0.10046 -0.9405
0.02979 -0.016851 0.414 -0.36363 -0.10289 -0.92584
0.02979 -0.016085 0.414 -0.40442 -0.11551 -0.90725
0.02979 -0.015319 0.414 -0.45783 -0.11509 -0.88156
0.029862 -0.014588 0.415 -0.48545 -0.11566 -0.86658
0.029862 -0.013821 0.415 -0.50556 -0.11776 -0.85472
0.029934 -0.013084 0.416 -0.51531 -0.12027 -0.84853
0.029934 -0.012315 0.416 -0.52254 -0.13998 -0.84105
0.030006 -0.011573 0.417 -0.52993 -0.14152 -0.83615
0.030006 -0.010801 0.417 -0.5372 -0.14594 -0.83073
0.030077 -0.010054 0.418 -0.56219 -0.15022 -0.81325
0.030077 -0.0092803 0.418 -0.56196 -0.1298 -0.81692
0.030149 -0.0085273 0.419 -0.6126 -0.15179 -0.77568
0.030149 -0.0077521 0.419 -0.5676 -0.14037 -0.81125
0.030221 -0.0069935 0.42 -0.63486 -0.16756 -0.75424
0.030293 -0.0062313 0.421 -0.66546 -0.18688 -0.72266
0.030365 -0.0054653 0.422 -0.70667 -0.17071 -0.68664
0.030437 -0.0046957 0.423 -0.72774 -0.17976 -0.66188
0.033747 0.006074 0.469 0.72688 -0.58996 -0.35156
0.033244 0.0085476 0.462 0.74016 -0.45276 -0.49717
0.033172 0.0093821 0.461 0.72541 -0.43496 -0.53347
0.033028 0.010191 0.459 0.59827 -0.30845 -0.73955
0.032956 0.011016 0.458 0.55972 -0.27326 -0.78233
0.032884 0.011837 0.457 0.51583 -0.22819 -0.82574
0.032884 0.012683 0.457 0.53802 -0.29267 -0.79049
0.032812 0.013499 0.456 0.47823 -0.2513 -0.84152
0.03274 0.014311 0.455 0.42315 -0.20426 -0.88274
0.032668 0.015119 0.454 0.39576 -0.17292 -0.90193
0.03274 0.015994 0.455 0.38896 -0.27565 -0.87905
0.032668 0.016799 0.454 0.41035 -0.24437 -0.87857
0.032668 0.017639 0.454 0.28858 -0.28829 -0.91302
0.032668 0.018479 0.454 0.2217 -0.30011 -0.92778
0.032596 0.019277 0.453 0.2117 -0.2339 -0.94893
0.032668 0.021839 0.454 0.0065464 -0.31645 -0.94859
0.032668 0.022679 0.454 -0.022913 -0.3157 -0.94858
0.032668 0.023519 0.454 -0.03004 -0.31895 -0.9473
0.029225 -0.057147 0.396 -0.48534 0.090517 -0.86963
0.029299 -0.056557 0.397 -0.33584 0.23732 -0.91153
0.029299 -0.055822 0.397 -0.38016 0.19721 -0.90365
0.029299 -0.055088 0.397 -0.3959 0.1759 -0.90129
0.029373 -0.05449 0.398 -0.30289 0.26095 -0.9166
0.029373 -0.053754 0.398 -0.32634 0.23316 -0.91604
0.029373 -0.053018 0.398 -0.32031 0.22726 -0.91965
0.029373 -0.052281 0.398 -0.32713 0.2272 -0.91726
0.029446 -0.051674 0.399 -0.3337 0.22834 -0.91461
0.029446 -0.050936 0.399 -0.34548 0.22731 -0.91048
0.029446 -0.050198 0.399 -0.35111 0.22392 -0.90916
0.029446 -0.04946 0.399 -0.35555 0.21294 -0.91008
0.02952 -0.048844 0.4 -0.376 0.20965 -0.90259
0.02952 -0.048104 0.4 -0.39714 0.21049 -0.8933
0.029594 -0.047482 0.401 -0.41943 0.20864 -0.88349
0.029594 -0.04674 0.401 -0.44214 0.21075 -0.87184
0.029594 -0.045998 0.401 -0.46603 0.2142 -0.85845
0.029594 -0.045256 0.401 -0.48299 0.19855 -0.85282
0.029668 -0.044625 0.402 -0.48728 0.18945 -0.85245
0.029668 -0.043882 0.402 -0.48209 0.19097 -0.85505
0.029742 -0.043245 0.403 -0.48246 0.18505 -0.85615
0.029815 -0.042605 0.404 -0.49322 0.18245 -0.85056
0.029815 -0.041858 0.404 -0.5208 0.18081 -0.83431
0.029815 -0.04111 0.404 -0.55025 0.16498 -0.81854
0.029815 -0.040363 0.404 -0.55252 0.12727 -0.82373
0.029815 -0.039615 0.404 -0.46653 0.1022 -0.87858
0.029889 -0.038964 0.405 -0.63086 0.11261 -0.76768
0.030037 -0.038403 0.407 -0.64908 0.091995 -0.75514
0.030111 -0.037743 0.408 -0.64793 0.087808 -0.75662
0.030185 -0.037079 0.409 -0.53465 0.082683 -0.84102
0.030185 -0.036322 0.409 -0.53102 0.07754 -0.8438
0.030185 -0.035565 0.409 -0.47044 0.062487 -0.88022
0.030258 -0.034894 0.41 -0.37456 0.033315 -0.9266
0.030258 -0.034135 0.41 -0.29253 0 -0.95626
0.030258 -0.033377 0.41 -0.2296 -0.025441 -0.97295
0.030258 -0.032618 0.41 -0.21328 -0.041475 -0.97611
0.030258 -0.031859 0.41 -0.19999 -0.041594 -0.97891
0.030258 -0.031101 0.41 -0.16368 -0.04188 -0.98562
0.030258 -0.030342 0.41 -0.1772 -0.048194 -0.98299
0.030258 -0.029584 0.41 -0.18744 -0.060883 -0.98039
0.030332 -0.028895 0.411 -0.19809 -0.076469 -0.9772
0.030332 -0.028135 0.411 -0.22236 -0.081308 -0.97157
0.030332 -0.027375 0.411 -0.22939 -0.081172 -0.96994
0.030332 -0.026614 0.411 -0.23638 -0.081032 -0.96827
0.030332 -0.025854 0.411 -0.22743 -0.079115 -0.97058
0.030406 -0.025154 0.412 -0.2238 -0.08422 -0.97099
0.030406 -0.024392 0.412 -0.25833 -0.088654 -0.96198
0.030406 -0.02363 0.412 -0.27928 -0.10043 -0.95494
0.030406 -0.022868 0.412 -0.28076 -0.11468 -0.9529
0.030406 -0.022105 0.412 -0.27386 -0.12103 -0.95412
0.030406 -0.021343 0.412 -0.26302 -0.12855 -0.95619
0.03048 -0.020631 0.413 -0.26277 -0.11807 -0.95761
0.03048 -0.019867 0.413 -0.28447 -0.12642 -0.95031
0.03048 -0.019103 0.413 -0.29142 -0.14122 -0.94611
0.03048 -0.018339 0.413 -0.32194 -0.13976 -0.93639
0.030554 -0.017617 0.414 -0.33441 -0.14665 -0.93095
0.030554 -0.016851 0.414 -0.36677 -0.1467 -0.91867
0.030554 -0.016085 0.414 -0.40932 -0.15804 -0.8986
0.030554 -0.015319 0.414 -0.45974 -0.15565 -0.87431
0.030627 -0.014588 0.415 -0.48822 -0.15798 -0.8583
0.030627 -0.013821 0.415 -0.50881 -0.1576 -0.84633
0.030701 -0.013084 0.416 -0.51857 -0.15704 -0.84049
0.030775 -0.012344 0.417 -0.5241 -0.17243 -0.83402
0.030775 -0.011573 0.417 -0.5307 -0.17671 -0.82894
0.030849 -0.010827 0.418 -0.54243 -0.17475 -0.82172
0.030849 -0.010054 0.418 -0.56438 -0.17221 -0.80736
0.030849 -0.0092803 0.418 -0.55718 -0.14227 -0.81812
0.030923 -0.0085273 0.419 -0.60848 -0.15236 -0.77881
0.030996 -0.0077706 0.42 -0.65096 -0.1847 -0.7363
0.03107 -0.0070102 0.421 -0.6932 -0.19549 -0.69372
0.031144 -0.0062461 0.422 -0.73367 -0.19513 -0.65088
0.031218 -0.0054783 0.423 -0.77922 -0.20761 -0.59136
0.031292 -0.0047068 0.424 -0.79776 -0.20763 -0.5661
0.03476 0.0060999 0.471 0.56838 -0.45841 -0.68323
0.033948 0.010213 0.46 0.68326 -0.36353 -0.63325
0.033875 0.01104 0.459 0.60897 -0.35467 -0.70949
0.033801 0.011863 0.458 0.57584 -0.31195 -0.7557
0.033727 0.012683 0.457 0.52458 -0.26368 -0.8095
0.033653 0.013499 0.456 0.45035 -0.22066 -0.86515
0.033653 0.014342 0.456 0.4664 -0.28096 -0.83877
0.033579 0.015153 0.455 0.41421 -0.23007 -0.88062
0.033579 0.015994 0.455 0.38661 -0.28602 -0.87677
0.033579 0.016836 0.455 0.34675 -0.32752 -0.87892
0.033506 0.017639 0.454 0.28917 -0.31555 -0.90377
0.033506 0.018479 0.454 0.22768 -0.31568 -0.92115
0.033506 0.020999 0.454 0.095532 -0.31284 -0.94499
0.033506 0.021839 0.454 0.054823 -0.32075 -0.94558
0.033506 0.022679 0.454 0.037464 -0.32224 -0.94592
0.033506 0.023519 0.454 0.055825 -0.32895 -0.9427
0.029956 -0.058612 0.396 -0.37333 0.18397 -0.90927
0.029956 -0.05788 0.396 -0.41312 0.12587 -0.90194
0.029956 -0.057147 0.396 -0.44812 0.091328 -0.8893
0.030031 -0.056557 0.397 -0.30003 0.23566 -0.92436
0.030031 -0.055822 0.397 -0.34732 0.18969 -0.91836
0.030031 -0.055088 0.397 -0.36515 0.16797 -0.91567
0.030031 -0.054353 0.397 -0.36934 0.16346 -0.9148
0.030107 -0.053754 0.398 -0.32378 0.2062 -0.92339
0.030107 -0.053018 0.398 -0.3187 0.19724 -0.92711
0.030107 -0.052281 0.398 -0.32638 0.19556 -0.92479
0.030183 -0.051674 0.399 -0.33957 0.19865 -0.91937
0.030183 -0.050936 0.399 -0.35128 0.19872 -0.91494
0.030183 -0.050198 0.399 -0.35674 0.1973 -0.91313
0.030183 -0.04946 0.399 -0.36095 0.18816 -0.91341
0.030258 -0.048844 0.4 -0.37635 0.18258 -0.90831
0.030258 -0.048104 0.4 -0.39627 0.19057 -0.89814
0.030258 -0.047364 0.4 -0.41887 0.18752 -0.88847
0.030334 -0.04674 0.401 -0.44019 0.18967 -0.87765
0.030334 -0.045998 0.401 -0.46822 0.19215 -0.86247
0.030334 -0.045256 0.401 -0.48456 0.18204 -0.8556
0.03041 -0.044625 0.402 -0.49264 0.16977 -0.85351
0.03041 -0.043882 0.402 -0.48746 0.16299 -0.8578
0.030485 -0.043245 0.403 -0.48752 0.15062 -0.86002
0.030561 -0.042605 0.404 -0.4944 0.14222 -0.85752
0.030561 -0.041858 0.404 -0.5224 0.13861 -0.84136
0.030561 -0.04111 0.404 -0.55661 0.13151 -0.8203
0.030561 -0.040363 0.404 -0.56979 0.094577 -0.81633
0.030561 -0.039615 0.404 -0.51266 0.064165 -0.85619
0.030637 -0.038964 0.405 -0.63623 0.086765 -0.76661
0.030788 -0.038403 0.407 -0.66198 0.059045 -0.74719
0.030863 -0.037743 0.408 -0.66215 0.054822 -0.74736
0.030863 -0.036988 0.408 -0.63943 0.047888 -0.76736
0.030939 -0.036322 0.409 -0.56094 0.048324 -0.82644
0.030939 -0.035565 0.409 -0.50315 0.03301 -0.86357
0.031015 -0.034894 0.41 -0.40545 0.0099587 -0.91406
0.031015 -0.034135 0.41 -0.3207 -0.022696 -0.94691
0.031015 -0.033377 0.41 -0.24539 -0.049576 -0.96816
0.031015 -0.032618 0.41 -0.21909 -0.065758 -0.97349
0.031015 -0.031859 0.41 -0.19452 -0.071412 -0.97829
0.031015 -0.031101 0.41 -0.1634 -0.071824 -0.98394
0.031015 -0.030342 0.41 -0.1758 -0.080173 -0.98116
0.031015 -0.029584 0.41 -0.18385 -0.094868 -0.97837
0.03109 -0.028895 0.411 -0.1976 -0.10382 -0.97477
0.03109 -0.028135 0.411 -0.22482 -0.10736 -0.96847
0.03109 -0.027375 0.411 -0.23481 -0.1071 -0.96612
0.03109 -0.026614 0.411 -0.24472 -0.10683 -0.96369
0.03109 -0.025854 0.411 -0.23881 -0.10596 -0.96527
0.031166 -0.025154 0.412 -0.23204 -0.11622 -0.96574
0.031166 -0.024392 0.412 -0.26218 -0.1245 -0.95695
0.031166 -0.02363 0.412 -0.27801 -0.13811 -0.9506
0.031166 -0.022868 0.412 -0.27951 -0.14811 -0.94865
0.031166 -0.022105 0.412 -0.2727 -0.15143 -0.95011
0.031242 -0.021395 0.413 -0.26607 -0.15838 -0.95085
0.031242 -0.020631 0.413 -0.26532 -0.1534 -0.95188
0.031242 -0.019867 0.413 -0.28597 -0.15843 -0.94505
0.031242 -0.019103 0.413 -0.29646 -0.17271 -0.9393
0.031317 -0.018383 0.414 -0.32417 -0.17067 -0.93048
0.031317 -0.017617 0.414 -0.33965 -0.17932 -0.9233
0.031317 -0.016851 0.414 -0.36955 -0.17146 -0.91325
0.031317 -0.016085 0.414 -0.41327 -0.18103 -0.89243
0.031393 -0.015356 0.415 -0.46271 -0.18121 -0.86779
0.031393 -0.014588 0.415 -0.49143 -0.18504 -0.85103
0.031469 -0.013854 0.416 -0.51337 -0.18535 -0.83791
0.031469 -0.013084 0.416 -0.52557 -0.18629 -0.8301
0.031544 -0.012344 0.417 -0.53194 -0.20091 -0.8226
0.031544 -0.011573 0.417 -0.53354 -0.20509 -0.82053
0.03162 -0.010827 0.418 -0.54747 -0.20621 -0.81102
0.03162 -0.010054 0.418 -0.56327 -0.19524 -0.80287
0.031696 -0.0093025 0.419 -0.59936 -0.19701 -0.77586
0.031696 -0.0085273 0.419 -0.59339 -0.17218 -0.78629
0.031771 -0.0077706 0.42 -0.63945 -0.20484 -0.74105
0.031847 -0.0070102 0.421 -0.67712 -0.21731 -0.70306
0.031923 -0.0062461 0.422 -0.70891 -0.21692 -0.67111
0.031998 -0.0054783 0.423 -0.7512 -0.22788 -0.6195
0.032074 -0.0047068 0.424 -0.76546 -0.22658 -0.60228
0.035856 0.0043848 0.474 0.47339 -0.29467 -0.8301
0.03578 0.0052507 0.473 0.37817 -0.35675 -0.85423
0.035705 0.0061129 0.472 0.46551 -0.40325 -0.78784
0.034873 0.010235 0.461 0.72931 -0.41488 -0.54404
0.034797 0.011064 0.46 0.66518 -0.44365 -0.60059
0.034646 0.011863 0.458 0.5632 -0.26164 -0.78381
0.034646 0.01271 0.458 0.56928 -0.35646 -0.74085
0.03457 0.013528 0.457 0.50726 -0.31701 -0.80137
0.034494 0.014342 0.456 0.44409 -0.25387 -0.85926
0.034494 0.015186 0.456 0.43738 -0.32738 -0.83757
0.034419 0.015994 0.455 0.38706 -0.2738 -0.88046
0.034419 0.016836 0.455 0.34814 -0.34471 -0.87176
0.034419 0.017678 0.455 0.24071 -0.38405 -0.89138
0.034343 0.018479 0.454 0.23126 -0.33238 -0.91435
0.034343 0.020999 0.454 0.14558 -0.33294 -0.93164
0.034343 0.021839 0.454 0.12609 -0.33959 -0.93208
0.034343 0.022679 0.454 0.10753 -0.33477 -0.93614
0.030221 -0.06494 0.39 -0.3691 -0.60557 -0.70502
0.030531 -0.061961 0.394 -0.44515 0.051313 -0.89399
0.030609 -0.058464 0.395 -0.49062 -0.057344 -0.86948
0.030686 -0.05788 0.396 -0.39211 0.11836 -0.91227
0.030686 -0.057147 0.396 -0.41393 0.087885 -0.90605
0.030764 -0.056557 0.397 -0.29282 0.21465 -0.93176
0.030764 -0.055822 0.397 -0.33952 0.17134 -0.92486
0.030764 -0.055088 0.397 -0.35126 0.15044 -0.92411
0.030764 -0.054353 0.397 -0.34767 0.14694 -0.92603
0.030764 -0.053619 0.397 -0.3525 0.14421 -0.92463
0.030841 -0.053018 0.398 -0.31993 0.16545 -0.93288
0.030841 -0.052281 0.398 -0.32319 0.16219 -0.93233
0.030841 -0.051545 0.398 -0.33966 0.16624 -0.92574
0.030919 -0.050936 0.399 -0.35611 0.16675 -0.91944
0.030919 -0.050198 0.399 -0.35695 0.16769 -0.91895
0.030919 -0.04946 0.399 -0.35647 0.16074 -0.92038
0.030996 -0.048844 0.4 -0.37306 0.15229 -0.91522
0.030996 -0.048104 0.4 -0.39497 0.16159 -0.90437
0.030996 -0.047364 0.4 -0.41539 0.15709 -0.89598
0.031074 -0.04674 0.401 -0.43462 0.15994 -0.8863
0.031074 -0.045998 0.401 -0.46898 0.1662 -0.86743
0.031074 -0.045256 0.401 -0.49069 0.1612 -0.85629
0.031151 -0.044625 0.402 -0.50016 0.14698 -0.85337
0.031151 -0.043882 0.402 -0.49265 0.1319 -0.86017
0.031229 -0.043245 0.403 -0.49795 0.11247 -0.85988
0.031229 -0.0425 0.403 -0.50276 0.10275 -0.8583
0.031306 -0.041858 0.404 -0.52702 0.097085 -0.84429
0.031306 -0.04111 0.404 -0.56132 0.097233 -0.82186
0.031306 -0.040363 0.404 -0.58012 0.061351 -0.81222
0.031384 -0.039713 0.405 -0.63456 0.076344 -0.76909
0.031384 -0.038964 0.405 -0.64309 0.059235 -0.76349
0.031461 -0.038309 0.406 -0.67094 0.034228 -0.74072
0.031539 -0.03765 0.407 -0.67332 0.026761 -0.73887
0.031616 -0.036988 0.408 -0.65461 0.019857 -0.75571
0.031694 -0.036322 0.409 -0.58127 0.028591 -0.81321
0.031694 -0.035565 0.409 -0.5275 0.011133 -0.84948
0.031771 -0.034894 0.41 -0.43083 -0.0078653 -0.9024
0.031771 -0.034135 0.41 -0.34256 -0.036821 -0.93877
0.031771 -0.033377 0.41 -0.25991 -0.069257 -0.96315
0.031771 -0.032618 0.41 -0.22383 -0.084628 -0.97095
0.031771 -0.031859 0.41 -0.19927 -0.094577 -0.97537
0.031771 -0.031101 0.41 -0.16716 -0.10045 -0.9808
0.031849 -0.030416 0.411 -0.17696 -0.10949 -0.97811
0.031849 -0.029656 0.411 -0.18177 -0.12509 -0.97535
0.031849 -0.028895 0.411 -0.19806 -0.1278 -0.97182
0.031849 -0.028135 0.411 -0.2272 -0.13007 -0.96512
0.031849 -0.027375 0.411 -0.23912 -0.12969 -0.96229
0.031849 -0.026614 0.411 -0.25093 -0.12929 -0.95933
0.031849 -0.025854 0.411 -0.247 -0.12942 -0.96033
0.031926 -0.025154 0.412 -0.24127 -0.13749 -0.96067
0.031926 -0.024392 0.412 -0.26515 -0.14874 -0.95267
0.031926 -0.02363 0.412 -0.28002 -0.1581 -0.94689
0.031926 -0.022868 0.412 -0.28069 -0.16405 -0.94568
0.031926 -0.022105 0.412 -0.2776 -0.16918 -0.94568
0.032004 -0.021395 0.413 -0.27387 -0.17491 -0.94573
0.032004 -0.020631 0.413 -0.27007 -0.17511 -0.94678
0.032004 -0.019867 0.413 -0.29226 -0.18178 -0.9389
0.032081 -0.019149 0.414 -0.30285 -0.19429 -0.93302
0.032081 -0.018383 0.414 -0.33054 -0.19718 -0.92296
0.032081 -0.017617 0.414 -0.34478 -0.20649 -0.91569
0.032081 -0.016851 0.414 -0.37752 -0.20092 -0.90394
0.032159 -0.016124 0.415 -0.4181 -0.20752 -0.88438
0.032159 -0.015356 0.415 -0.46505 -0.21013 -0.85999
0.032159 -0.014588 0.415 -0.49047 -0.21456 -0.84463
0.032236 -0.013854 0.416 -0.5128 -0.21508 -0.83113
0.032236 -0.013084 0.416 -0.52531 -0.21732 -0.82269
0.032314 -0.012344 0.417 -0.53158 -0.22968 -0.81527
0.032391 -0.0116 0.418 -0.53864 -0.23835 -0.80812
0.032391 -0.010827 0.418 -0.54733 -0.23265 -0.80393
0.032391 -0.010054 0.418 -0.5558 -0.21375 -0.80336
0.032469 -0.0093025 0.419 -0.59121 -0.21285 -0.77793
0.032469 -0.0085273 0.419 -0.57107 -0.17385 -0.80228
0.032546 -0.0077706 0.42 -0.62891 -0.21762 -0.7464
0.032624 -0.0070102 0.421 -0.66365 -0.23448 -0.71034
0.032701 -0.0062461 0.422 -0.68733 -0.23798 -0.68625
0.032856 -0.0054912 0.424 -0.81304 -0.24774 -0.52686
0.032934 -0.0047179 0.425 -0.81873 -0.24937 -0.5172
0.036731 0.0043848 0.474 0.53466 -0.23723 -0.81109
0.036731 0.0052618 0.474 0.093331 -0.24953 -0.96386
0.036653 0.0061258 0.473 0.29661 -0.33226 -0.89534
0.035491 0.01271 0.458 0.5664 -0.30069 -0.76732
0.035413 0.013528 0.457 0.48147 -0.26849 -0.83433
0.035413 0.014374 0.457 0.4847 -0.35761 -0.79824
0.035336 0.015186 0.456 0.42654 -0.29354 -0.85551
0.035336 0.01603 0.456 0.38662 -0.37392 -0.84304
0.035258 0.016836 0.455 0.3521 -0.31888 -0.87997
0.035258 0.017678 0.455 0.23657 -0.364 -0.90085
0.035258 0.01852 0.455 0.18909 -0.37809 -0.90625
0.035258 0.021887 0.455 0.026439 -0.42567 -0.90449
0.035258 0.022729 0.455 -0.03641 -0.41395 -0.90957
0.030862 -0.069092 0.389 -0.23369 -0.60615 -0.76025
0.030862 -0.068372 0.389 -0.29366 -0.61429 -0.7324
0.03102 -0.065106 0.391 -0.38483 -0.46587 -0.79678
0.03102 -0.064383 0.391 -0.38001 -0.51591 -0.76774
0.031258 -0.061961 0.394 -0.43348 0.0030365 -0.90116
0.031258 -0.061232 0.394 -0.43191 -0.090126 -0.8974
0.031417 -0.058612 0.396 -0.35984 0.14866 -0.9211
0.031417 -0.05788 0.396 -0.38135 0.096669 -0.91936
0.031417 -0.057147 0.396 -0.38735 0.070003 -0.91927
0.031496 -0.056557 0.397 -0.29458 0.17546 -0.93938
0.031496 -0.055822 0.397 -0.33573 0.13599 -0.93209
0.031496 -0.055088 0.397 -0.34306 0.12014 -0.9316
0.031496 -0.054353 0.397 -0.3352 0.12074 -0.93438
0.031496 -0.053619 0.397 -0.34382 0.11473 -0.932
0.031576 -0.053018 0.398 -0.32176 0.12868 -0.93804
0.031576 -0.052281 0.398 -0.32486 0.12727 -0.93716
0.031576 -0.051545 0.398 -0.33858 0.1338 -0.93138
0.031655 -0.050936 0.399 -0.35784 0.1355 -0.9239
0.031655 -0.050198 0.399 -0.36129 0.13834 -0.92213
0.031655 -0.04946 0.399 -0.3534 0.13371 -0.92587
0.031734 -0.048844 0.4 -0.37263 0.12729 -0.91921
0.031734 -0.048104 0.4 -0.39303 0.13708 -0.90925
0.031734 -0.047364 0.4 -0.41256 0.1358 -0.90075
0.031734 -0.046623 0.4 -0.42798 0.13961 -0.89294
0.031814 -0.045998 0.401 -0.46154 0.15472 -0.87353
0.031814 -0.045256 0.401 -0.48756 0.15505 -0.85921
0.031893 -0.044625 0.402 -0.50497 0.13914 -0.85185
0.031893 -0.043882 0.402 -0.50016 0.1266 -0.85663
0.031893 -0.043138 0.402 -0.51196 0.10609 -0.85243
0.031972 -0.0425 0.403 -0.52087 0.089394 -0.84894
0.032052 -0.041858 0.404 -0.5408 0.086955 -0.83664
0.032052 -0.04111 0.404 -0.574 0.089102 -0.81399
0.032052 -0.040363 0.404 -0.59579 0.059368 -0.80094
0.032131 -0.039713 0.405 -0.6383 0.071853 -0.76643
0.03221 -0.03906 0.406 -0.64948 0.051748 -0.75861
0.03221 -0.038309 0.406 -0.67271 0.034966 -0.73908
0.03229 -0.03765 0.407 -0.6765 0.021006 -0.73614
0.032369 -0.036988 0.408 -0.66126 0.011497 -0.75007
0.032448 -0.036322 0.409 -0.59367 0.021549 -0.80442
0.032448 -0.035565 0.409 -0.54402 -0.0009164 -0.83907
0.032528 -0.034894 0.41 -0.45366 -0.013591 -0.89107
0.032528 -0.034135 0.41 -0.3657 -0.041534 -0.92981
0.032528 -0.033377 0.41 -0.28497 -0.07703 -0.95544
0.032528 -0.032618 0.41 -0.24159 -0.095738 -0.96564
0.032528 -0.031859 0.41 -0.207 -0.11433 -0.97164
0.032607 -0.031177 0.411 -0.16838 -0.12434 -0.97785
0.032607 -0.030416 0.411 -0.17731 -0.13976 -0.97418
0.032607 -0.029656 0.411 -0.18114 -0.15 -0.97195
0.032607 -0.028895 0.411 -0.20144 -0.15145 -0.96772
0.032607 -0.028135 0.411 -0.22845 -0.15257 -0.96153
0.032607 -0.027375 0.411 -0.23835 -0.1522 -0.95918
0.032607 -0.026614 0.411 -0.24817 -0.15182 -0.95675
0.032686 -0.025917 0.412 -0.24171 -0.15273 -0.95826
0.032686 -0.025154 0.412 -0.24543 -0.15763 -0.95651
0.032686 -0.024392 0.412 -0.2673 -0.1657 -0.94926
0.032686 -0.02363 0.412 -0.28035 -0.17102 -0.94454
0.032766 -0.022923 0.413 -0.28316 -0.17738 -0.94253
0.032766 -0.022159 0.413 -0.28191 -0.18335 -0.94176
0.032766 -0.021395 0.413 -0.27982 -0.18739 -0.94159
0.032766 -0.020631 0.413 -0.27699 -0.18755 -0.94239
0.032845 -0.019915 0.414 -0.29918 -0.19453 -0.93416
0.032845 -0.019149 0.414 -0.31032 -0.20531 -0.9282
0.032845 -0.018383 0.414 -0.33654 -0.21186 -0.91753
0.032845 -0.017617 0.414 -0.34883 -0.2211 -0.91073
0.032845 -0.016851 0.414 -0.38355 -0.21787 -0.89745
0.032924 -0.016124 0.415 -0.42144 -0.22149 -0.87939
0.032924 -0.015356 0.415 -0.46481 -0.22577 -0.85614
0.033004 -0.014623 0.416 -0.49336 -0.22888 -0.83917
0.033004 -0.013854 0.416 -0.51611 -0.23032 -0.82498
0.033083 -0.013116 0.417 -0.52998 -0.23722 -0.81416
0.033083 -0.012344 0.417 -0.536 -0.2465 -0.80743
0.033162 -0.0116 0.418 -0.54378 -0.25328 -0.8001
0.033162 -0.010827 0.418 -0.54782 -0.2445 -0.80007
0.033242 -0.010078 0.419 -0.58417 -0.25095 -0.77186
0.033242 -0.0093025 0.419 -0.58097 -0.22292 -0.7828
0.033321 -0.0085476 0.42 -0.64095 -0.24534 -0.72732
0.033321 -0.0077706 0.42 -0.5975 -0.23481 -0.76672
0.0334 -0.0070102 0.421 -0.63209 -0.25116 -0.73306
0.033559 -0.0062609 0.423 -0.75448 -0.27096 -0.59777
0.033638 -0.0054912 0.424 -0.78495 -0.27237 -0.55648
0.033718 -0.0047179 0.425 -0.78662 -0.26945 -0.55554
0.037685 -0.00087882 0.475 0.20721 -0.33225 -0.92015
0.037605 0.0043848 0.474 0.33742 -0.21498 -0.91648
0.037605 0.0052618 0.474 0.27744 -0.19332 -0.94109
0.036256 0.014374 0.457 0.47452 -0.29429 -0.82959
0.036256 0.015219 0.457 0.45033 -0.40315 -0.79666
0.036177 0.01603 0.456 0.38664 -0.3301 -0.86113
0.036177 0.016873 0.456 0.33345 -0.40814 -0.84984
0.036098 0.017678 0.455 0.21754 -0.27906 -0.93531
0.036098 0.01852 0.455 0.19067 -0.31099 -0.93109
0.036098 0.021887 0.455 0.093431 -0.37991 -0.92029
0.031661 -0.069269 0.39 -0.14988 -0.57227 -0.80625
0.031661 -0.068548 0.39 -0.23499 -0.55985 -0.79458
0.031661 -0.067826 0.39 -0.25198 -0.58162 -0.77345
0.031661 -0.067105 0.39 -0.25611 -0.61654 -0.7445
0.031742 -0.066553 0.391 -0.26983 -0.47364 -0.83837
0.031742 -0.06583 0.391 -0.28805 -0.52281 -0.80231
0.031823 -0.065273 0.392 -0.37373 -0.30076 -0.87742
0.031823 -0.064548 0.392 -0.37157 -0.34375 -0.86242
0.031823 -0.063822 0.392 -0.37179 -0.40344 -0.83607
0.031904 -0.063258 0.393 -0.40787 -0.1936 -0.89228
0.031985 -0.06269 0.394 -0.42033 0.043067 -0.90635
0.031985 -0.061961 0.394 -0.42034 -0.049336 -0.90603
0.031985 -0.061232 0.394 -0.42196 -0.11887 -0.89879
0.031985 -0.060503 0.394 -0.41623 -0.18243 -0.89077
0.032066 -0.059926 0.395 -0.37641 0.023298 -0.92616
0.032066 -0.059195 0.395 -0.42185 -0.035025 -0.90599
0.032148 -0.058612 0.396 -0.36706 0.098074 -0.92501
0.032148 -0.05788 0.396 -0.37874 0.059016 -0.92362
0.032148 -0.057147 0.396 -0.36784 0.038023 -0.92911
0.032148 -0.056414 0.396 -0.38359 0.0277 -0.92309
0.032229 -0.055822 0.397 -0.33383 0.082295 -0.93903
0.032229 -0.055088 0.397 -0.33421 0.07306 -0.93966
0.032229 -0.054353 0.397 -0.32576 0.082422 -0.94185
0.032229 -0.053619 0.397 -0.3395 0.080074 -0.93719
0.03231 -0.053018 0.398 -0.32443 0.08564 -0.94203
0.03231 -0.052281 0.398 -0.33089 0.090663 -0.9393
0.03231 -0.051545 0.398 -0.3444 0.10471 -0.93296
0.03231 -0.050809 0.398 -0.35963 0.11331 -0.92619
0.032391 -0.050198 0.399 -0.36315 0.11796 -0.92423
0.032391 -0.04946 0.399 -0.35031 0.12165 -0.9287
0.032391 -0.048722 0.399 -0.36562 0.12291 -0.92261
0.032472 -0.048104 0.4 -0.38207 0.13177 -0.91469
0.032472 -0.047364 0.4 -0.39925 0.13271 -0.90719
0.032472 -0.046623 0.4 -0.41367 0.1308 -0.90098
0.032554 -0.045998 0.401 -0.452 0.14796 -0.87966
0.032554 -0.045256 0.401 -0.48256 0.15368 -0.86227
0.032554 -0.044514 0.401 -0.50883 0.13727 -0.84985
0.032635 -0.043882 0.402 -0.51026 0.12296 -0.85118
0.032635 -0.043138 0.402 -0.52413 0.097767 -0.84601
0.032716 -0.0425 0.403 -0.53765 0.075398 -0.83979
0.032797 -0.041858 0.404 -0.55755 0.071329 -0.82708
0.032797 -0.04111 0.404 -0.58671 0.071352 -0.80665
0.032797 -0.040363 0.404 -0.61011 0.049665 -0.79076
0.032878 -0.039713 0.405 -0.64492 0.055486 -0.76223
0.032878 -0.038964 0.405 -0.64993 0.044998 -0.75866
0.033041 -0.038403 0.407 -0.67293 0.023532 -0.73934
0.033041 -0.03765 0.407 -0.67883 0.0048354 -0.73428
0.033122 -0.036988 0.408 -0.66679 -0.0065271 -0.74521
0.033203 -0.036322 0.409 -0.60498 0.0041713 -0.79623
0.033203 -0.035565 0.409 -0.55851 -0.021735 -0.82921
0.033284 -0.034894 0.41 -0.47402 -0.027806 -0.88007
0.033284 -0.034135 0.41 -0.39047 -0.058059 -0.91878
0.033284 -0.033377 0.41 -0.31101 -0.093768 -0.94577
0.033284 -0.032618 0.41 -0.25982 -0.11388 -0.95892
0.033284 -0.031859 0.41 -0.22061 -0.13368 -0.96616
0.033365 -0.031177 0.411 -0.17609 -0.14704 -0.97333
0.033365 -0.030416 0.411 -0.17771 -0.16245 -0.97058
0.033365 -0.029656 0.411 -0.1796 -0.16752 -0.96937
0.033365 -0.028895 0.411 -0.20296 -0.16674 -0.96489
0.033365 -0.028135 0.411 -0.22693 -0.16685 -0.95951
0.033365 -0.027375 0.411 -0.23385 -0.16657 -0.9579
0.033446 -0.026679 0.412 -0.24021 -0.16592 -0.95644
0.033446 -0.025917 0.412 -0.24208 -0.16785 -0.95563
0.033446 -0.025154 0.412 -0.25368 -0.16934 -0.95235
0.033446 -0.024392 0.412 -0.27261 -0.1744 -0.94619
0.033446 -0.02363 0.412 -0.28293 -0.17583 -0.94288
0.033528 -0.022923 0.413 -0.28759 -0.18204 -0.94029
0.033528 -0.022159 0.413 -0.28727 -0.18793 -0.93923
0.033528 -0.021395 0.413 -0.28534 -0.18902 -0.9396
0.033528 -0.020631 0.413 -0.28688 -0.19478 -0.93796
0.033609 -0.019915 0.414 -0.30785 -0.20165 -0.92982
0.033609 -0.019149 0.414 -0.31723 -0.20957 -0.9249
0.033609 -0.018383 0.414 -0.34035 -0.21904 -0.91443
0.033609 -0.017617 0.414 -0.35471 -0.22243 -0.90813
0.033609 -0.016851 0.414 -0.39055 -0.22173 -0.89348
0.03369 -0.016124 0.415 -0.42524 -0.22195 -0.87745
0.03369 -0.015356 0.415 -0.46462 -0.22752 -0.85578
0.033771 -0.014623 0.416 -0.49667 -0.22922 -0.83713
0.033771 -0.013854 0.416 -0.52119 -0.23521 -0.82039
0.033852 -0.013116 0.417 -0.536 -0.2465 -0.80743
0.033852 -0.012344 0.417 -0.5401 -0.25122 -0.80324
0.033934 -0.0116 0.418 -0.5509 -0.25977 -0.79311
0.033934 -0.010827 0.418 -0.54874 -0.24828 -0.79827
0.034015 -0.010078 0.419 -0.58649 -0.25534 -0.76866
0.034015 -0.0093025 0.419 -0.56685 -0.22618 -0.79216
0.034096 -0.0085476 0.42 -0.63307 -0.24584 -0.73402
0.034096 -0.0077706 0.42 -0.56549 -0.23559 -0.79039
0.034177 -0.0070102 0.421 -0.59787 -0.25062 -0.7614
0.034339 -0.0062609 0.423 -0.72544 -0.28106 -0.62829
0.034421 -0.0054912 0.424 -0.75269 -0.27749 -0.59704
0.03848 0.0043848 0.474 0.27945 -0.22318 -0.93386
0.03848 0.0052618 0.474 0.27723 -0.20265 -0.93919
0.037181 0.015253 0.458 0.4691 -0.51098 -0.72031
0.0371 0.016065 0.457 0.39722 -0.45041 -0.79959
0.037018 0.016873 0.456 0.32385 -0.33217 -0.88588
0.037018 0.017717 0.456 0.21252 -0.38717 -0.89718
0.037018 0.019404 0.456 0.13088 -0.45415 -0.88126
0.037018 0.020248 0.456 0.087434 -0.47466 -0.87581
0.037018 0.021935 0.456 0.0010439 -0.50439 -0.86348
0.032463 -0.069447 0.391 -0.025092 -0.51256 -0.85828
0.03238 -0.068548 0.39 -0.31328 -0.56702 -0.7618
0.032463 -0.068 0.391 -0.189 -0.48435 -0.85421
0.032463 -0.067277 0.391 -0.23579 -0.5036 -0.83114
0.032463 -0.066553 0.391 -0.25793 -0.53481 -0.80464
0.032546 -0.065998 0.392 -0.29994 -0.36704 -0.88052
0.032546 -0.065273 0.392 -0.34946 -0.37824 -0.85721
0.032546 -0.064548 0.392 -0.35575 -0.40054 -0.8444
0.032629 -0.063985 0.393 -0.37748 -0.21234 -0.90134
0.032629 -0.063258 0.393 -0.38813 -0.25839 -0.88464
0.032712 -0.06269 0.394 -0.40831 -0.058564 -0.91096
0.032712 -0.061961 0.394 -0.40949 -0.12527 -0.90367
0.032712 -0.061232 0.394 -0.41133 -0.16287 -0.89682
0.032712 -0.060503 0.394 -0.40995 -0.18642 -0.89286
0.032795 -0.059926 0.395 -0.37564 -0.025253 -0.92642
0.032795 -0.059195 0.395 -0.41228 -0.059581 -0.90911
0.032795 -0.058464 0.395 -0.43052 -0.08006 -0.89902
0.032878 -0.05788 0.396 -0.37296 0.013224 -0.92775
0.032878 -0.057147 0.396 -0.35974 -0.00070146 -0.93305
0.032878 -0.056414 0.396 -0.36593 -0.0064972 -0.93062
0.032961 -0.055822 0.397 -0.33008 0.024506 -0.94363
0.032961 -0.055088 0.397 -0.32575 0.025113 -0.94512
0.032961 -0.054353 0.397 -0.31587 0.040186 -0.94795
0.032961 -0.053619 0.397 -0.33368 0.040269 -0.94183
0.032961 -0.052884 0.397 -0.32036 0.040466 -0.94643
0.033044 -0.052281 0.398 -0.32806 0.049762 -0.94334
0.033044 -0.051545 0.398 -0.34464 0.065165 -0.93647
0.033044 -0.050809 0.398 -0.35351 0.079502 -0.93205
0.033127 -0.050198 0.399 -0.35618 0.086455 -0.93041
0.033127 -0.04946 0.399 -0.34756 0.098134 -0.93251
0.033127 -0.048722 0.399 -0.35823 0.10593 -0.9276
0.03321 -0.048104 0.4 -0.37566 0.11906 -0.91908
0.03321 -0.047364 0.4 -0.38953 0.12133 -0.91299
0.03321 -0.046623 0.4 -0.40592 0.1184 -0.90621
0.03321 -0.045883 0.4 -0.44819 0.13616 -0.88351
0.033293 -0.045256 0.401 -0.48083 0.14732 -0.86435
0.033293 -0.044514 0.401 -0.5096 0.13628 -0.84955
0.033376 -0.043882 0.402 -0.52102 0.11651 -0.84556
0.033376 -0.043138 0.402 -0.53841 0.093984 -0.83743
0.033459 -0.0425 0.403 -0.55719 0.072436 -0.82722
0.033542 -0.041858 0.404 -0.5744 0.066753 -0.81585
0.033542 -0.04111 0.404 -0.59733 0.065401 -0.79932
0.033625 -0.040463 0.405 -0.6267 0.055724 -0.77727
0.033625 -0.039713 0.405 -0.64957 0.047704 -0.7588
0.033708 -0.03906 0.406 -0.66 0.032207 -0.75058
0.033708 -0.038309 0.406 -0.67421 0.017336 -0.73834
0.033792 -0.03765 0.407 -0.68226 -0.011233 -0.73103
0.033875 -0.036988 0.408 -0.66882 -0.027655 -0.74291
0.033958 -0.036322 0.409 -0.62113 -0.027386 -0.78323
0.033958 -0.035565 0.409 -0.57207 -0.04918 -0.81873
0.034041 -0.034894 0.41 -0.49811 -0.058439 -0.86514
0.034041 -0.034135 0.41 -0.41622 -0.088732 -0.90492
0.034041 -0.033377 0.41 -0.33482 -0.12215 -0.93433
0.034041 -0.032618 0.41 -0.2724 -0.14204 -0.95164
0.034124 -0.031937 0.411 -0.22414 -0.16189 -0.96102
0.034124 -0.031177 0.411 -0.17637 -0.17273 -0.96905
0.034124 -0.030416 0.411 -0.17403 -0.18197 -0.96778
0.034124 -0.029656 0.411 -0.17693 -0.18694 -0.96631
0.034124 -0.028895 0.411 -0.20035 -0.18306 -0.96247
0.034124 -0.028135 0.411 -0.22454 -0.17705 -0.95825
0.034124 -0.027375 0.411 -0.22652 -0.17697 -0.9578
0.034207 -0.026679 0.412 -0.2388 -0.17602 -0.95498
0.034207 -0.025917 0.412 -0.24648 -0.17867 -0.95254
0.034207 -0.025154 0.412 -0.26391 -0.17682 -0.9482
0.03429 -0.024451 0.413 -0.27746 -0.17867 -0.94398
0.03429 -0.023687 0.413 -0.28764 -0.18106 -0.94047
0.03429 -0.022923 0.413 -0.29199 -0.18668 -0.93803
0.03429 -0.022159 0.413 -0.28984 -0.19168 -0.93768
0.03429 -0.021395 0.413 -0.28622 -0.18995 -0.93915
0.034373 -0.020681 0.414 -0.29051 -0.20088 -0.93555
0.034373 -0.019915 0.414 -0.31019 -0.20722 -0.92781
0.034373 -0.019149 0.414 -0.32124 -0.21589 -0.92206
0.034373 -0.018383 0.414 -0.34528 -0.22234 -0.91178
0.034456 -0.01766 0.415 -0.36399 -0.22383 -0.90411
0.034456 -0.016892 0.415 -0.39904 -0.22575 -0.88871
0.034456 -0.016124 0.415 -0.43317 -0.22631 -0.87244
0.034539 -0.015393 0.416 -0.47325 -0.23095 -0.85012
0.034539 -0.014623 0.416 -0.507 -0.23095 -0.83043
0.034622 -0.013887 0.417 -0.53017 -0.2404 -0.8131
0.034622 -0.013116 0.417 -0.54134 -0.25101 -0.80246
0.034705 -0.012374 0.418 -0.54858 -0.26293 -0.79368
0.034705 -0.0116 0.418 -0.55405 -0.2652 -0.78911
0.034788 -0.010853 0.419 -0.57457 -0.27395 -0.77125
0.034788 -0.010078 0.419 -0.58221 -0.25371 -0.77244
0.034871 -0.0093247 0.42 -0.63402 -0.2588 -0.72872
0.034871 -0.0085476 0.42 -0.61403 -0.22895 -0.75534
0.034954 -0.0077891 0.421 -0.63755 -0.24239 -0.73128
0.035037 -0.0070268 0.422 -0.66231 -0.2527 -0.70533
0.035203 -0.0062757 0.424 -0.78025 -0.29854 -0.54962
0.035203 -0.0054912 0.424 -0.71711 -0.25877 -0.64713
0.039437 0.0035153 0.475 0.36701 -0.16976 -0.91459
0.039354 0.0043848 0.474 0.20702 -0.25912 -0.9434
0.039354 0.0052618 0.474 0.19654 -0.24779 -0.94867
0.037943 0.016065 0.457 0.37936 -0.36148 -0.85171
0.037943 0.01691 0.457 0.3152 -0.43771 -0.84205
0.03786 0.017717 0.456 0.201 -0.26785 -0.94226
0.03786 0.020248 0.456 0.14479 -0.41764 -0.897
0.03786 0.021092 0.456 0.11551 -0.44794 -0.88657
0.03786 0.021935 0.456 0.091524 -0.47242 -0.87661
0.033185 -0.069447 0.391 -0.13992 -0.50345 -0.85262
0.033185 -0.068723 0.391 -0.21188 -0.49478 -0.84279
0.033185 -0.068 0.391 -0.24605 -0.50628 -0.82652
0.033269 -0.067449 0.392 -0.17103 -0.39512 -0.90257
0.033269 -0.066723 0.392 -0.24159 -0.40494 -0.88185
0.033269 -0.065998 0.392 -0.27671 -0.4157 -0.86639
0.033269 -0.065273 0.392 -0.33479 -0.40397 -0.85131
0.033269 -0.064548 0.392 -0.34767 -0.40741 -0.84448
0.033354 -0.063985 0.393 -0.36334 -0.26759 -0.8924
0.033354 -0.063258 0.393 -0.37595 -0.2935 -0.87893
0.033439 -0.06269 0.394 -0.39426 -0.15102 -0.9065
0.033439 -0.061961 0.394 -0.39747 -0.18257 -0.89927
0.033439 -0.061232 0.394 -0.40531 -0.17958 -0.89637
0.033439 -0.060503 0.394 -0.39926 -0.17689 -0.89961
0.033524 -0.059926 0.395 -0.37371 -0.064443 -0.9253
0.033524 -0.059195 0.395 -0.40021 -0.077665 -0.91312
0.033524 -0.058464 0.395 -0.40869 -0.085803 -0.90863
0.033609 -0.05788 0.396 -0.36554 -0.024822 -0.93046
0.033609 -0.057147 0.396 -0.34816 -0.033896 -0.93682
0.033609 -0.056414 0.396 -0.3488 -0.032692 -0.93663
0.033694 -0.055822 0.397 -0.32984 -0.010366 -0.94398
0.033694 -0.055088 0.397 -0.31966 -0.0042645 -0.94752
0.033694 -0.054353 0.397 -0.30707 0.012849 -0.9516
0.033694 -0.053619 0.397 -0.32823 0.012753 -0.94451
0.033694 -0.052884 0.397 -0.31771 0.012801 -0.9481
0.033779 -0.052281 0.398 -0.32361 0.025478 -0.94585
0.033779 -0.051545 0.398 -0.33949 0.041133 -0.93971
0.033779 -0.050809 0.398 -0.34395 0.05366 -0.93745
0.033863 -0.050198 0.399 -0.34301 0.062955 -0.93722
0.033863 -0.04946 0.399 -0.33602 0.081934 -0.93828
0.033863 -0.048722 0.399 -0.34951 0.094961 -0.93211
0.033863 -0.047983 0.399 -0.37169 0.10635 -0.92225
0.033948 -0.047364 0.4 -0.38376 0.1146 -0.91629
0.033948 -0.046623 0.4 -0.39496 0.11602 -0.91134
0.033948 -0.045883 0.4 -0.43892 0.13201 -0.88878
0.034033 -0.045256 0.401 -0.4741 0.14793 -0.86795
0.034033 -0.044514 0.401 -0.50568 0.14218 -0.85093
0.034118 -0.043882 0.402 -0.52329 0.12367 -0.84314
0.034118 -0.043138 0.402 -0.54493 0.10628 -0.83172
0.034203 -0.0425 0.403 -0.56959 0.086969 -0.81731
0.034203 -0.041754 0.403 -0.58612 0.079542 -0.80631
0.034288 -0.04111 0.404 -0.6066 0.071785 -0.79176
0.034288 -0.040363 0.404 -0.63521 0.059599 -0.77004
0.034373 -0.039713 0.405 -0.65815 0.048065 -0.75135
0.034373 -0.038964 0.405 -0.65634 0.043595 -0.7532
0.034458 -0.038309 0.406 -0.67823 0.017469 -0.73465
0.034542 -0.03765 0.407 -0.68725 -0.021517 -0.7261
0.034627 -0.036988 0.408 -0.67506 -0.045148 -0.73638
0.034627 -0.036233 0.408 -0.64131 -0.064455 -0.76457
0.034797 -0.035652 0.41 -0.55339 -0.062274 -0.83059
0.034797 -0.034894 0.41 -0.52441 -0.09131 -0.84656
0.034797 -0.034135 0.41 -0.44352 -0.11904 -0.88832
0.034882 -0.033458 0.411 -0.35865 -0.14727 -0.92178
0.034882 -0.032698 0.411 -0.28409 -0.16526 -0.94445
0.034882 -0.031937 0.411 -0.22618 -0.18502 -0.95635
0.034882 -0.031177 0.411 -0.17755 -0.19802 -0.96398
0.034882 -0.030416 0.411 -0.17319 -0.2062 -0.96306
0.034882 -0.029656 0.411 -0.17303 -0.2102 -0.96222
0.034882 -0.028895 0.411 -0.19352 -0.20341 -0.95978
0.034882 -0.028135 0.411 -0.21596 -0.19247 -0.95725
0.034967 -0.027441 0.412 -0.22142 -0.19178 -0.95613
0.034967 -0.026679 0.412 -0.23812 -0.191 -0.95227
0.034967 -0.025917 0.412 -0.24959 -0.19439 -0.94864
0.034967 -0.025154 0.412 -0.2709 -0.18931 -0.94381
0.035052 -0.024451 0.413 -0.27788 -0.18848 -0.94194
0.035052 -0.023687 0.413 -0.28617 -0.19093 -0.93897
0.035052 -0.022923 0.413 -0.29368 -0.1895 -0.93693
0.035052 -0.022159 0.413 -0.29906 -0.19208 -0.9347
0.035137 -0.021447 0.414 -0.29653 -0.19276 -0.93537
0.035137 -0.020681 0.414 -0.29766 -0.20426 -0.93257
0.035137 -0.019915 0.414 -0.31278 -0.20894 -0.92656
0.035137 -0.019149 0.414 -0.32865 -0.21154 -0.92046
0.035137 -0.018383 0.414 -0.35187 -0.21526 -0.91096
0.035221 -0.01766 0.415 -0.37397 -0.21463 -0.90227
0.035221 -0.016892 0.415 -0.40678 -0.21953 -0.88676
0.035221 -0.016124 0.415 -0.43412 -0.22444 -0.87245
0.035306 -0.015393 0.416 -0.47567 -0.22806 -0.84954
0.035306 -0.014623 0.416 -0.50912 -0.23474 -0.82807
0.035391 -0.013887 0.417 -0.53595 -0.24255 -0.80866
0.035391 -0.013116 0.417 -0.54679 -0.24554 -0.80046
0.035476 -0.012374 0.418 -0.55647 -0.25973 -0.78923
0.035561 -0.011628 0.419 -0.56649 -0.27279 -0.77761
0.035561 -0.010853 0.419 -0.57422 -0.27214 -0.77215
0.035646 -0.010102 0.42 -0.61573 -0.27777 -0.73737
0.035646 -0.0093247 0.42 -0.62552 -0.25073 -0.73882
0.035731 -0.008568 0.421 -0.65477 -0.25443 -0.71171
0.035815 -0.0078076 0.422 -0.6766 -0.27597 -0.68268
0.0359 -0.0070435 0.423 -0.72105 -0.29474 -0.62707
0.035985 -0.0062757 0.424 -0.75525 -0.29721 -0.58418
0.03607 -0.0047179 0.425 -0.69406 -0.21839 -0.68599
0.040483 -0.00088252 0.477 0.44318 -0.089279 -0.89198
0.040314 0.0035153 0.475 0.33563 -0.16153 -0.92804
0.040314 0.0043941 0.475 0.26916 -0.15286 -0.95089
0.040229 0.0052618 0.474 0.14714 -0.22857 -0.96234
0.038786 0.01691 0.457 0.30286 -0.3424 -0.8894
0.038871 0.017795 0.458 0.22547 -0.59252 -0.77336
0.038786 0.021138 0.457 0.062621 -0.55449 -0.82983
0.038786 0.021983 0.457 0.04008 -0.56733 -0.82251
0.033993 -0.069624 0.392 0.027351 -0.43156 -0.90167
0.033993 -0.068899 0.392 -0.06752 -0.42337 -0.90344
0.033993 -0.068174 0.392 -0.14148 -0.42587 -0.89365
0.033993 -0.067449 0.392 -0.20305 -0.42885 -0.88026
0.033993 -0.066723 0.392 -0.24538 -0.42656 -0.87054
0.033993 -0.065998 0.392 -0.26695 -0.42337 -0.86573
0.034079 -0.065439 0.393 -0.33069 -0.30501 -0.89309
0.034079 -0.064712 0.393 -0.33886 -0.29158 -0.89451
0.034079 -0.063985 0.393 -0.35279 -0.30026 -0.88622
0.034166 -0.063419 0.394 -0.37441 -0.21071 -0.90301
0.034166 -0.06269 0.394 -0.37865 -0.21971 -0.89908
0.034166 -0.061961 0.394 -0.38116 -0.22261 -0.89731
0.034166 -0.061232 0.394 -0.38698 -0.19898 -0.90036
0.034253 -0.060657 0.395 -0.35918 -0.10845 -0.92694
0.034253 -0.059926 0.395 -0.36576 -0.11384 -0.92372
0.034253 -0.059195 0.395 -0.38153 -0.11235 -0.9175
0.034253 -0.058464 0.395 -0.38541 -0.10825 -0.91638
0.034339 -0.05788 0.396 -0.35798 -0.065559 -0.93143
0.034339 -0.057147 0.396 -0.33606 -0.074559 -0.93888
0.034339 -0.056414 0.396 -0.33742 -0.06507 -0.9391
0.034426 -0.055822 0.397 -0.32718 -0.042245 -0.94402
0.034426 -0.055088 0.397 -0.31176 -0.035256 -0.94951
0.034426 -0.054353 0.397 -0.29433 -0.017203 -0.95555
0.034426 -0.053619 0.397 -0.31673 -0.017073 -0.94836
0.034513 -0.053018 0.398 -0.31219 -0.011728 -0.94995
0.034513 -0.052281 0.398 -0.31606 0.0031944 -0.94873
0.034513 -0.051545 0.398 -0.33031 0.018006 -0.9437
0.034513 -0.050809 0.398 -0.33396 0.032775 -0.94202
0.0346 -0.050198 0.399 -0.32837 0.04331 -0.94355
0.0346 -0.04946 0.399 -0.32318 0.068683 -0.94384
0.0346 -0.048722 0.399 -0.33963 0.085983 -0.93662
0.0346 -0.047983 0.399 -0.36588 0.094326 -0.92587
0.034686 -0.047364 0.4 -0.37699 0.10888 -0.9198
0.034686 -0.046623 0.4 -0.38293 0.11364 -0.91676
0.034686 -0.045883 0.4 -0.42877 0.12588 -0.8946
0.034773 -0.045256 0.401 -0.4668 0.1448 -0.87243
0.034773 -0.044514 0.401 -0.50128 0.14445 -0.85314
0.03486 -0.043882 0.402 -0.52502 0.12809 -0.8414
0.03486 -0.043138 0.402 -0.55823 0.10786 -0.82264
0.034946 -0.0425 0.403 -0.5845 0.088506 -0.80655
0.034946 -0.041754 0.403 -0.60183 0.074911 -0.7951
0.035033 -0.04111 0.404 -0.61952 0.061434 -0.78257
0.035033 -0.040363 0.404 -0.64744 0.052122 -0.76033
0.03512 -0.039713 0.405 -0.6695 0.038455 -0.74182
0.03512 -0.038964 0.405 -0.66336 0.034883 -0.74749
0.035207 -0.038309 0.406 -0.68265 0.010909 -0.73067
0.035293 -0.03765 0.407 -0.69077 -0.034086 -0.72227
0.03538 -0.036988 0.408 -0.67835 -0.062517 -0.73208
0.035467 -0.036322 0.409 -0.64522 -0.085405 -0.7592
0.035467 -0.035565 0.409 -0.6019 -0.10292 -0.79191
0.035554 -0.034894 0.41 -0.54395 -0.11501 -0.8312
0.035554 -0.034135 0.41 -0.46706 -0.1324 -0.87425
0.03564 -0.033458 0.411 -0.38294 -0.1573 -0.91028
0.03564 -0.032698 0.411 -0.30467 -0.18189 -0.93493
0.03564 -0.031937 0.411 -0.23992 -0.20522 -0.94885
0.03564 -0.031177 0.411 -0.18781 -0.21955 -0.95735
0.03564 -0.030416 0.411 -0.17848 -0.22586 -0.95767
0.03564 -0.029656 0.411 -0.17232 -0.22809 -0.95827
0.03564 -0.028895 0.411 -0.1868 -0.21959 -0.95754
0.035727 -0.028204 0.412 -0.20877 -0.20923 -0.95532
0.035727 -0.027441 0.412 -0.21472 -0.20895 -0.95406
0.035727 -0.026679 0.412 -0.23144 -0.20813 -0.95032
0.035727 -0.025917 0.412 -0.24286 -0.21243 -0.94652
0.035727 -0.025154 0.412 -0.26527 -0.2053 -0.94206
0.035814 -0.024451 0.413 -0.27434 -0.20137 -0.94031
0.035814 -0.023687 0.413 -0.28484 -0.19782 -0.93794
0.035814 -0.022923 0.413 -0.29461 -0.18944 -0.93665
0.035814 -0.022159 0.413 -0.30165 -0.19482 -0.9333
0.0359 -0.021447 0.414 -0.30078 -0.19829 -0.93285
0.0359 -0.020681 0.414 -0.30252 -0.21349 -0.92893
0.0359 -0.019915 0.414 -0.3222 -0.21487 -0.92196
0.0359 -0.019149 0.414 -0.33706 -0.21651 -0.91625
0.035987 -0.018427 0.415 -0.36254 -0.22121 -0.90534
0.035987 -0.01766 0.415 -0.38306 -0.2238 -0.8962
0.035987 -0.016892 0.415 -0.41278 -0.23048 -0.88119
0.036074 -0.016163 0.416 -0.4394 -0.23723 -0.8664
0.036074 -0.015393 0.416 -0.48128 -0.23907 -0.84334
0.036161 -0.014659 0.417 -0.51189 -0.25083 -0.82162
0.036161 -0.013887 0.417 -0.53812 -0.25234 -0.80421
0.036247 -0.013147 0.418 -0.55485 -0.26703 -0.78793
0.036247 -0.012374 0.418 -0.55911 -0.26519 -0.78553
0.036334 -0.011628 0.419 -0.57247 -0.28196 -0.76992
0.036334 -0.010853 0.419 -0.56862 -0.27351 -0.7758
0.036421 -0.010102 0.42 -0.61436 -0.27899 -0.73805
0.036421 -0.0093247 0.42 -0.60719 -0.23325 -0.75955
0.036507 -0.008568 0.421 -0.6358 -0.24002 -0.73359
0.036594 -0.0078076 0.422 -0.65238 -0.26268 -0.71091
0.036768 -0.0070601 0.424 -0.76419 -0.3564 -0.53759
0.036768 -0.0062757 0.424 -0.72136 -0.29005 -0.6289
0.036854 -0.0055042 0.425 -0.74446 -0.26028 -0.61485
0.041363 -0.00088252 0.477 0.43346 -0.15866 -0.8871
0.04119 0.0035153 0.475 0.30217 -0.16508 -0.93885
0.04119 0.0043941 0.475 0.23119 -0.15632 -0.96027
0.041103 0.0052618 0.474 0.14429 -0.22995 -0.96245
0.039716 0.017795 0.458 0.2002 -0.51441 -0.83385
0.034716 -0.069624 0.392 -0.079805 -0.45075 -0.88907
0.034716 -0.068899 0.392 -0.14866 -0.44383 -0.88369
0.034716 -0.068174 0.392 -0.19611 -0.4381 -0.87728
0.034716 -0.067449 0.392 -0.23518 -0.43301 -0.87017
0.034716 -0.066723 0.392 -0.25581 -0.42144 -0.87003
0.034716 -0.065998 0.392 -0.26113 -0.4046 -0.87642
0.034804 -0.065439 0.393 -0.30782 -0.34238 -0.8877
0.034804 -0.064712 0.393 -0.32339 -0.31695 -0.89161
0.034804 -0.063985 0.393 -0.33936 -0.30985 -0.88816
0.034893 -0.063419 0.394 -0.3564 -0.25936 -0.89761
0.034893 -0.06269 0.394 -0.3599 -0.25038 -0.89877
0.034893 -0.061961 0.394 -0.36192 -0.23318 -0.90257
0.034893 -0.061232 0.394 -0.37131 -0.21341 -0.90365
0.034982 -0.060657 0.395 -0.35139 -0.16247 -0.92202
0.034982 -0.059926 0.395 -0.35221 -0.15427 -0.92312
0.034982 -0.059195 0.395 -0.36263 -0.13912 -0.92149
0.03507 -0.058612 0.396 -0.35632 -0.11202 -0.92763
0.03507 -0.05788 0.396 -0.34075 -0.10115 -0.9347
0.03507 -0.057147 0.396 -0.32278 -0.099642 -0.94121
0.03507 -0.056414 0.396 -0.32328 -0.084591 -0.94251
0.035159 -0.055822 0.397 -0.31942 -0.06429 -0.94543
0.035159 -0.055088 0.397 -0.30181 -0.052483 -0.95192
0.035159 -0.054353 0.397 -0.28126 -0.040993 -0.95876
0.035159 -0.053619 0.397 -0.30788 -0.035303 -0.95077
0.035247 -0.053018 0.398 -0.30824 -0.025615 -0.95096
0.035247 -0.052281 0.398 -0.30736 -0.0096117 -0.95155
0.035247 -0.051545 0.398 -0.31798 0.0031923 -0.94809
0.035247 -0.050809 0.398 -0.31888 0.019144 -0.9476
0.035336 -0.050198 0.399 -0.30655 0.028759 -0.95142
0.035336 -0.04946 0.399 -0.30721 0.053187 -0.95016
0.035336 -0.048722 0.399 -0.3259 0.073862 -0.94252
0.035336 -0.047983 0.399 -0.35551 0.078205 -0.93139
0.035424 -0.047364 0.4 -0.3705 0.092885 -0.92418
0.035424 -0.046623 0.4 -0.37114 0.1 -0.92318
0.035424 -0.045883 0.4 -0.42291 0.11246 -0.89917
0.035513 -0.045256 0.401 -0.46303 0.13276 -0.87634
0.035513 -0.044514 0.401 -0.4996 0.13813 -0.85517
0.035513 -0.043772 0.401 -0.52952 0.12524 -0.839
0.035601 -0.043138 0.402 -0.5659 0.10451 -0.81782
0.035601 -0.042394 0.402 -0.59535 0.087857 -0.79865
0.03569 -0.041754 0.403 -0.61565 0.073917 -0.78455
0.035779 -0.04111 0.404 -0.63317 0.059728 -0.77171
0.035779 -0.040363 0.404 -0.65723 0.058284 -0.75143
0.035867 -0.039713 0.405 -0.68078 0.037581 -0.73153
0.035956 -0.03906 0.406 -0.69014 0.013118 -0.72356
0.035956 -0.038309 0.406 -0.68947 0.0092244 -0.72425
0.036044 -0.03765 0.407 -0.69844 -0.045909 -0.7142
0.036133 -0.036988 0.408 -0.68637 -0.080713 -0.72276
0.036133 -0.036233 0.408 -0.65435 -0.10575 -0.74876
0.036221 -0.035565 0.409 -0.60958 -0.12483 -0.78284
0.03631 -0.034894 0.41 -0.55369 -0.13692 -0.82139
0.036399 -0.034218 0.411 -0.47758 -0.15781 -0.8643
0.036399 -0.033458 0.411 -0.39001 -0.1881 -0.90139
0.036399 -0.032698 0.411 -0.31005 -0.21251 -0.92667
0.036399 -0.031937 0.411 -0.24228 -0.2324 -0.94196
0.036399 -0.031177 0.411 -0.19178 -0.2419 -0.95116
0.036399 -0.030416 0.411 -0.17761 -0.24547 -0.95299
0.036487 -0.029728 0.412 -0.17626 -0.24401 -0.95362
0.036487 -0.028966 0.412 -0.18946 -0.23952 -0.95223
0.036487 -0.028204 0.412 -0.21069 -0.23071 -0.94994
0.036487 -0.027441 0.412 -0.21562 -0.23045 -0.9489
0.036487 -0.026679 0.412 -0.23127 -0.2296 -0.94541
0.036487 -0.025917 0.412 -0.24221 -0.22414 -0.94398
0.036576 -0.025216 0.413 -0.26313 -0.21562 -0.94036
0.036576 -0.024451 0.413 -0.272 -0.20927 -0.93927
0.036576 -0.023687 0.413 -0.28192 -0.19994 -0.93837
0.036576 -0.022923 0.413 -0.29055 -0.19553 -0.93667
0.036576 -0.022159 0.413 -0.2965 -0.20385 -0.93302
0.036664 -0.021447 0.414 -0.30035 -0.20504 -0.93153
0.036664 -0.020681 0.414 -0.30682 -0.21698 -0.92671
0.036664 -0.019915 0.414 -0.32535 -0.22027 -0.91958
0.036753 -0.019195 0.415 -0.34007 -0.22208 -0.9138
0.036753 -0.018427 0.415 -0.36671 -0.225 -0.90272
0.036753 -0.01766 0.415 -0.38282 -0.22674 -0.89557
0.036753 -0.016892 0.415 -0.41505 -0.22576 -0.88134
0.036841 -0.016163 0.416 -0.44679 -0.24429 -0.86064
0.036841 -0.015393 0.416 -0.48231 -0.24202 -0.8419
0.03693 -0.014659 0.417 -0.51437 -0.25952 -0.81736
0.03693 -0.013887 0.417 -0.53972 -0.24268 -0.8061
0.037018 -0.013147 0.418 -0.55679 -0.27175 -0.78494
0.037018 -0.012374 0.418 -0.56341 -0.24296 -0.78965
0.037107 -0.011628 0.419 -0.57675 -0.27385 -0.76965
0.037196 -0.010879 0.42 -0.59822 -0.29954 -0.74324
0.037196 -0.010102 0.42 -0.61299 -0.25065 -0.74928
0.037284 -0.0093469 0.421 -0.63816 -0.26953 -0.72119
0.037284 -0.008568 0.421 -0.6104 -0.20098 -0.76617
0.037461 -0.0078261 0.423 -0.698 -0.3284 -0.63636
0.03755 -0.0070601 0.424 -0.73662 -0.34518 -0.58159
0.042244 -0.00088252 0.477 0.41021 -0.18063 -0.89392
0.042155 0 0.476 0.26813 -0.21844 -0.93829
0.042066 0.0035153 0.475 0.27346 -0.22519 -0.93515
0.042066 0.0043941 0.475 0.19739 -0.21621 -0.95619
0.041978 0.0052618 0.474 0.14354 -0.31718 -0.93744
0.041978 0.0087697 0.474 0.15743 -0.2924 -0.94325
0.03553 -0.069802 0.393 0.10811 -0.37032 -0.92259
0.03553 -0.069075 0.393 0.004741 -0.38077 -0.92466
0.03553 -0.068348 0.393 -0.08033 -0.39206 -0.91642
0.03553 -0.067621 0.393 -0.16338 -0.39374 -0.90459
0.03553 -0.066894 0.393 -0.21622 -0.38426 -0.89755
0.03553 -0.066167 0.393 -0.25366 -0.36107 -0.89738
0.03553 -0.065439 0.393 -0.29028 -0.3423 -0.89363
0.03553 -0.064712 0.393 -0.30818 -0.32158 -0.89533
0.03562 -0.064148 0.394 -0.32484 -0.30363 -0.8957
0.03562 -0.063419 0.394 -0.33991 -0.27993 -0.89783
0.03562 -0.06269 0.394 -0.34097 -0.26014 -0.90336
0.03562 -0.061961 0.394 -0.33708 -0.24334 -0.90948
0.03562 -0.061232 0.394 -0.34802 -0.22104 -0.91106
0.03571 -0.060657 0.395 -0.33779 -0.2017 -0.91936
0.03571 -0.059926 0.395 -0.33318 -0.18807 -0.92392
0.03571 -0.059195 0.395 -0.33914 -0.16648 -0.92589
0.035801 -0.058612 0.396 -0.33443 -0.15417 -0.92973
0.035801 -0.05788 0.396 -0.3239 -0.13934 -0.93577
0.035801 -0.057147 0.396 -0.31094 -0.13062 -0.94141
0.035891 -0.056557 0.397 -0.30997 -0.1126 -0.94406
0.035891 -0.055822 0.397 -0.31238 -0.097813 -0.94491
0.035891 -0.055088 0.397 -0.29239 -0.082543 -0.95273
0.035891 -0.054353 0.397 -0.26784 -0.068125 -0.96105
0.035891 -0.053619 0.397 -0.29781 -0.057896 -0.95287
0.035982 -0.053018 0.398 -0.3022 -0.044885 -0.95219
0.035982 -0.052281 0.398 -0.29554 -0.028936 -0.95489
0.035982 -0.051545 0.398 -0.30148 -0.019258 -0.95328
0.035982 -0.050809 0.398 -0.2986 -0.0032134 -0.95437
0.036072 -0.050198 0.399 -0.28906 0.015003 -0.95719
0.036072 -0.04946 0.399 -0.29479 0.036346 -0.95487
0.036072 -0.048722 0.399 -0.31479 0.05939 -0.9473
0.036072 -0.047983 0.399 -0.3468 0.058688 -0.9361
0.036072 -0.047245 0.399 -0.36564 0.072718 -0.92791
0.036162 -0.046623 0.4 -0.36353 0.087006 -0.92751
0.036162 -0.045883 0.4 -0.41938 0.098761 -0.90242
0.036162 -0.045143 0.4 -0.46091 0.11884 -0.87946
0.036253 -0.044514 0.401 -0.4973 0.12995 -0.85779
0.036253 -0.043772 0.401 -0.53111 0.12143 -0.83856
