-0.020065 0.00080481 0.435 -0.66351 0.29216 -0.68876
-0.020111 0.0016133 0.436 -0.65349 0.27548 -0.70502
-0.020157 0.0024255 0.437 -0.61968 0.2555 -0.7421
-0.020157 0.003234 0.437 -0.63058 0.28119 -0.7234
-0.020203 0.0040518 0.438 -0.62065 0.27283 -0.73509
-0.020249 0.0048733 0.439 -0.61223 0.26491 -0.74498
-0.020249 0.0056855 0.439 -0.62845 0.26209 -0.73237
-0.020295 0.0065125 0.44 -0.64974 0.25301 -0.71681
-0.020295 0.0073265 0.44 -0.63846 0.22839 -0.73499
-0.020341 0.0081591 0.441 -0.67096 0.23342 -0.70379
-0.020387 0.0089954 0.442 -0.6919 0.24337 -0.67974
-0.02048 0.0098575 0.444 -0.71116 0.26974 -0.64923
-0.02048 0.010679 0.444 -0.71181 0.28206 -0.64325
-0.020572 0.011552 0.446 -0.67199 0.30676 -0.67404
-0.020572 0.012377 0.446 -0.69925 0.32024 -0.63914
-0.020618 0.013232 0.447 -0.67366 0.32646 -0.66303
-0.020664 0.014091 0.448 -0.65981 0.3312 -0.6745
-0.02071 0.014953 0.449 -0.66821 0.32973 -0.66691
-0.02071 0.015784 0.449 -0.59231 0.3745 -0.71339
-0.020756 0.016651 0.45 -0.60371 0.35481 -0.71389
-0.020756 0.017484 0.45 -0.45882 0.39299 -0.7969
-0.021218 0.019574 0.46 -0.56468 0.18966 -0.80322
-0.021264 0.02047 0.461 -0.39924 0.19845 -0.89511
-0.021264 0.021323 0.461 -0.27 0.19748 -0.94239
-0.02131 0.022224 0.462 -0.40271 0.19941 -0.89334
-0.017048 -0.10257 0.385 0.02337 -0.58326 -0.81195
-0.017092 -0.10212 0.386 0.12722 -0.35793 -0.92504
-0.017048 -0.10115 0.385 -0.0047465 -0.56135 -0.82756
-0.017048 -0.10043 0.385 -0.030464 -0.56193 -0.82663
-0.017048 -0.099722 0.385 -0.079631 -0.5745 -0.81462
-0.017048 -0.09901 0.385 -0.14534 -0.58589 -0.79725
-0.017048 -0.098298 0.385 -0.18141 -0.61433 -0.76792
-0.017092 -0.097839 0.386 -0.23552 -0.48745 -0.84079
-0.017092 -0.097125 0.386 -0.27628 -0.5282 -0.80291
-0.017092 -0.096411 0.386 -0.2962 -0.56058 -0.77332
-0.017137 -0.095944 0.387 -0.36104 -0.4459 -0.81904
-0.017137 -0.095228 0.387 -0.36783 -0.50807 -0.77882
-0.017137 -0.094512 0.387 -0.35324 -0.56196 -0.74794
-0.017137 -0.093796 0.387 -0.30051 -0.61802 -0.72646
-0.017181 -0.093321 0.388 -0.39951 -0.52742 -0.74981
-0.017181 -0.092603 0.388 -0.34239 -0.581 -0.73838
-0.020103 -0.080636 0.454 0.97403 -0.10018 -0.20306
-0.019882 -0.078918 0.449 0.83592 -0.09732 -0.54015
-0.019838 -0.077913 0.448 0.86849 -0.095218 -0.48647
-0.019793 -0.076912 0.447 0.84566 -0.1332 -0.51684
-0.019705 -0.075745 0.445 0.83025 -0.075569 -0.55225
-0.019661 -0.074753 0.444 0.79343 -0.12736 -0.59519
-0.019572 -0.073599 0.442 0.74733 -0.051636 -0.66244
-0.019528 -0.072616 0.441 0.76085 -0.083475 -0.64354
-0.019483 -0.071637 0.44 0.7604 -0.095372 -0.64242
-0.019483 -0.070823 0.44 0.79433 -0.17671 -0.58122
-0.019395 -0.069691 0.438 0.72923 -0.1182 -0.67399
-0.019351 -0.068723 0.437 0.70823 -0.1286 -0.69417
-0.019306 -0.067759 0.436 0.67512 -0.10905 -0.72961
-0.019306 -0.066953 0.436 0.70018 -0.13198 -0.70166
-0.019262 -0.065994 0.435 0.66551 -0.11747 -0.73709
-0.019218 -0.06504 0.434 0.6369 -0.11846 -0.76179
-0.019173 -0.064089 0.433 0.59325 -0.10316 -0.79838
-0.019173 -0.063288 0.433 0.56028 -0.11717 -0.81997
-0.019129 -0.062342 0.432 0.52534 -0.12531 -0.84161
-0.019085 -0.061401 0.431 0.48124 -0.11134 -0.86949
-0.019085 -0.060603 0.431 0.44832 -0.10579 -0.88759
-0.019085 -0.059806 0.431 0.38759 -0.10067 -0.91632
-0.019085 -0.059008 0.431 0.34997 -0.086042 -0.9328
-0.019041 -0.058076 0.43 0.32456 -0.056887 -0.94415
-0.019041 -0.05728 0.43 0.29894 -0.040607 -0.95341
-0.019041 -0.056485 0.43 0.28905 -0.030813 -0.95682
-0.019041 -0.055689 0.43 0.26978 -0.019002 -0.96274
-0.018996 -0.054766 0.429 0.25634 0.0050322 -0.96657
-0.018996 -0.053972 0.429 0.2315 0.028351 -0.97242
-0.018996 -0.053179 0.429 0.21576 0.057851 -0.97473
-0.018996 -0.052385 0.429 0.20771 0.077168 -0.97514
-0.018996 -0.051591 0.429 0.18194 0.092756 -0.97893
-0.018996 -0.050797 0.429 0.16406 0.093053 -0.98205
-0.018996 -0.050004 0.429 0.15406 0.093205 -0.98366
-0.018996 -0.04921 0.429 0.14517 0.081113 -0.98608
-0.018952 -0.048303 0.428 0.13442 0.076304 -0.98798
-0.018952 -0.047512 0.428 0.12223 0.074372 -0.98971
-0.018952 -0.04672 0.428 0.12337 0.058931 -0.99061
-0.018952 -0.045928 0.428 0.14288 0.028911 -0.98932
-0.018952 -0.045136 0.428 0.15408 0.0010312 -0.98806
-0.018952 -0.044344 0.428 0.15605 -0.023704 -0.98746
-0.018952 -0.043552 0.428 0.14482 -0.04539 -0.98842
-0.018908 -0.04266 0.427 0.11127 -0.070516 -0.99129
-0.018908 -0.04187 0.427 0.08131 -0.076927 -0.99372
-0.018908 -0.04108 0.427 0.032406 -0.077142 -0.99649
-0.018908 -0.04029 0.427 -0.016732 -0.077171 -0.99688
-0.018908 -0.0395 0.427 -0.07618 -0.067644 -0.9948
-0.018908 -0.03871 0.427 -0.13188 -0.052811 -0.98986
-0.018952 -0.038009 0.428 -0.1621 -0.021622 -0.98654
-0.018952 -0.037217 0.428 -0.19996 0.007158 -0.97978
-0.018952 -0.036426 0.428 -0.22912 0.028433 -0.97298
-0.018952 -0.035634 0.428 -0.23185 0.046647 -0.97163
-0.018952 -0.034842 0.428 -0.2249 0.062919 -0.97235
-0.018952 -0.03405 0.428 -0.19936 0.077484 -0.97686
-0.018996 -0.033336 0.429 -0.16316 0.08698 -0.98276
-0.018996 -0.032542 0.429 -0.096165 0.10002 -0.99033
-0.018996 -0.031748 0.429 -0.0041545 0.10254 -0.99472
-0.018996 -0.030955 0.429 0.12068 0.097718 -0.98787
-0.018996 -0.030161 0.429 0.23732 0.090638 -0.96719
-0.018996 -0.029367 0.429 0.35505 0.077604 -0.93162
-0.018952 -0.028507 0.428 0.43185 0.073183 -0.89897
-0.018952 -0.027715 0.428 0.48023 0.073888 -0.87402
-0.018908 -0.02686 0.427 0.50045 0.0731 -0.86268
-0.018908 -0.02607 0.427 0.50616 0.081732 -0.85856
-0.018863 -0.025221 0.426 0.4903 0.09179 -0.86671
-0.018863 -0.024433 0.426 0.44882 0.10515 -0.88741
-0.018819 -0.023589 0.425 0.39583 0.11114 -0.91157
-0.018819 -0.022803 0.425 0.32673 0.12698 -0.93655
-0.018819 -0.022017 0.425 0.26264 0.13949 -0.95476
-0.018819 -0.02123 0.425 0.1902 0.1499 -0.97023
-0.018775 -0.020396 0.424 0.13731 0.16164 -0.97725
-0.018819 -0.019658 0.425 0.083892 0.16525 -0.98268
-0.018775 -0.018827 0.424 0.037397 0.17818 -0.98329
-0.018819 -0.018085 0.425 -0.019638 0.1948 -0.98065
-0.018775 -0.017258 0.424 -0.0537 0.20391 -0.97752
-0.018775 -0.016474 0.424 -0.087246 0.22007 -0.97157
-0.018819 -0.015726 0.425 -0.12116 0.22844 -0.96599
-0.018819 -0.01494 0.425 -0.16361 0.23466 -0.95821
-0.018819 -0.014154 0.425 -0.19043 0.24387 -0.95093
-0.018819 -0.013367 0.425 -0.22604 0.2531 -0.94066
-0.018819 -0.012581 0.425 -0.26047 0.26268 -0.92906
-0.018863 -0.011822 0.426 -0.28881 0.26971 -0.91861
-0.018863 -0.011034 0.426 -0.32712 0.27406 -0.90437
-0.018863 -0.010246 0.426 -0.36943 0.27631 -0.88723
-0.018908 -0.0094801 0.427 -0.41948 0.26769 -0.8674
-0.018908 -0.0086901 0.427 -0.46043 0.25933 -0.84897
-0.018908 -0.0079001 0.427 -0.49465 0.24751 -0.8331
-0.018952 -0.0071267 0.428 -0.53213 0.23905 -0.81222
-0.018952 -0.0063349 0.428 -0.55525 0.23762 -0.79702
-0.018996 -0.005556 0.429 -0.57431 0.23932 -0.78288
-0.019041 -0.0047734 0.43 -0.58409 0.24761 -0.773
-0.019041 -0.0039778 0.43 -0.5921 0.25276 -0.7652
-0.019085 -0.0031896 0.431 -0.60088 0.26714 -0.75338
-0.019085 -0.0023922 0.431 -0.60306 0.25947 -0.75431
-0.019129 -0.0015985 0.432 -0.62533 0.26493 -0.73401
-0.019173 -0.00080111 0.433 -0.64951 0.27777 -0.7078
-0.019218 0 0.434 -0.6588 0.28861 -0.69475
-0.019218 0.00080296 0.434 -0.65176 0.28785 -0.70168
-0.019262 0.0016096 0.435 -0.66224 0.30334 -0.68515
-0.019306 0.00242 0.436 -0.64655 0.29693 -0.70271
-0.019351 0.003234 0.437 -0.62689 0.27614 -0.72853
-0.019351 0.0040426 0.437 -0.63153 0.28592 -0.72071
-0.019395 0.0048622 0.438 -0.62533 0.27817 -0.7291
-0.019439 0.0056855 0.439 -0.63074 0.2708 -0.72721
-0.019439 0.0064977 0.439 -0.62928 0.25262 -0.73497
-0.019483 0.0073265 0.44 -0.65556 0.24397 -0.71464
-0.019528 0.0081591 0.441 -0.68151 0.24507 -0.68956
-0.019572 0.0089954 0.442 -0.69991 0.25054 -0.66885
-0.019616 0.0098353 0.443 -0.70887 0.26581 -0.65334
-0.019661 0.010679 0.444 -0.7119 0.27829 -0.64479
-0.019705 0.011526 0.445 -0.70775 0.29479 -0.64202
-0.019749 0.012377 0.446 -0.69293 0.30748 -0.65216
-0.019793 0.013232 0.447 -0.66754 0.30661 -0.67851
-0.019838 0.014091 0.448 -0.66799 0.30614 -0.67828
-0.019838 0.01492 0.448 -0.64137 0.34502 -0.68528
-0.019882 0.015784 0.449 -0.63931 0.35049 -0.68443
-0.019926 0.016651 0.45 -0.65203 0.3303 -0.68247
-0.019926 0.017484 0.45 -0.52926 0.37433 -0.76142
-0.019926 0.018316 0.45 -0.39072 0.4015 -0.82833
-0.020369 0.019574 0.46 -0.54368 0.19654 -0.81595
-0.020413 0.02047 0.461 -0.41357 0.20303 -0.88754
-0.020413 0.021323 0.461 -0.34028 0.19827 -0.91918
-0.020458 0.022224 0.462 -0.4655 0.20339 -0.86136
-0.01638 -0.10284 0.386 0.1092 -0.48355 -0.86848
-0.01638 -0.10212 0.386 0.083466 -0.4774 -0.87471
-0.01638 -0.10141 0.386 0.028253 -0.47302 -0.8806
-0.01638 -0.1007 0.386 -0.024644 -0.47681 -0.87866
-0.01638 -0.099981 0.386 -0.082889 -0.49229 -0.86648
-0.01638 -0.099267 0.386 -0.14623 -0.50708 -0.84941
-0.01638 -0.098553 0.386 -0.19272 -0.53409 -0.82317
-0.01638 -0.097839 0.386 -0.22574 -0.55237 -0.80245
-0.01638 -0.097125 0.386 -0.2645 -0.57256 -0.77603
-0.016423 -0.09666 0.387 -0.31754 -0.49684 -0.80766
-0.016423 -0.095944 0.387 -0.34066 -0.52308 -0.78124
-0.016423 -0.095228 0.387 -0.3409 -0.56736 -0.74959
-0.016465 -0.094757 0.388 -0.40166 -0.4948 -0.77061
-0.016465 -0.094039 0.388 -0.37799 -0.54012 -0.75193
-0.016465 -0.093321 0.388 -0.31195 -0.58674 -0.74728
-0.016465 -0.092603 0.388 -0.22674 -0.62388 -0.7479
-0.016507 -0.092122 0.389 -0.39794 -0.57697 -0.71327
-0.019266 -0.080636 0.454 0.96501 -0.1385 -0.22264
-0.019096 -0.079093 0.45 0.90124 -0.093339 -0.42316
-0.019054 -0.078087 0.449 0.90185 -0.11876 -0.41541
-0.018969 -0.076912 0.447 0.84971 -0.10394 -0.51691
-0.018799 -0.073765 0.443 0.78737 -0.11487 -0.60568
-0.018714 -0.072616 0.441 0.74479 -0.053789 -0.66512
-0.018544 -0.068723 0.437 0.70008 -0.12348 -0.70331
-0.018502 -0.067759 0.436 0.6616 -0.11943 -0.74029
-0.018459 -0.066799 0.435 0.60534 -0.11869 -0.78707
-0.018459 -0.065994 0.435 0.65808 -0.14008 -0.7398
-0.018417 -0.06504 0.434 0.63136 -0.1452 -0.76177
-0.018375 -0.064089 0.433 0.58635 -0.13592 -0.79857
-0.018375 -0.063288 0.433 0.55928 -0.15411 -0.81453
-0.018332 -0.062342 0.432 0.52693 -0.16135 -0.83445
-0.018332 -0.061543 0.432 0.49227 -0.16098 -0.85543
-0.01829 -0.060603 0.431 0.45233 -0.14945 -0.87924
-0.01829 -0.059806 0.431 0.39912 -0.14268 -0.90573
-0.01829 -0.059008 0.431 0.36346 -0.12815 -0.92275
-0.018247 -0.058076 0.43 0.34251 -0.10092 -0.93408
-0.018247 -0.05728 0.43 0.31868 -0.083372 -0.94419
-0.018247 -0.056485 0.43 0.30846 -0.064085 -0.94908
-0.018247 -0.055689 0.43 0.2879 -0.050666 -0.95632
-0.018205 -0.054766 0.429 0.27683 -0.024006 -0.96062
-0.018205 -0.053972 0.429 0.25257 0.0050374 -0.96757
-0.018205 -0.053179 0.429 0.23528 0.035397 -0.97128
-0.018205 -0.052385 0.429 0.22352 0.056738 -0.97305
-0.018205 -0.051591 0.429 0.19206 0.076407 -0.9784
-0.018162 -0.050679 0.428 0.16766 0.076932 -0.98284
-0.018162 -0.049887 0.428 0.15053 0.082257 -0.98518
-0.018162 -0.049095 0.428 0.14054 0.073165 -0.98737
-0.018162 -0.048303 0.428 0.12937 0.073278 -0.98889
-0.018162 -0.047512 0.428 0.11204 0.070346 -0.99121
-0.018162 -0.04672 0.428 0.1029 0.054937 -0.99317
-0.018162 -0.045928 0.428 0.11946 0.023826 -0.99255
-0.018162 -0.045136 0.428 0.12971 -0.006209 -0.99153
-0.018162 -0.044344 0.428 0.1327 -0.034117 -0.99057
-0.018162 -0.043552 0.428 0.12948 -0.060943 -0.98971
-0.018162 -0.04276 0.428 0.10468 -0.090956 -0.99034
-0.01812 -0.04187 0.427 0.07907 -0.10064 -0.99178
-0.01812 -0.04108 0.427 0.034421 -0.1009 -0.9943
-0.01812 -0.04029 0.427 -0.010436 -0.10095 -0.99484
-0.01812 -0.0395 0.427 -0.060453 -0.095625 -0.99358
-0.01812 -0.03871 0.427 -0.10808 -0.08291 -0.99068
-0.018162 -0.038009 0.428 -0.13767 -0.052646 -0.98908
-0.018162 -0.037217 0.428 -0.17212 -0.024667 -0.98477
-0.018162 -0.036426 0.428 -0.20585 -0.0051066 -0.97857
-0.018162 -0.035634 0.428 -0.21464 0.012231 -0.97662
-0.018162 -0.034842 0.428 -0.20967 0.031618 -0.97726
-0.018162 -0.03405 0.428 -0.1869 0.047109 -0.98125
-0.018205 -0.033336 0.429 -0.15949 0.058488 -0.98547
-0.018205 -0.032542 0.429 -0.096425 0.068241 -0.993
-0.018205 -0.031748 0.429 -0.014581 0.069587 -0.99747
-0.018205 -0.030955 0.429 0.11183 0.064019 -0.99166
-0.018205 -0.030161 0.429 0.23016 0.0637 -0.97107
-0.018205 -0.029367 0.429 0.34974 0.047737 -0.93563
-0.018162 -0.028507 0.428 0.43251 0.047924 -0.90035
-0.018162 -0.027715 0.428 0.48235 0.050201 -0.87454
-0.01812 -0.02686 0.427 0.50388 0.049617 -0.86235
-0.01812 -0.02607 0.427 0.51113 0.053843 -0.85782
-0.018077 -0.025221 0.426 0.49674 0.068044 -0.86523
-0.018077 -0.024433 0.426 0.45281 0.081001 -0.88792
-0.018035 -0.023589 0.425 0.40076 0.08913 -0.91184
-0.018035 -0.022803 0.425 0.32759 0.10462 -0.93901
-0.018035 -0.022017 0.425 0.26778 0.12649 -0.95514
-0.017993 -0.02118 0.424 0.19984 0.13797 -0.97007
-0.017993 -0.020396 0.424 0.14951 0.15835 -0.976
-0.017993 -0.019611 0.424 0.098485 0.16541 -0.9813
-0.017993 -0.018827 0.424 0.058071 0.18201 -0.98158
-0.017993 -0.017258 0.424 -0.036063 0.21783 -0.97532
-0.017993 -0.016474 0.424 -0.06769 0.23012 -0.9708
-0.017993 -0.015689 0.424 -0.10201 0.23907 -0.96563
-0.017993 -0.014905 0.424 -0.14672 0.24722 -0.95779
-0.018035 -0.014154 0.425 -0.18218 0.25455 -0.94975
-0.018035 -0.013367 0.425 -0.22182 0.26071 -0.93959
-0.018035 -0.012581 0.425 -0.25556 0.26755 -0.92903
-0.018035 -0.011795 0.425 -0.2893 0.27114 -0.91803
-0.018077 -0.011034 0.426 -0.32738 0.27142 -0.90507
-0.018077 -0.010246 0.426 -0.36614 0.26988 -0.89057
-0.018077 -0.0094579 0.426 -0.41741 0.26688 -0.86865
-0.01812 -0.0086901 0.427 -0.45924 0.25789 -0.85005
-0.01812 -0.0079001 0.427 -0.49455 0.24833 -0.83292
-0.01812 -0.0071101 0.427 -0.52677 0.23854 -0.81585
-0.018162 -0.0063349 0.428 -0.55335 0.24053 -0.79747
-0.018205 -0.005556 0.429 -0.5703 0.24269 -0.78477
-0.018205 -0.0047623 0.429 -0.57556 0.24102 -0.78143
-0.018247 -0.0039778 0.43 -0.58792 0.25531 -0.76757
-0.01829 -0.0031896 0.431 -0.5954 0.26797 -0.75743
-0.01829 -0.0023922 0.431 -0.60389 0.26694 -0.75104
-0.018332 -0.0015985 0.432 -0.62038 0.27834 -0.73325
-0.018332 -0.00079926 0.432 -0.61616 0.26611 -0.7413
-0.018375 0 0.433 -0.64247 0.28895 -0.70975
-0.018417 0.00080296 0.434 -0.65017 0.30418 -0.69624
-0.018459 0.0016096 0.435 -0.6581 0.30836 -0.68689
-0.018502 0.00242 0.436 -0.63853 0.29075 -0.71257
-0.018544 0.003234 0.437 -0.61246 0.27015 -0.7429
-0.018544 0.0040426 0.437 -0.63238 0.28827 -0.71902
-0.018587 0.0048622 0.438 -0.62584 0.27036 -0.73159
-0.018629 0.0056855 0.439 -0.63158 0.25771 -0.73123
-0.018629 0.0064977 0.439 -0.64621 0.25125 -0.72062
-0.018672 0.0073265 0.44 -0.66617 0.24827 -0.70326
-0.018714 0.0081591 0.441 -0.6872 0.24609 -0.68352
-0.018714 0.008975 0.441 -0.67727 0.22191 -0.70148
-0.018799 0.0098353 0.443 -0.70456 0.26178 -0.65959
-0.018841 0.010679 0.444 -0.70286 0.26649 -0.65952
-0.018884 0.011526 0.445 -0.69386 0.28331 -0.66204
-0.018884 0.01235 0.445 -0.70396 0.2856 -0.65029
-0.018926 0.013203 0.446 -0.68928 0.30351 -0.65786
-0.018969 0.014059 0.447 -0.66833 0.31071 -0.67587
-0.018969 0.014886 0.447 -0.59642 0.35821 -0.71831
-0.019054 0.015784 0.449 -0.685 0.30448 -0.66187
-0.019096 0.016651 0.45 -0.69988 0.27831 -0.65781
-0.019096 0.017484 0.45 -0.59893 0.32964 -0.72981
-0.01952 0.018723 0.46 -0.41734 0.21122 -0.88386
-0.01952 0.019574 0.46 -0.51694 0.19648 -0.83317
-0.01952 0.020426 0.46 -0.52032 0.18355 -0.83402
-0.019563 0.021323 0.461 -0.43585 0.20391 -0.87662
-0.019605 0.022224 0.462 -0.54015 0.20156 -0.81707
-0.015668 -0.10284 0.386 0.040036 -0.55236 -0.83264
-0.015668 -0.10212 0.386 0.038632 -0.54972 -0.83446
-0.015668 -0.10141 0.386 -0.0029219 -0.53761 -0.84319
-0.015668 -0.1007 0.386 -0.038958 -0.53244 -0.84557
-0.015668 -0.099981 0.386 -0.09222 -0.53715 -0.83843
-0.015668 -0.099267 0.386 -0.15549 -0.53884 -0.82793
-0.015668 -0.098553 0.386 -0.19372 -0.55786 -0.80701
-0.015668 -0.097839 0.386 -0.21757 -0.56261 -0.79758
-0.015708 -0.097377 0.387 -0.27096 -0.53389 -0.80096
-0.015708 -0.09666 0.387 -0.30323 -0.54052 -0.78479
-0.015708 -0.095944 0.387 -0.32894 -0.54585 -0.77061
-0.015749 -0.095475 0.388 -0.36575 -0.52574 -0.76801
-0.015749 -0.094757 0.388 -0.36176 -0.5461 -0.75558
-0.01579 -0.094281 0.389 -0.458 -0.4858 -0.74447
-0.01579 -0.093562 0.389 -0.42909 -0.52486 -0.73512
-0.01579 -0.092842 0.389 -0.37222 -0.56759 -0.73436
-0.01579 -0.092122 0.389 -0.27884 -0.61714 -0.73578
-0.015952 -0.091615 0.393 -0.75246 -0.16012 -0.63888
-0.018428 -0.080636 0.454 0.95826 -0.13272 -0.25322
-0.018306 -0.079269 0.451 0.92204 -0.1439 -0.35937
-0.018185 -0.077913 0.448 0.85719 -0.039732 -0.51347
-0.018144 -0.076912 0.447 0.85131 -0.09191 -0.51655
-0.01786 -0.070009 0.44 0.79268 -0.19437 -0.57782
-0.017738 -0.068723 0.437 0.67755 -0.13127 -0.72366
-0.017697 -0.067759 0.436 0.63468 -0.13633 -0.76066
-0.017697 -0.066953 0.436 0.68108 -0.15573 -0.71546
-0.017657 -0.065994 0.435 0.64258 -0.16225 -0.74884
-0.017616 -0.06504 0.434 0.62355 -0.16393 -0.7644
-0.017576 -0.064089 0.433 0.58254 -0.15534 -0.79782
-0.017576 -0.063288 0.433 0.56057 -0.18085 -0.80812
-0.017535 -0.062342 0.432 0.52883 -0.18097 -0.82921
-0.017535 -0.061543 0.432 0.4999 -0.18629 -0.84581
-0.017494 -0.060603 0.431 0.45383 -0.1697 -0.87478
-0.017494 -0.059806 0.431 0.41239 -0.16617 -0.89572
-0.017494 -0.059008 0.431 0.37934 -0.15321 -0.91249
-0.017494 -0.058211 0.431 0.36254 -0.13008 -0.92285
-0.017454 -0.05728 0.43 0.33793 -0.10877 -0.93487
-0.017454 -0.056485 0.43 0.32386 -0.087101 -0.94209
-0.017454 -0.055689 0.43 0.30749 -0.068032 -0.94912
-0.017413 -0.054766 0.429 0.29867 -0.040705 -0.95349
-0.017413 -0.053972 0.429 0.27505 -0.0080084 -0.9614
-0.017413 -0.053179 0.429 0.25629 0.021131 -0.96637
-0.017413 -0.052385 0.429 0.24095 0.042403 -0.96961
-0.017413 -0.051591 0.429 0.204 0.064081 -0.97687
-0.017373 -0.050679 0.428 0.17281 0.064623 -0.98283
-0.017373 -0.049887 0.428 0.1486 0.075125 -0.98604
-0.017373 -0.049095 0.428 0.13753 0.070119 -0.98801
-0.017373 -0.048303 0.428 0.12022 0.070279 -0.99026
-0.017373 -0.047512 0.428 0.09666 0.066335 -0.9931
-0.017373 -0.04672 0.428 0.082308 0.046755 -0.99551
-0.017373 -0.045928 0.428 0.095828 0.01662 -0.99526
-0.017373 -0.045136 0.428 0.10511 -0.013491 -0.99437
-0.017373 -0.044344 0.428 0.10913 -0.042496 -0.99312
-0.017373 -0.043552 0.428 0.10899 -0.06728 -0.99176
-0.017373 -0.04276 0.428 0.089236 -0.095197 -0.99145
-0.017373 -0.041969 0.428 0.069542 -0.10765 -0.99175
-0.017332 -0.04108 0.427 0.031271 -0.10811 -0.99365
-0.017332 -0.04029 0.427 -0.0072999 -0.10816 -0.99411
-0.017332 -0.0395 0.427 -0.045838 -0.10804 -0.99309
-0.017373 -0.038801 0.428 -0.08303 -0.098325 -0.99168
-0.017373 -0.038009 0.428 -0.10998 -0.071392 -0.99137
-0.017373 -0.037217 0.428 -0.14384 -0.041277 -0.98874
-0.017373 -0.036426 0.428 -0.1791 -0.025661 -0.9835
-0.017373 -0.035634 0.428 -0.19106 -0.011268 -0.98151
-0.017373 -0.034842 0.428 -0.19107 0.0040978 -0.98157
-0.017373 -0.03405 0.428 -0.18012 0.019502 -0.98345
-0.017413 -0.033336 0.429 -0.15968 0.032874 -0.98662
-0.017413 -0.032542 0.429 -0.098636 0.03831 -0.99439
-0.017413 -0.031748 0.429 -0.025033 0.038485 -0.99895
-0.017413 -0.030955 0.429 0.099664 0.038306 -0.99428
-0.017413 -0.030161 0.429 0.22269 0.044618 -0.97387
-0.017413 -0.029367 0.429 0.34221 0.031291 -0.9391
-0.017373 -0.028507 0.428 0.42973 0.031081 -0.90242
-0.017332 -0.02765 0.427 0.48423 0.034754 -0.87425
-0.017332 -0.02686 0.427 0.50824 0.034209 -0.86054
-0.017332 -0.02607 0.427 0.51863 0.04377 -0.85388
-0.017292 -0.025221 0.426 0.50389 0.056937 -0.86189
-0.017292 -0.024433 0.426 0.45913 0.068726 -0.8857
-0.017251 -0.023589 0.425 0.4099 0.07927 -0.90868
-0.017251 -0.022803 0.425 0.33498 0.093615 -0.93756
-0.01721 -0.021965 0.424 0.27702 0.11854 -0.95352
-0.01721 -0.02118 0.424 0.21379 0.12955 -0.96825
-0.01721 -0.020396 0.424 0.16172 0.15203 -0.97505
-0.01721 -0.019611 0.424 0.1129 0.16114 -0.98045
-0.01721 -0.018827 0.424 0.078729 0.17975 -0.98056
-0.01721 -0.018043 0.424 0.024808 0.20513 -0.97842
-0.01721 -0.017258 0.424 -0.014433 0.21795 -0.97585
-0.01721 -0.016474 0.424 -0.050306 0.23036 -0.9718
-0.01721 -0.015689 0.424 -0.089789 0.24318 -0.96582
-0.01721 -0.014905 0.424 -0.13566 0.2514 -0.95833
-0.01721 -0.01412 0.424 -0.17957 0.2571 -0.94956
-0.01721 -0.013336 0.424 -0.22234 0.26033 -0.93957
-0.017251 -0.012581 0.425 -0.25406 0.26314 -0.9307
-0.017251 -0.011795 0.425 -0.28694 0.26778 -0.91976
-0.017251 -0.011008 0.425 -0.3262 0.26424 -0.90762
-0.017251 -0.010222 0.425 -0.36511 0.26369 -0.89284
-0.017292 -0.0094579 0.426 -0.41138 0.26098 -0.8733
-0.017292 -0.0086698 0.426 -0.45751 0.25625 -0.85148
-0.017332 -0.0079001 0.427 -0.4919 0.24876 -0.83436
-0.017332 -0.0071101 0.427 -0.52855 0.24098 -0.81398
-0.017373 -0.0063349 0.428 -0.55252 0.2384 -0.79868
-0.017413 -0.005556 0.429 -0.56952 0.24434 -0.78482
-0.017413 -0.0047623 0.429 -0.57963 0.24274 -0.77789
-0.017454 -0.0039778 0.43 -0.5848 0.25616 -0.76967
-0.017454 -0.0031822 0.43 -0.58389 0.25761 -0.76988
-0.017494 -0.0023922 0.431 -0.59776 0.27505 -0.75301
-0.017494 -0.0015948 0.431 -0.59222 0.26758 -0.76005
-0.017535 -0.00079926 0.432 -0.61476 0.28102 -0.73695
-0.017576 0 0.433 -0.63808 0.2974 -0.71021
-0.017616 0.00080296 0.434 -0.64278 0.31036 -0.70037
-0.017657 0.0016096 0.435 -0.64619 0.31384 -0.69566
-0.017657 0.0024144 0.435 -0.6503 0.31984 -0.68907
-0.017697 0.0032266 0.436 -0.64236 0.31267 -0.69972
-0.017738 0.0040426 0.437 -0.62896 0.28992 -0.72136
-0.017738 0.0048511 0.437 -0.64107 0.29367 -0.70907
-0.017779 0.0056725 0.438 -0.64094 0.27707 -0.71584
-0.017819 0.0064977 0.439 -0.65367 0.26569 -0.70861
-0.01786 0.0073265 0.44 -0.66818 0.25734 -0.69808
-0.0179 0.0081591 0.441 -0.68477 0.25344 -0.68328
-0.0179 0.008975 0.441 -0.68618 0.24541 -0.68479
-0.017941 0.0098131 0.442 -0.69348 0.25733 -0.67295
-0.017982 0.010655 0.443 -0.70135 0.26657 -0.6611
-0.018022 0.0115 0.444 -0.70605 0.27262 -0.65359
-0.018063 0.01235 0.445 -0.71101 0.27724 -0.64622
-0.018063 0.013173 0.445 -0.67104 0.28036 -0.68637
-0.018103 0.014028 0.446 -0.65241 0.31204 -0.69065
-0.018144 0.014886 0.447 -0.63499 0.31712 -0.70443
-0.018225 0.015784 0.449 -0.71917 0.24039 -0.65192
-0.018266 0.017484 0.45 -0.65723 0.2561 -0.70884
-0.018672 0.019574 0.46 -0.47942 0.21109 -0.85182
-0.018672 0.020426 0.46 -0.52985 0.18566 -0.82752
-0.018712 0.021323 0.461 -0.49678 0.20853 -0.84246
-0.018753 0.022224 0.462 -0.59607 0.19582 -0.77869
-0.014956 -0.10284 0.386 -0.0071081 -0.57151 -0.82056
-0.014956 -0.10212 0.386 0.018235 -0.56709 -0.82346
-0.014956 -0.10141 0.386 -0.010708 -0.55608 -0.83106
-0.014994 -0.10096 0.387 -0.028899 -0.52342 -0.85158
-0.014994 -0.10024 0.387 -0.091357 -0.52433 -0.8466
-0.014956 -0.099267 0.386 -0.15346 -0.53465 -0.83102
-0.014994 -0.098809 0.387 -0.19612 -0.53708 -0.82042
-0.014994 -0.098093 0.387 -0.23243 -0.54033 -0.80872
-0.014994 -0.097377 0.387 -0.27179 -0.53983 -0.79669
-0.015033 -0.09691 0.388 -0.30985 -0.5302 -0.78923
-0.015033 -0.096192 0.388 -0.34228 -0.52866 -0.77677
-0.015033 -0.095475 0.388 -0.35467 -0.53715 -0.7653
-0.015072 -0.095001 0.389 -0.39187 -0.52176 -0.75776
-0.015072 -0.094281 0.389 -0.41749 -0.5221 -0.74372
-0.015072 -0.093562 0.389 -0.37046 -0.54984 -0.74862
-0.015111 -0.09308 0.39 -0.47795 -0.49873 -0.72307
-0.015111 -0.092359 0.39 -0.40404 -0.54825 -0.73224
-0.015149 -0.091872 0.391 -0.52306 -0.48861 -0.69833
-0.015227 -0.091615 0.393 -0.72598 -0.24641 -0.64206
-0.017629 -0.080814 0.455 0.96357 -0.15431 -0.21846
-0.017474 -0.079269 0.451 0.92229 -0.10455 -0.3721
-0.017397 -0.078087 0.449 0.89344 -0.12081 -0.43264
-0.01728 -0.07674 0.446 0.83424 0.052609 -0.54889
-0.017087 -0.0718 0.441 0.78457 -0.1097 -0.61026
-0.017087 -0.070168 0.441 0.71698 -0.17748 -0.67412
-0.01697 -0.068881 0.438 0.74094 -0.13958 -0.65691
-0.016932 -0.067915 0.437 0.71127 -0.14661 -0.68746
-0.016893 -0.066953 0.436 0.66596 -0.15712 -0.72925
-0.016854 -0.065994 0.435 0.626 -0.17027 -0.76101
-0.016815 -0.06504 0.434 0.61182 -0.16748 -0.77307
-0.016815 -0.064237 0.434 0.60193 -0.1826 -0.77739
-0.016777 -0.063288 0.433 0.55995 -0.1931 -0.80571
-0.016777 -0.062487 0.433 0.53299 -0.20175 -0.82172
-0.016738 -0.061543 0.432 0.50221 -0.20172 -0.84089
-0.016738 -0.060744 0.432 0.46316 -0.19744 -0.864
-0.016699 -0.059806 0.431 0.42458 -0.18553 -0.88618
-0.016699 -0.059008 0.431 0.3954 -0.17566 -0.90155
-0.016699 -0.058211 0.431 0.38027 -0.16414 -0.91019
-0.016661 -0.05728 0.43 0.35689 -0.14102 -0.92344
-0.016661 -0.056485 0.43 0.34182 -0.11911 -0.93219
-0.016661 -0.055689 0.43 0.32269 -0.096831 -0.94154
-0.016661 -0.054894 0.43 0.3181 -0.070713 -0.94541
-0.016622 -0.053972 0.429 0.29872 -0.03674 -0.95363
-0.016622 -0.053179 0.429 0.27598 -0.0060047 -0.96114
-0.016622 -0.052385 0.429 0.25915 0.013073 -0.96575
-0.016622 -0.051591 0.429 0.21891 0.034522 -0.97513
-0.016583 -0.050679 0.428 0.18303 0.034864 -0.98249
-0.016583 -0.049887 0.428 0.15388 0.050465 -0.9868
-0.016583 -0.049095 0.428 0.13765 0.055734 -0.98891
-0.016583 -0.048303 0.428 0.11521 0.055895 -0.99177
-0.016583 -0.047512 0.428 0.086428 0.050882 -0.99496
-0.016583 -0.04672 0.428 0.061594 0.034356 -0.99751
-0.016583 -0.045928 0.428 0.072024 0.0072866 -0.99738
-0.016583 -0.045136 0.428 0.080308 -0.020802 -0.99655
-0.016583 -0.044344 0.428 0.085403 -0.048815 -0.99515
-0.016583 -0.043552 0.428 0.088395 -0.069483 -0.99366
-0.016583 -0.04276 0.428 0.07378 -0.093264 -0.9929
-0.016583 -0.041969 0.428 0.055091 -0.10262 -0.99319
-0.016583 -0.041177 0.428 0.023937 -0.10275 -0.99442
-0.016544 -0.04029 0.427 -0.0073039 -0.10301 -0.99465
-0.016583 -0.039593 0.428 -0.03849 -0.1027 -0.99397
-0.016583 -0.038801 0.428 -0.063408 -0.097441 -0.99322
-0.016583 -0.038009 0.428 -0.08526 -0.075692 -0.99348
-0.016583 -0.037217 0.428 -0.1163 -0.045562 -0.99217
-0.016583 -0.036426 0.428 -0.15603 -0.029882 -0.9873
-0.016583 -0.035634 0.428 -0.17315 -0.014389 -0.98479
-0.016583 -0.034842 0.428 -0.17916 0.0010268 -0.98382
-0.016583 -0.03405 0.428 -0.17515 0.015411 -0.98442
-0.016622 -0.033336 0.429 -0.16272 0.024649 -0.98636
-0.016622 -0.032542 0.429 -0.099706 0.024858 -0.99471
-0.016622 -0.031748 0.429 -0.030257 0.023931 -0.99926
-0.016622 -0.030955 0.429 0.090442 0.023844 -0.99562
-0.016622 -0.030161 0.429 0.22083 0.036534 -0.97463
-0.016583 -0.029299 0.428 0.34297 0.02646 -0.93898
-0.016583 -0.028507 0.428 0.43593 0.025351 -0.89963
-0.016583 -0.027715 0.428 0.49048 0.024547 -0.87111
-0.016544 -0.02686 0.427 0.51238 0.024246 -0.85841
-0.016506 -0.026009 0.426 0.52428 0.033904 -0.85087
-0.016506 -0.025221 0.426 0.5089 0.04507 -0.85965
-0.016467 -0.024376 0.425 0.46478 0.054802 -0.88373
-0.016467 -0.023589 0.425 0.41817 0.067598 -0.90585
-0.016467 -0.022803 0.425 0.34659 0.084443 -0.93421
-0.016428 -0.021965 0.424 0.29023 0.11016 -0.9506
-0.016428 -0.02118 0.424 0.23248 0.11999 -0.96517
-0.016428 -0.020396 0.424 0.17895 0.14256 -0.97348
-0.016428 -0.019611 0.424 0.13243 0.1527 -0.97936
-0.016428 -0.018827 0.424 0.099301 0.17742 -0.97911
-0.016428 -0.018043 0.424 0.044454 0.20104 -0.97857
-0.016428 -0.017258 0.424 0.0020662 0.20914 -0.97788
-0.016428 -0.016474 0.424 -0.038095 0.22075 -0.97459
-0.016428 -0.015689 0.424 -0.08284 0.23661 -0.96807
-0.016428 -0.014905 0.424 -0.13477 0.24859 -0.95919
-0.016428 -0.01412 0.424 -0.18006 0.24678 -0.9522
-0.016428 -0.013336 0.424 -0.22407 0.24729 -0.94268
-0.016428 -0.012551 0.424 -0.25726 0.25163 -0.933
-0.016467 -0.011795 0.425 -0.2861 0.2562 -0.92331
-0.016467 -0.011008 0.425 -0.32725 0.25265 -0.91054
-0.016467 -0.010222 0.425 -0.36372 0.25343 -0.89637
-0.016467 -0.0094357 0.425 -0.40482 0.2522 -0.87893
-0.016506 -0.0086698 0.426 -0.45254 0.25121 -0.85563
-0.016506 -0.0078816 0.426 -0.48655 0.24612 -0.83827
-0.016544 -0.0071101 0.427 -0.52517 0.23922 -0.81668
-0.016544 -0.0063201 0.427 -0.5429 0.22906 -0.80795
-0.016583 -0.005543 0.428 -0.56419 0.24311 -0.78904
-0.016622 -0.0047623 0.429 -0.57911 0.24378 -0.77795
-0.016622 -0.0039685 0.429 -0.57497 0.24252 -0.78141
-0.016661 -0.0031822 0.43 -0.58401 0.25675 -0.77007
-0.016661 -0.0023867 0.43 -0.57404 0.25218 -0.77903
-0.016699 -0.0015948 0.431 -0.59384 0.26714 -0.75894
-0.016699 -0.00079741 0.431 -0.57481 0.24436 -0.78095
-0.016738 0 0.432 -0.60378 0.26951 -0.75021
-0.016777 0.00080111 0.433 -0.62706 0.30078 -0.71856
-0.016815 0.0016059 0.434 -0.64326 0.31266 -0.6989
-0.016854 0.0024144 0.435 -0.64832 0.31734 -0.69208
-0.016893 0.0032266 0.436 -0.6366 0.3066 -0.70763
-0.016932 0.0040426 0.437 -0.62296 0.28479 -0.72857
-0.016932 0.0048511 0.437 -0.64457 0.30101 -0.70279
-0.01697 0.0056725 0.438 -0.64539 0.28691 -0.70792
-0.01697 0.0064829 0.438 -0.64337 0.27488 -0.7145
-0.017009 0.0073099 0.439 -0.66216 0.26379 -0.7014
-0.017048 0.0081406 0.44 -0.68011 0.26005 -0.68544
-0.017087 0.008975 0.441 -0.69089 0.25929 -0.67486
-0.017125 0.0098131 0.442 -0.69532 0.26344 -0.66868
-0.017164 0.010655 0.443 -0.69827 0.26582 -0.66465
-0.017203 0.0115 0.444 -0.7052 0.26081 -0.65929
-0.017203 0.012322 0.444 -0.68629 0.26311 -0.67807
-0.017242 0.013173 0.445 -0.69711 0.26501 -0.66619
-0.017242 0.013996 0.445 -0.59495 0.27477 -0.75534
-0.01728 0.014853 0.446 -0.58936 0.31555 -0.74369
-0.017319 0.015713 0.447 -0.56314 0.31553 -0.76375
-0.017397 0.016614 0.449 -0.70134 0.22493 -0.67641
-0.017435 0.017484 0.45 -0.69935 0.19419 -0.68789
-0.017823 0.018723 0.46 -0.30496 0.27163 -0.91281
-0.017823 0.019574 0.46 -0.43785 0.23916 -0.86666
-0.017823 0.020426 0.46 -0.52227 0.21083 -0.82631
-0.017823 0.021277 0.46 -0.41947 0.20991 -0.88317
-0.0179 0.022224 0.462 -0.62872 0.20876 -0.74909
-0.01428 -0.1031 0.387 0.096101 -0.57697 -0.81109
-0.01428 -0.10239 0.387 0.070667 -0.57343 -0.8162
-0.01428 -0.10167 0.387 0.01522 -0.56525 -0.82478
-0.01428 -0.10096 0.387 -0.031398 -0.55648 -0.83027
-0.01428 -0.10024 0.387 -0.093941 -0.55253 -0.82818
-0.01428 -0.099525 0.387 -0.15834 -0.55125 -0.81918
-0.01428 -0.098809 0.387 -0.19737 -0.54924 -0.81202
-0.01428 -0.098093 0.387 -0.23676 -0.54814 -0.80218
-0.014317 -0.097628 0.388 -0.27331 -0.54237 -0.79444
-0.014317 -0.09691 0.388 -0.30733 -0.54084 -0.78297
-0.014354 -0.09644 0.389 -0.33677 -0.53663 -0.7737
-0.014354 -0.095721 0.389 -0.35817 -0.53417 -0.76575
-0.014354 -0.095001 0.389 -0.37166 -0.53649 -0.75766
-0.014391 -0.094524 0.39 -0.45178 -0.49488 -0.74229
-0.014391 -0.093802 0.39 -0.44756 -0.50792 -0.73601
-0.014391 -0.09308 0.39 -0.40962 -0.53318 -0.74022
-0.014428 -0.092596 0.391 -0.51885 -0.48572 -0.70347
-0.014428 -0.091872 0.391 -0.43699 -0.53888 -0.72017
-0.014539 -0.091848 0.394 -0.75591 -0.13829 -0.6399
-0.016494 -0.076912 0.447 0.87561 -0.038441 -0.48149
-0.016421 -0.075745 0.445 0.83915 0.037353 -0.54262
-0.016273 -0.0718 0.441 0.7708 -0.098496 -0.62942
-0.016273 -0.070168 0.441 0.77315 -0.22673 -0.59231
-0.016162 -0.068881 0.438 0.72674 -0.12914 -0.67467
-0.016125 -0.067915 0.437 0.70094 -0.13079 -0.70112
-0.016089 -0.066953 0.436 0.64899 -0.1522 -0.74542
-0.016052 -0.065994 0.435 0.61068 -0.16558 -0.77437
-0.016052 -0.06519 0.435 0.62809 -0.17948 -0.75716
-0.016015 -0.064237 0.434 0.60127 -0.17984 -0.77855
-0.015978 -0.063288 0.433 0.55752 -0.18556 -0.80916
-0.015978 -0.062487 0.433 0.53353 -0.19687 -0.82255
-0.015941 -0.061543 0.432 0.5046 -0.19729 -0.84051
-0.015941 -0.060744 0.432 0.46667 -0.19703 -0.86221
-0.015941 -0.059944 0.432 0.43643 -0.18483 -0.88055
-0.015904 -0.059008 0.431 0.40871 -0.17455 -0.89582
-0.015904 -0.058211 0.431 0.39262 -0.17047 -0.90376
-0.015867 -0.05728 0.43 0.37232 -0.14661 -0.91645
-0.015867 -0.056485 0.43 0.35846 -0.12588 -0.92502
-0.015867 -0.055689 0.43 0.3435 -0.097039 -0.93413
-0.015867 -0.054894 0.43 0.34504 -0.073872 -0.93568
-0.01583 -0.053972 0.429 0.32542 -0.046219 -0.94444
-0.01583 -0.053179 0.429 0.29978 -0.016884 -0.95386
-0.01583 -0.052385 0.429 0.28246 -0.0019977 -0.95928
-0.01583 -0.051591 0.429 0.24018 0.01718 -0.97058
-0.015793 -0.050679 0.428 0.20091 0.017378 -0.97945
-0.015793 -0.049887 0.428 0.16704 0.037018 -0.98525
-0.015793 -0.049095 0.428 0.14377 0.051572 -0.98827
-0.015793 -0.048303 0.428 0.11828 0.056906 -0.99135
-0.015793 -0.047512 0.428 0.08017 0.062297 -0.99483
-0.015793 -0.04672 0.428 0.052192 0.049966 -0.99739
-0.015793 -0.045928 0.428 0.060556 0.033318 -0.99761
-0.015793 -0.045136 0.428 0.067863 0.014576 -0.99759
-0.015793 -0.044344 0.428 0.073063 -0.0052044 -0.99731
-0.015793 -0.043552 0.428 0.077207 -0.014566 -0.99691
-0.015793 -0.04276 0.428 0.064728 -0.027069 -0.99754
-0.015793 -0.041969 0.428 0.03763 -0.032314 -0.99877
-0.015793 -0.041177 0.428 0.010458 -0.037544 -0.99924
-0.015793 -0.040385 0.428 -0.015682 -0.042746 -0.99896
-0.015793 -0.039593 0.428 -0.040736 -0.047914 -0.99802
-0.015793 -0.038801 0.428 -0.06466 -0.053041 -0.9965
-0.015793 -0.038009 0.428 -0.080249 -0.043651 -0.99582
-0.015793 -0.037217 0.428 -0.10612 -0.020751 -0.99414
-0.015793 -0.036426 0.428 -0.14699 -0.011355 -0.98907
-0.015793 -0.035634 0.428 -0.16515 -0.0010293 -0.98627
-0.015793 -0.034842 0.428 -0.17216 0.0082245 -0.98503
-0.015793 -0.03405 0.428 -0.16914 0.015428 -0.98547
-0.015793 -0.033258 0.428 -0.16412 0.019557 -0.98625
-0.01583 -0.032542 0.429 -0.1028 0.019675 -0.99451
-0.01583 -0.031748 0.429 -0.035473 0.017687 -0.99921
-0.01583 -0.030955 0.429 0.083228 0.017637 -0.99637
-0.01583 -0.030161 0.429 0.21216 0.02543 -0.9769
-0.01583 -0.029367 0.429 0.33797 0.019595 -0.94095
-0.015793 -0.028507 0.428 0.4398 0.017806 -0.89792
-0.015793 -0.027715 0.428 0.49332 0.017246 -0.86968
-0.015756 -0.02686 0.427 0.51445 0.017041 -0.85735
-0.01572 -0.026009 0.426 0.52893 0.025795 -0.84828
-0.01572 -0.025221 0.426 0.51577 0.03411 -0.85605
-0.015683 -0.024376 0.425 0.47378 0.040683 -0.8797
-0.015683 -0.023589 0.425 0.42876 0.050247 -0.90202
-0.015683 -0.022803 0.425 0.36249 0.067413 -0.92955
-0.015646 -0.021965 0.424 0.30992 0.091722 -0.94633
-0.015646 -0.02118 0.424 0.25396 0.10434 -0.96157
-0.015646 -0.020396 0.424 0.20019 0.1249 -0.97176
-0.015646 -0.019611 0.424 0.1571 0.13502 -0.97831
-0.015646 -0.018827 0.424 0.12009 0.15899 -0.97995
-0.015646 -0.018043 0.424 0.059082 0.18399 -0.98115
-0.015646 -0.017258 0.424 0.019698 0.19127 -0.98134
-0.015646 -0.016474 0.424 -0.024828 0.20117 -0.97924
-0.015646 -0.015689 0.424 -0.07502 0.21931 -0.97277
-0.015646 -0.014905 0.424 -0.13327 0.23435 -0.96297
-0.015646 -0.01412 0.424 -0.17961 0.23547 -0.95514
-0.015646 -0.013336 0.424 -0.22488 0.23323 -0.94606
-0.015646 -0.012551 0.424 -0.25905 0.23862 -0.93592
-0.015683 -0.011795 0.425 -0.28445 0.24272 -0.92745
-0.015683 -0.011008 0.425 -0.32755 0.23922 -0.91405
-0.015683 -0.010222 0.425 -0.3617 0.24047 -0.90075
-0.015683 -0.0094357 0.425 -0.40543 0.23924 -0.88227
-0.01572 -0.0086698 0.426 -0.45116 0.23893 -0.85986
-0.01572 -0.0078816 0.426 -0.48603 0.2397 -0.84043
-0.015756 -0.0071101 0.427 -0.52581 0.23438 -0.81768
-0.015756 -0.0063201 0.427 -0.54561 0.22772 -0.8065
-0.015793 -0.005543 0.428 -0.56521 0.2352 -0.79071
-0.01583 -0.0047623 0.429 -0.57658 0.23618 -0.78216
-0.01583 -0.0039685 0.429 -0.57692 0.23775 -0.78143
-0.015867 -0.0031822 0.43 -0.57734 0.25039 -0.77716
-0.015867 -0.0023867 0.43 -0.57395 0.25087 -0.77952
-0.015904 -0.0015948 0.431 -0.58556 0.26926 -0.7646
-0.015904 -0.00079741 0.431 -0.57719 0.25464 -0.7759
-0.015941 0 0.432 -0.60365 0.27855 -0.747
-0.015941 0.00079926 0.432 -0.57845 0.25241 -0.77568
-0.016015 0.0016059 0.434 -0.64014 0.31538 -0.70054
-0.016052 0.0024144 0.435 -0.64264 0.31868 -0.69675
-0.016052 0.0032192 0.435 -0.65065 0.3184 -0.6894
-0.016089 0.0040333 0.436 -0.65454 0.31748 -0.68614
-0.016125 0.0048511 0.437 -0.64658 0.30501 -0.69921
-0.016162 0.0056725 0.438 -0.64692 0.29064 -0.705
-0.016162 0.0064829 0.438 -0.65987 0.28925 -0.69347
-0.016199 0.0073099 0.439 -0.67331 0.28008 -0.68426
-0.016236 0.0081406 0.44 -0.68549 0.26954 -0.67635
-0.016273 0.008975 0.441 -0.69063 0.25861 -0.67539
-0.01631 0.0098131 0.442 -0.69382 0.25118 -0.67492
-0.016347 0.010655 0.443 -0.69547 0.24006 -0.67727
-0.016347 0.011475 0.443 -0.69439 0.24277 -0.67741
-0.016384 0.012322 0.444 -0.70469 0.23518 -0.66941
-0.016421 0.013173 0.445 -0.71493 0.22766 -0.6611
-0.016421 0.013996 0.445 -0.6369 0.24083 -0.73236
-0.016458 0.014853 0.446 -0.64329 0.23881 -0.72743
-0.016494 0.015713 0.447 -0.62169 0.22593 -0.74997
-0.016531 0.016577 0.448 -0.63044 0.19658 -0.75094
-0.016974 0.017872 0.46 -0.046626 0.32457 -0.94471
-0.016937 0.018683 0.459 -0.48002 0.25724 -0.83869
-0.016974 0.019574 0.46 -0.38282 0.27544 -0.88181
-0.016974 0.020426 0.46 -0.49692 0.24625 -0.83212
-0.016974 0.021277 0.46 -0.45927 0.23636 -0.85627
-0.017011 0.022176 0.461 -0.50146 0.24409 -0.83004
-0.013566 -0.1031 0.387 0.065725 -0.59392 -0.80184
-0.013566 -0.10239 0.387 0.056067 -0.59394 -0.80255
-0.013566 -0.10167 0.387 0.0076318 -0.58631 -0.81005
-0.013566 -0.10096 0.387 -0.032074 -0.57855 -0.81502
-0.013566 -0.10024 0.387 -0.096915 -0.57425 -0.81292
-0.013566 -0.099525 0.387 -0.15736 -0.56603 -0.80923
-0.013601 -0.099064 0.388 -0.19872 -0.55449 -0.80811
-0.013601 -0.098346 0.388 -0.24013 -0.54985 -0.8
-0.013601 -0.097628 0.388 -0.27416 -0.54223 -0.79424
-0.013637 -0.09716 0.389 -0.30557 -0.53531 -0.78745
-0.013637 -0.09644 0.389 -0.33249 -0.53266 -0.77829
-0.013637 -0.095721 0.389 -0.34886 -0.52944 -0.7733
-0.013637 -0.095001 0.389 -0.35838 -0.52691 -0.77067
-0.013672 -0.094524 0.39 -0.43628 -0.49102 -0.75403
-0.013707 -0.094043 0.391 -0.50097 -0.45741 -0.73472
-0.013707 -0.093319 0.391 -0.51128 -0.46258 -0.7243
-0.013742 -0.092833 0.392 -0.59606 -0.40811 -0.69149
-0.013742 -0.092107 0.392 -0.54741 -0.45993 -0.69914
-0.013777 -0.091615 0.393 -0.62668 -0.39047 -0.67439
-0.013847 -0.091351 0.395 -0.77524 -0.17529 -0.60686
-0.013847 -0.09062 0.395 -0.72096 -0.28169 -0.63314
-0.015705 -0.077084 0.448 0.88056 -0.15783 -0.44689
-0.015424 -0.070009 0.44 0.80487 -0.18328 -0.56445
-0.015354 -0.068881 0.438 0.70604 -0.11234 -0.6992
-0.015354 -0.06807 0.438 0.74902 -0.15363 -0.64449
-0.015284 -0.066953 0.436 0.63326 -0.13652 -0.7618
-0.015284 -0.066146 0.436 0.66856 -0.15381 -0.72758
-0.015249 -0.06519 0.435 0.62214 -0.17049 -0.76412
-0.015249 -0.064385 0.435 0.60786 -0.17488 -0.77454
-0.015214 -0.063434 0.434 0.56834 -0.17541 -0.80388
-0.015179 -0.062487 0.433 0.53463 -0.18056 -0.82557
-0.015144 -0.061543 0.432 0.50676 -0.1821 -0.84264
-0.015144 -0.060744 0.432 0.46903 -0.18656 -0.86325
-0.015144 -0.059944 0.432 0.44268 -0.17985 -0.87846
-0.015144 -0.059145 0.432 0.41445 -0.16921 -0.8942
-0.015109 -0.058211 0.431 0.403 -0.16784 -0.89968
-0.015109 -0.057414 0.431 0.38548 -0.14451 -0.91133
-0.015074 -0.056485 0.43 0.37417 -0.12692 -0.91863
-0.015074 -0.055689 0.43 0.35955 -0.099277 -0.92783
-0.015074 -0.054894 0.43 0.36852 -0.080812 -0.9261
-0.015039 -0.053972 0.429 0.35031 -0.062279 -0.93456
-0.015039 -0.053179 0.429 0.32378 -0.037407 -0.94539
-0.015039 -0.052385 0.429 0.30337 -0.022813 -0.9526
-0.015039 -0.051591 0.429 0.26667 -0.0030106 -0.96378
-0.015004 -0.050679 0.428 0.22534 0.0071177 -0.97425
-0.015004 -0.049887 0.428 0.18704 0.028695 -0.98193
-0.015004 -0.049095 0.428 0.1569 0.050441 -0.98632
-0.015004 -0.048303 0.428 0.12846 0.059922 -0.9899
-0.015004 -0.047512 0.428 0.086331 0.069496 -0.99384
-0.015004 -0.04672 0.428 0.047977 0.067606 -0.99656
-0.015004 -0.045928 0.428 0.052155 0.062413 -0.99669
-0.015004 -0.045136 0.428 0.056342 0.054105 -0.99694
-0.015004 -0.044344 0.428 0.059492 0.043715 -0.99727
-0.015004 -0.043552 0.428 0.056378 0.040605 -0.99758
-0.015004 -0.04276 0.428 0.049099 0.03542 -0.99817
-0.015004 -0.041969 0.428 0.023004 0.035453 -0.99911
-0.015004 -0.041177 0.428 0.0031382 0.031295 -0.99951
-0.015004 -0.040385 0.428 -0.020922 0.021907 -0.99954
-0.015004 -0.039593 0.428 -0.042867 0.012512 -0.999
-0.015004 -0.038801 0.428 -0.062671 0.0031249 -0.99803
-0.015004 -0.038009 0.428 -0.074102 -0.0010408 -0.99725
-0.015004 -0.037217 0.428 -0.096865 0.013503 -0.99521
-0.015004 -0.036426 0.428 -0.14089 0.01653 -0.98989
-0.015004 -0.035634 0.428 -0.1621 0.021622 -0.98654
-0.015004 -0.034842 0.428 -0.17212 0.024667 -0.98477
-0.015004 -0.03405 0.428 -0.17212 0.024667 -0.98477
-0.015004 -0.033258 0.428 -0.17014 0.017481 -0.98526
-0.015039 -0.032542 0.429 -0.10589 0.012424 -0.9943
-0.015039 -0.031748 0.429 -0.040686 0.009363 -0.99913
-0.015039 -0.030955 0.429 0.075998 0.0093437 -0.99706
-0.015039 -0.030161 0.429 0.20342 0.012233 -0.97901
-0.015039 -0.029367 0.429 0.33365 0.011778 -0.94262
-0.015004 -0.028507 0.428 0.43986 0.0046864 -0.89805
-0.015004 -0.027715 0.428 0.49339 0.0045389 -0.8698
-0.014969 -0.02686 0.427 0.51452 0.0044851 -0.85747
-0.014969 -0.02607 0.427 0.53137 0.01152 -0.84706
-0.014934 -0.025221 0.426 0.52191 0.016097 -0.85285
-0.014899 -0.024376 0.425 0.48266 0.018406 -0.87562
-0.014899 -0.023589 0.425 0.43996 0.023588 -0.89771
-0.014899 -0.022803 0.425 0.37989 0.038856 -0.92421
-0.014863 -0.021965 0.424 0.33216 0.059504 -0.94135
-0.014863 -0.02118 0.424 0.27918 0.072629 -0.95749
-0.014863 -0.020396 0.424 0.22646 0.088903 -0.96995
-0.014863 -0.019611 0.424 0.18183 0.10303 -0.97792
-0.014863 -0.018827 0.424 0.14112 0.12417 -0.98218
-0.014863 -0.018043 0.424 0.073968 0.14856 -0.98613
-0.014863 -0.017258 0.424 0.032316 0.15905 -0.98674
-0.014863 -0.016474 0.424 -0.015624 0.1662 -0.98597
-0.014863 -0.015689 0.424 -0.070405 0.18585 -0.98005
-0.014863 -0.014905 0.424 -0.13422 0.20333 -0.96987
-0.014863 -0.01412 0.424 -0.18588 0.20258 -0.96146
-0.014863 -0.013336 0.424 -0.2305 0.19774 -0.95277
-0.014863 -0.012551 0.424 -0.26389 0.20457 -0.94261
-0.014863 -0.011767 0.424 -0.28889 0.21336 -0.93328
-0.014899 -0.011008 0.425 -0.33069 0.20986 -0.92011
-0.014899 -0.010222 0.425 -0.36011 0.21108 -0.90872
-0.014899 -0.0094357 0.425 -0.40432 0.21049 -0.89007
-0.014899 -0.0086494 0.425 -0.44496 0.19867 -0.87324
-0.014934 -0.0078816 0.426 -0.48567 0.21417 -0.8475
-0.014969 -0.0071101 0.427 -0.52561 0.21121 -0.82409
-0.014969 -0.0063201 0.427 -0.5458 0.20803 -0.81168
-0.015004 -0.005543 0.428 -0.56656 0.2127 -0.7961
-0.015004 -0.0047512 0.428 -0.57442 0.21415 -0.79005
-0.015039 -0.0039685 0.429 -0.57789 0.21943 -0.78607
-0.015074 -0.0031822 0.43 -0.57499 0.23001 -0.78516
-0.015074 -0.0023867 0.43 -0.57584 0.23583 -0.78281
-0.015109 -0.0015948 0.431 -0.5789 0.25639 -0.77404
-0.015109 -0.00079741 0.431 -0.57765 0.24969 -0.77716
-0.015109 0 0.431 -0.56627 0.22935 -0.79167
-0.015144 0.00079926 0.432 -0.58831 0.25586 -0.76709
-0.015179 0.0016022 0.433 -0.62212 0.28926 -0.72753
-0.015214 0.0024089 0.434 -0.63337 0.30646 -0.71058
-0.015249 0.0032192 0.435 -0.64958 0.31246 -0.69312
-0.015249 0.0040241 0.435 -0.64837 0.30082 -0.69938
-0.015284 0.00484 0.436 -0.65794 0.30638 -0.68793
-0.015319 0.0056596 0.437 -0.66449 0.30408 -0.68264
-0.015354 0.0064829 0.438 -0.66976 0.29666 -0.68074
-0.015389 0.0073099 0.439 -0.6791 0.28448 -0.67668
-0.015389 0.0081221 0.439 -0.68364 0.26281 -0.68085
-0.015424 0.0089547 0.44 -0.69645 0.251 -0.67228
-0.015459 0.0097909 0.441 -0.69329 0.24874 -0.67637
-0.015494 0.010631 0.442 -0.69913 0.23398 -0.67562
-0.01553 0.011475 0.443 -0.70528 0.21765 -0.67469
-0.015565 0.012322 0.444 -0.72117 0.19315 -0.66529
-0.0156 0.013173 0.445 -0.73621 0.16519 -0.65629
-0.0156 0.013996 0.445 -0.67731 0.17715 -0.71405
-0.01567 0.014886 0.447 -0.7361 0.11851 -0.66642
-0.015705 0.015748 0.448 -0.74979 0.07396 -0.65753
-0.01609 0.018683 0.459 -0.42198 0.29468 -0.85738
-0.01609 0.019532 0.459 -0.54129 0.25996 -0.79964
-0.016125 0.020426 0.46 -0.47186 0.27725 -0.83695
-0.016125 0.021277 0.46 -0.48565 0.26435 -0.83323
-0.016161 0.022176 0.461 -0.54358 0.26462 -0.79655
-0.012886 -0.10337 0.388 0.11405 -0.60872 -0.78515
-0.012886 -0.10265 0.388 0.084273 -0.61063 -0.78742
-0.012886 -0.10194 0.388 0.028309 -0.60771 -0.79365
-0.012886 -0.10122 0.388 -0.028705 -0.59653 -0.80208
-0.012886 -0.1005 0.388 -0.092126 -0.58463 -0.80605
-0.012886 -0.099782 0.388 -0.14654 -0.57715 -0.80338
-0.012886 -0.099064 0.388 -0.18806 -0.56631 -0.80245
-0.012919 -0.098599 0.389 -0.22594 -0.55456 -0.80088
-0.012919 -0.09788 0.389 -0.26594 -0.5432 -0.79637
-0.012919 -0.09716 0.389 -0.29912 -0.53584 -0.78956
-0.012919 -0.09644 0.389 -0.32863 -0.52974 -0.7819
-0.012952 -0.095967 0.39 -0.35111 -0.5212 -0.77786
-0.012952 -0.095245 0.39 -0.38201 -0.5117 -0.76957
-0.012952 -0.094524 0.39 -0.42957 -0.47831 -0.76596
-0.012985 -0.094043 0.391 -0.48098 -0.4648 -0.74339
-0.012985 -0.093319 0.391 -0.47453 -0.47088 -0.7437
-0.013018 -0.092833 0.392 -0.54588 -0.44274 -0.71133
-0.013052 -0.092342 0.393 -0.62483 -0.38166 -0.68112
-0.013052 -0.091615 0.393 -0.5556 -0.43445 -0.70892
-0.013085 -0.091119 0.394 -0.62646 -0.36598 -0.68819
-0.014812 -0.075915 0.446 0.8638 -0.055156 -0.50081
-0.014779 -0.074921 0.445 0.78856 -0.047208 -0.61314
-0.014613 -0.070009 0.44 0.80061 -0.162 -0.57687
-0.014546 -0.068881 0.438 0.68638 -0.10195 -0.72006
-0.014513 -0.067915 0.437 0.66955 -0.098405 -0.73622
-0.01448 -0.066953 0.436 0.60196 -0.13689 -0.78671
-0.01448 -0.066146 0.436 0.65942 -0.15065 -0.73653
-0.014446 -0.06519 0.435 0.61272 -0.16036 -0.77386
-0.014446 -0.064385 0.435 0.61028 -0.16654 -0.77449
-0.014413 -0.063434 0.434 0.5705 -0.1621 -0.80514
-0.014413 -0.062631 0.434 0.53492 -0.16874 -0.82788
-0.01438 -0.061685 0.433 0.50997 -0.16546 -0.84413
-0.014347 -0.060744 0.432 0.47353 -0.16635 -0.86493
-0.014347 -0.059944 0.432 0.45036 -0.16513 -0.87745
-0.014347 -0.059145 0.432 0.42151 -0.1552 -0.89344
-0.014314 -0.058211 0.431 0.41307 -0.15622 -0.8972
-0.014314 -0.057414 0.431 0.39795 -0.13542 -0.90736
-0.014314 -0.056616 0.431 0.38665 -0.12221 -0.91409
-0.01428 -0.055689 0.43 0.37211 -0.097803 -0.92302
-0.01428 -0.054894 0.43 0.38728 -0.085824 -0.91796
-0.014247 -0.053972 0.429 0.37448 -0.073148 -0.92435
-0.014247 -0.053179 0.429 0.34702 -0.055565 -0.93621
-0.014247 -0.052385 0.429 0.32371 -0.04232 -0.94521
-0.014247 -0.051591 0.429 0.28792 -0.018942 -0.95747
-0.014214 -0.050679 0.428 0.24552 -0.0010117 -0.96939
-0.014214 -0.049887 0.428 0.20385 0.020431 -0.97879
-0.014214 -0.049095 0.428 0.16797 0.047273 -0.98466
-0.014214 -0.048303 0.428 0.13762 0.059848 -0.98868
-0.014214 -0.047512 0.428 0.092499 0.072551 -0.99307
-0.014214 -0.04672 0.428 0.044809 0.081057 -0.9957
-0.014214 -0.045928 0.428 0.045821 0.088273 -0.99504
-0.014214 -0.045136 0.428 0.047886 0.091354 -0.99467
-0.014214 -0.044344 0.428 0.049963 0.091345 -0.99457
-0.014214 -0.043552 0.428 0.0406 0.094471 -0.9947
-0.014214 -0.04276 0.428 0.033328 0.092438 -0.99516
-0.014214 -0.041969 0.428 0.013546 0.092481 -0.99562
-0.014214 -0.040385 0.428 -0.017729 0.082159 -0.99646
-0.014214 -0.039593 0.428 -0.033378 0.074892 -0.99663
-0.014214 -0.038801 0.428 -0.052155 0.062413 -0.99669
-0.014214 -0.038009 0.428 -0.067786 0.049919 -0.99645
-0.014214 -0.037217 0.428 -0.089507 0.055009 -0.99447
-0.014214 -0.036426 0.428 -0.13358 0.056794 -0.98941
-0.014214 -0.035634 0.428 -0.1558 0.061735 -0.98586
-0.014214 -0.034842 0.428 -0.17287 0.058491 -0.98321
-0.014214 -0.03405 0.428 -0.17992 0.051263 -0.98235
-0.014214 -0.033258 0.428 -0.17902 0.038988 -0.98307
-0.014247 -0.032542 0.429 -0.11508 0.029982 -0.9929
-0.014247 -0.031748 0.429 -0.049005 0.020795 -0.99858
-0.014247 -0.030955 0.429 0.069778 0.015579 -0.99744
-0.014247 -0.030161 0.429 0.19458 0.013276 -0.9808
-0.014247 -0.029367 0.429 0.32309 0.012809 -0.94628
-0.014214 -0.028507 0.428 0.43301 0.00094076 -0.90139
-0.014214 -0.027715 0.428 0.48993 -0.0036393 -0.87175
-0.014181 -0.02686 0.427 0.51451 -0.008073 -0.85745
-0.014148 -0.026009 0.426 0.53548 -0.0035423 -0.84454
-0.014148 -0.025221 0.426 0.52781 -0.0035625 -0.84935
-0.014114 -0.024376 0.425 0.48767 -0.00091759 -0.87303
-0.014114 -0.023589 0.425 0.44767 -0.00093985 -0.8942
-0.014114 -0.022803 0.425 0.39007 0.01645 -0.92064
-0.014114 -0.022017 0.425 0.34766 0.031518 -0.93709
-0.014081 -0.02118 0.424 0.29534 0.049254 -0.95412
-0.014081 -0.020396 0.424 0.2414 0.065283 -0.96823
-0.014081 -0.019611 0.424 0.19912 0.081281 -0.9766
-0.014081 -0.018827 0.424 0.15881 0.097299 -0.9825
-0.014048 -0.018 0.423 0.090049 0.11904 -0.9888
-0.014048 -0.017217 0.423 0.050321 0.13173 -0.99001
-0.014048 -0.016435 0.423 -0.0020967 0.14113 -0.98999
-0.014048 -0.015652 0.423 -0.062641 0.15513 -0.98591
-0.014048 -0.01487 0.423 -0.1282 0.17424 -0.97632
-0.014081 -0.01412 0.424 -0.18207 0.17137 -0.96824
-0.014081 -0.013336 0.424 -0.22428 0.16395 -0.96063
