-0.0050037 0.015889 0.452 -0.18578 0.054134 -0.9811
-0.0050037 0.016725 0.452 -0.17538 0.11499 -0.97776
-0.0050037 0.017562 0.452 -0.17045 0.1929 -0.9663
-0.0050037 0.018398 0.452 -0.17625 0.25377 -0.95107
-0.0050148 0.019277 0.453 -0.19666 0.28493 -0.93816
-0.0050148 0.020115 0.453 -0.2366 0.32182 -0.91676
-0.0050148 0.020953 0.453 -0.26832 0.35074 -0.89721
-0.0050148 0.021791 0.453 -0.30567 0.36809 -0.87811
-0.0050148 0.022629 0.453 -0.31478 0.368 -0.87492
-0.0050258 0.023519 0.454 -0.36596 0.40435 -0.8382
-0.0036531 -0.098176 0.396 -0.029994 -0.35799 -0.93324
-0.0036531 -0.097443 0.396 -0.094062 -0.32247 -0.9419
-0.0036531 -0.09671 0.396 -0.16635 -0.29377 -0.94129
-0.0036531 -0.095978 0.396 -0.218 -0.27297 -0.937
-0.0036531 -0.095245 0.396 -0.25205 -0.25441 -0.93367
-0.0036531 -0.094512 0.396 -0.26814 -0.24207 -0.93247
-0.0036531 -0.09378 0.396 -0.29643 -0.23707 -0.92516
-0.0036624 -0.093282 0.397 -0.3232 -0.22934 -0.91812
-0.0036624 -0.092548 0.397 -0.374 -0.19973 -0.90567
-0.0036624 -0.091813 0.397 -0.42736 -0.17466 -0.88705
-0.0036716 -0.091308 0.398 -0.45156 -0.15884 -0.87799
-0.0036716 -0.090572 0.398 -0.44449 -0.157 -0.88192
-0.0036716 -0.089835 0.398 -0.38852 -0.17498 -0.90467
-0.0036808 -0.089323 0.399 -0.50619 -0.1338 -0.85198
-0.0036808 -0.088585 0.399 -0.41166 -0.14689 -0.89942
-0.0040221 -0.066146 0.436 0.61342 0.023378 -0.78941
-0.0040221 -0.06534 0.436 0.70874 0.0063912 -0.70544
-0.0040129 -0.064385 0.435 0.67417 0.03455 -0.73777
-0.0040037 -0.063434 0.434 0.65197 0.047849 -0.75674
-0.0040037 -0.062631 0.434 0.66634 0.044621 -0.74431
-0.0039945 -0.061685 0.433 0.64782 0.064876 -0.75902
-0.0039852 -0.060744 0.432 0.62977 0.083656 -0.77227
-0.0039852 -0.059944 0.432 0.6061 0.093114 -0.78992
-0.003976 -0.059008 0.431 0.56702 0.1158 -0.81552
-0.0039668 -0.058076 0.43 0.54004 0.13464 -0.8308
-0.0039668 -0.05728 0.43 0.5062 0.13968 -0.85103
-0.0039576 -0.056353 0.429 0.47487 0.1455 -0.86794
-0.0039576 -0.05556 0.429 0.45351 0.15623 -0.87745
-0.0039576 -0.054766 0.429 0.4185 0.16731 -0.89267
-0.0039483 -0.053846 0.428 0.39348 0.17973 -0.9016
-0.0039483 -0.053055 0.428 0.36863 0.18903 -0.91015
-0.0039483 -0.052263 0.428 0.35636 0.19913 -0.91288
-0.0039391 -0.051351 0.427 0.32765 0.20916 -0.92136
-0.0039391 -0.050561 0.427 0.30153 0.22213 -0.92722
-0.0039391 -0.049771 0.427 0.26301 0.23586 -0.93552
-0.0039391 -0.048981 0.427 0.22472 0.24285 -0.94368
-0.0039299 -0.048078 0.426 0.19526 0.25334 -0.94747
-0.0039299 -0.04729 0.426 0.1669 0.26212 -0.95049
-0.0039299 -0.046501 0.426 0.14757 0.25829 -0.95473
-0.0039299 -0.045713 0.426 0.12817 0.2496 -0.95983
-0.0039299 -0.044925 0.426 0.10548 0.24174 -0.96459
-0.0039299 -0.044137 0.426 0.087611 0.23163 -0.96885
-0.0039299 -0.043349 0.426 0.077668 0.22217 -0.97191
-0.0039299 -0.042561 0.426 0.066614 0.2136 -0.97465
-0.0039299 -0.041772 0.426 0.055521 0.20199 -0.97781
-0.0039299 -0.040984 0.426 0.039195 0.19029 -0.98095
-0.0039299 -0.040196 0.426 0.028941 0.18141 -0.98298
-0.0039299 -0.039408 0.426 0.014506 0.16946 -0.98543
-0.0039299 -0.03862 0.426 -0.0072708 0.15537 -0.98783
-0.0039299 -0.037832 0.426 -0.021839 0.14622 -0.98901
-0.0039299 -0.037043 0.426 -0.038536 0.13191 -0.99051
-0.0039299 -0.036255 0.426 -0.051098 0.11751 -0.99176
-0.0039299 -0.035467 0.426 -0.09046 0.11821 -0.98886
-0.0039299 -0.034679 0.426 -0.13971 0.10837 -0.98424
-0.0039299 -0.033891 0.426 -0.18407 0.098446 -0.97797
-0.0039299 -0.033103 0.426 -0.23585 0.098335 -0.9668
-0.0039299 -0.032315 0.426 -0.28975 0.082985 -0.9535
-0.0039391 -0.0316 0.427 -0.31215 0.067412 -0.94764
-0.0039391 -0.03081 0.427 -0.31599 0.053511 -0.94725
-0.0039391 -0.03002 0.427 -0.31609 0.047579 -0.94754
-0.0039483 -0.029299 0.428 -0.31995 0.042476 -0.94648
-0.0039483 -0.028507 0.428 -0.30299 0.035781 -0.95232
-0.0039483 -0.027715 0.428 -0.26343 0.024156 -0.96438
-0.0039483 -0.026923 0.428 -0.2234 -0.0081381 -0.97469
-0.0039483 -0.026131 0.428 -0.17305 -0.036979 -0.98422
-0.0039576 -0.025399 0.429 -0.12591 -0.084396 -0.98844
-0.0039576 -0.024605 0.429 -0.091459 -0.15167 -0.98419
-0.0039576 -0.023811 0.429 -0.060125 -0.20935 -0.97599
-0.0039576 -0.023018 0.429 -0.025108 -0.27241 -0.96185
-0.0039576 -0.022224 0.429 0.022618 -0.33538 -0.94181
-0.0039576 -0.02143 0.429 0.053537 -0.39851 -0.9156
-0.0039668 -0.020685 0.43 0.035405 -0.38948 -0.92035
-0.0039576 -0.019843 0.429 0.10341 -0.49767 -0.86118
-0.0039483 -0.019005 0.428 0.11645 -0.53525 -0.83663
-0.0039483 -0.018213 0.428 0.12689 -0.56728 -0.81369
-0.0039483 -0.017421 0.428 0.13226 -0.59228 -0.7948
-0.0039483 -0.016629 0.428 0.10853 -0.60918 -0.78557
-0.0039391 -0.0158 0.427 0.081206 -0.61542 -0.78401
-0.0039391 -0.01501 0.427 0.078736 -0.60877 -0.78943
-0.0039391 -0.01422 0.427 0.050502 -0.60209 -0.79683
-0.0039483 -0.013462 0.428 -0.036965 -0.62232 -0.78189
-0.0039483 -0.01267 0.428 -0.09449 -0.61836 -0.78019
-0.0039483 -0.011878 0.428 -0.12664 -0.61123 -0.78126
-0.0039483 -0.011086 0.428 -0.14146 -0.59419 -0.79179
-0.0039483 -0.010294 0.428 -0.12431 -0.58174 -0.80382
-0.0041052 0.0074098 0.445 -0.67973 -0.50736 -0.52967
-0.0041144 0.0082516 0.446 -0.6993 -0.50283 -0.50808
-0.0041328 0.0091175 0.448 -0.60535 -0.53353 -0.59067
-0.0041328 0.0099463 0.448 -0.63275 -0.4582 -0.62424
-0.0041421 0.010799 0.449 -0.559 -0.43217 -0.70763
-0.0041605 0.011682 0.451 -0.35333 -0.25195 -0.90093
-0.0041697 0.012544 0.452 -0.20219 -0.10536 -0.97366
-0.0041697 0.01338 0.452 -0.18756 -0.093625 -0.97778
-0.0041605 0.014185 0.451 -0.24448 -0.15158 -0.95773
-0.0041697 0.015053 0.452 -0.1188 -0.017651 -0.99276
-0.0041697 0.015889 0.452 -0.11747 0.039138 -0.99231
-0.0041697 0.016725 0.452 -0.10293 0.1046 -0.98917
-0.0041697 0.017562 0.452 -0.11141 0.17873 -0.97757
-0.0041697 0.018398 0.452 -0.12792 0.23609 -0.96328
-0.0041697 0.019234 0.452 -0.14877 0.27417 -0.9501
-0.0041697 0.02007 0.452 -0.19371 0.31 -0.9308
-0.0041697 0.020907 0.452 -0.22894 0.33663 -0.91338
-0.004179 0.021791 0.453 -0.28886 0.36823 -0.88372
-0.004179 0.022629 0.453 -0.31464 0.37214 -0.87322
-0.004179 0.023467 0.453 -0.29977 0.38194 -0.87422
-0.0029225 -0.098176 0.396 -0.10646 -0.34136 -0.93388
-0.0029225 -0.097443 0.396 -0.15505 -0.31537 -0.93622
-0.0029225 -0.09671 0.396 -0.21007 -0.29048 -0.93354
-0.0029225 -0.095978 0.396 -0.24402 -0.26919 -0.93166
-0.0029225 -0.095245 0.396 -0.26466 -0.24509 -0.93268
-0.0029225 -0.094512 0.396 -0.27225 -0.24068 -0.93164
-0.0029299 -0.094017 0.397 -0.27417 -0.2585 -0.92629
-0.0029299 -0.093282 0.397 -0.31032 -0.24367 -0.91887
-0.0029299 -0.092548 0.397 -0.35379 -0.22089 -0.90887
-0.0029299 -0.091813 0.397 -0.4089 -0.18982 -0.89262
-0.0029373 -0.091308 0.398 -0.42575 -0.17192 -0.88836
-0.0029373 -0.090572 0.398 -0.41879 -0.17347 -0.89136
-0.0029446 -0.090061 0.399 -0.50493 -0.12914 -0.85345
-0.0029446 -0.089323 0.399 -0.46759 -0.14238 -0.8724
-0.002952 -0.088807 0.4 -0.59095 -0.08353 -0.80237
-0.0032177 -0.066146 0.436 0.62876 0.051611 -0.77589
-0.0032177 -0.06534 0.436 0.72021 0.026655 -0.69324
-0.0032103 -0.064385 0.435 0.68622 0.05581 -0.72525
-0.003203 -0.063434 0.434 0.66169 0.075478 -0.74597
-0.0031956 -0.062487 0.433 0.64051 0.094367 -0.76213
-0.0031956 -0.061685 0.433 0.65438 0.088409 -0.75098
-0.0031882 -0.060744 0.432 0.63298 0.11006 -0.7663
-0.0031808 -0.059806 0.431 0.59839 0.13126 -0.79038
-0.0031808 -0.059008 0.431 0.56955 0.14262 -0.80949
-0.0031734 -0.058076 0.43 0.54226 0.1594 -0.82495
-0.0031734 -0.05728 0.43 0.51193 0.15789 -0.84439
-0.0031661 -0.056353 0.429 0.47947 0.16686 -0.86155
-0.0031661 -0.05556 0.429 0.4562 0.17707 -0.87208
-0.0031661 -0.054766 0.429 0.42339 0.18293 -0.88729
-0.0031587 -0.053846 0.428 0.39576 0.19124 -0.89822
-0.0031587 -0.053055 0.428 0.37613 0.19747 -0.90528
-0.0031513 -0.052141 0.427 0.35962 0.20928 -0.90933
-0.0031513 -0.051351 0.427 0.3297 0.21631 -0.91897
-0.0031513 -0.050561 0.427 0.30263 0.23118 -0.92464
-0.0031513 -0.049771 0.427 0.26368 0.23949 -0.93441
-0.0031439 -0.048866 0.426 0.22513 0.24429 -0.94321
-0.0031439 -0.048078 0.426 0.19421 0.25525 -0.94717
-0.0031439 -0.04729 0.426 0.16522 0.25663 -0.95228
-0.0031439 -0.046501 0.426 0.13995 0.25202 -0.95755
-0.0031439 -0.045713 0.426 0.12022 0.24985 -0.96079
-0.0031439 -0.044925 0.426 0.097231 0.25048 -0.96323
-0.0031439 -0.044137 0.426 0.085257 0.24697 -0.96527
-0.0031439 -0.043349 0.426 0.071319 0.23673 -0.96895
-0.0031439 -0.042561 0.426 0.057229 0.22828 -0.97191
-0.0031439 -0.041772 0.426 0.044084 0.21776 -0.97501
-0.0031439 -0.040984 0.426 0.026736 0.20714 -0.97795
-0.0031439 -0.040196 0.426 0.016484 0.19931 -0.9798
-0.0031439 -0.039408 0.426 0.0030967 0.19044 -0.98169
-0.0031439 -0.03862 0.426 -0.016539 0.18246 -0.98307
-0.0031439 -0.037832 0.426 -0.039334 0.17135 -0.98442
-0.0031439 -0.037043 0.426 -0.057073 0.15108 -0.98687
-0.0031365 -0.03617 0.425 -0.068796 0.13097 -0.989
-0.0031439 -0.035467 0.426 -0.099642 0.12524 -0.98711
-0.0031439 -0.034679 0.426 -0.14562 0.11844 -0.98222
-0.0031439 -0.033891 0.426 -0.18697 0.10245 -0.97701
-0.0031439 -0.033103 0.426 -0.23578 0.10135 -0.96651
-0.0031439 -0.032315 0.426 -0.29154 0.084921 -0.95278
-0.0031439 -0.031526 0.426 -0.31545 0.069466 -0.94639
-0.0031513 -0.03081 0.427 -0.31866 0.054447 -0.94631
-0.0031513 -0.03002 0.427 -0.31788 0.047549 -0.94694
-0.0031513 -0.02923 0.427 -0.32583 0.050369 -0.94409
-0.0031587 -0.028507 0.428 -0.3118 0.050503 -0.9488
-0.0031587 -0.027715 0.428 -0.27627 0.047087 -0.95992
-0.0031587 -0.026923 0.428 -0.2445 0.023269 -0.96937
-0.0031587 -0.026131 0.428 -0.19996 -0.0030678 -0.9798
-0.0031661 -0.025399 0.429 -0.16069 -0.030816 -0.98652
-0.0031661 -0.024605 0.429 -0.13498 -0.089393 -0.98681
-0.0031661 -0.023811 0.429 -0.11811 -0.13622 -0.98361
-0.0031661 -0.023018 0.429 -0.096811 -0.19512 -0.97599
-0.0031661 -0.022224 0.429 -0.05539 -0.25811 -0.96453
-0.0031734 -0.02148 0.43 -0.028529 -0.32766 -0.94436
-0.0031734 -0.020685 0.43 0.0047919 -0.39185 -0.92002
-0.0031734 -0.019889 0.43 0.024619 -0.44264 -0.89636
-0.0031734 -0.019093 0.43 0.044186 -0.4867 -0.87245
-0.0031661 -0.018255 0.429 0.087879 -0.54577 -0.83331
-0.0031661 -0.017462 0.429 0.10384 -0.57922 -0.80853
-0.0031587 -0.016629 0.428 0.088503 -0.60626 -0.79033
-0.0031587 -0.015837 0.428 0.065892 -0.6185 -0.78302
-0.0031587 -0.015045 0.428 0.053244 -0.62653 -0.77758
-0.0031587 -0.014253 0.428 0.028224 -0.62855 -0.77726
-0.0031587 -0.013462 0.428 0.016971 -0.62555 -0.78
-0.0031661 -0.012699 0.429 -0.1398 -0.65374 -0.7437
-0.0031587 -0.011878 0.428 -0.017137 -0.6111 -0.79137
-0.0032989 0.0074431 0.447 -0.56493 -0.64213 -0.51818
-0.0033063 0.0082886 0.448 -0.58396 -0.60256 -0.54398
-0.0033063 0.0091175 0.448 -0.65418 -0.51633 -0.55267
-0.0033137 0.0099685 0.449 -0.54818 -0.47879 -0.68576
-0.003321 0.010823 0.45 -0.44091 -0.43398 -0.78566
-0.0033358 0.011708 0.452 -0.19889 -0.1967 -0.96008
-0.0033358 0.012544 0.452 -0.18174 -0.20263 -0.96224
-0.0033358 0.01338 0.452 -0.14099 -0.16502 -0.97616
-0.0033284 0.014185 0.451 -0.15325 -0.17862 -0.97191
-0.0033358 0.015053 0.452 -0.044316 -0.051467 -0.99769
-0.0033358 0.015889 0.452 -0.041147 0.014257 -0.99905
-0.0033358 0.016725 0.452 -0.027621 0.091488 -0.99542
-0.0033358 0.017562 0.452 -0.046947 0.15411 -0.98694
-0.0033358 0.018398 0.452 -0.076371 0.20631 -0.9755
-0.0033358 0.019234 0.452 -0.10015 0.25207 -0.96251
-0.0033358 0.02007 0.452 -0.15364 0.28774 -0.94531
-0.0033358 0.020907 0.452 -0.20602 0.32232 -0.92394
-0.0033358 0.021743 0.452 -0.25814 0.34826 -0.90115
-0.0033358 0.022579 0.452 -0.28081 0.34266 -0.89651
-0.0033432 0.023467 0.453 -0.32015 0.36753 -0.87317
-0.0021919 -0.098176 0.396 -0.19216 -0.31085 -0.93083
-0.0021919 -0.097443 0.396 -0.22607 -0.28757 -0.9307
-0.0021919 -0.09671 0.396 -0.26523 -0.2619 -0.92793
-0.0021919 -0.095978 0.396 -0.28433 -0.23908 -0.92844
-0.0021919 -0.095245 0.396 -0.28942 -0.22371 -0.9307
-0.0021974 -0.094751 0.397 -0.21817 -0.28415 -0.93363
-0.0021974 -0.094017 0.397 -0.27139 -0.25946 -0.92684
-0.0021974 -0.093282 0.397 -0.30309 -0.24971 -0.91966
-0.0021974 -0.092548 0.397 -0.33737 -0.23489 -0.9116
-0.002203 -0.092044 0.398 -0.38737 -0.20576 -0.89867
-0.002203 -0.091308 0.398 -0.4023 -0.19464 -0.89458
-0.002203 -0.090572 0.398 -0.39494 -0.20294 -0.89601
-0.0022085 -0.090061 0.399 -0.47146 -0.15908 -0.86742
-0.0022085 -0.089323 0.399 -0.43026 -0.18012 -0.88455
-0.002214 -0.088807 0.4 -0.5538 -0.11676 -0.82442
-0.0024188 -0.067106 0.437 0.66879 0.040817 -0.74233
-0.0024133 -0.066146 0.436 0.64365 0.075395 -0.76159
-0.0024077 -0.064385 0.435 0.7001 0.085327 -0.70893
-0.0024022 -0.063434 0.434 0.67392 0.10585 -0.73118
-0.0023967 -0.062487 0.433 0.65463 0.12754 -0.74512
-0.0023967 -0.061685 0.433 0.66144 0.12469 -0.73956
-0.0023911 -0.060744 0.432 0.63656 0.14673 -0.75714
-0.0023856 -0.059806 0.431 0.5998 0.17017 -0.78184
-0.0023856 -0.059008 0.431 0.56778 0.18458 -0.80222
-0.0023801 -0.058076 0.43 0.53707 0.19925 -0.81967
-0.0023745 -0.057147 0.429 0.50674 0.20161 -0.8382
-0.0023745 -0.056353 0.429 0.47286 0.20859 -0.85609
-0.0023745 -0.05556 0.429 0.44931 0.21319 -0.86757
-0.002369 -0.054638 0.428 0.42186 0.20989 -0.88203
-0.002369 -0.053846 0.428 0.39791 0.21238 -0.8925
-0.002369 -0.053055 0.428 0.37745 0.22058 -0.89938
-0.0023635 -0.052141 0.427 0.36054 0.22802 -0.90444
-0.0023635 -0.051351 0.427 0.33013 0.23256 -0.91484
-0.0023635 -0.050561 0.427 0.30289 0.23933 -0.92248
-0.0023579 -0.049654 0.426 0.26827 0.24702 -0.93114
-0.0023579 -0.048866 0.426 0.23207 0.2531 -0.93919
-0.0023579 -0.048078 0.426 0.2035 0.25937 -0.94409
-0.0023579 -0.04729 0.426 0.17581 0.25801 -0.95001
-0.0023579 -0.046501 0.426 0.14561 0.25836 -0.95501
-0.0023579 -0.045713 0.426 0.12078 0.26297 -0.95721
-0.0023579 -0.044925 0.426 0.098772 0.26735 -0.95852
-0.0023524 -0.044033 0.425 0.082991 0.26645 -0.96027
-0.0023524 -0.043247 0.425 0.064965 0.26117 -0.96311
-0.0023524 -0.042461 0.425 0.046778 0.2586 -0.96485
-0.0023524 -0.041674 0.425 0.029541 0.25497 -0.9665
-0.0023524 -0.040888 0.425 0.009204 0.2417 -0.97031
-0.0023524 -0.040102 0.425 -0.0020509 0.23111 -0.97293
-0.0023524 -0.039315 0.425 -0.014388 0.22137 -0.97508
-0.0023524 -0.038529 0.425 -0.030861 0.21543 -0.97603
-0.0023524 -0.037743 0.425 -0.054607 0.20344 -0.97756
-0.0023524 -0.036957 0.425 -0.077524 0.17936 -0.98072
-0.0023524 -0.03617 0.425 -0.092263 0.15507 -0.98359
-0.0023524 -0.035384 0.425 -0.11906 0.14454 -0.98231
-0.0023579 -0.034679 0.426 -0.15938 0.13535 -0.97789
-0.0023579 -0.033891 0.426 -0.19955 0.11429 -0.9732
-0.0023579 -0.033103 0.426 -0.24041 0.10723 -0.96473
-0.0023579 -0.032315 0.426 -0.29778 0.09068 -0.95032
-0.0023579 -0.031526 0.426 -0.31785 0.081225 -0.94465
-0.0023635 -0.03081 0.427 -0.31743 0.071224 -0.9456
-0.0023635 -0.03002 0.427 -0.31758 0.064329 -0.94605
-0.0023635 -0.02923 0.427 -0.32544 0.070038 -0.94296
-0.002369 -0.028507 0.428 -0.31574 0.076988 -0.94572
-0.002369 -0.027715 0.428 -0.28487 0.081737 -0.95507
-0.002369 -0.026923 0.428 -0.25733 0.0634 -0.96424
-0.002369 -0.026131 0.428 -0.22029 0.042717 -0.9745
-0.0023745 -0.025399 0.429 -0.19157 0.026561 -0.98112
-0.0023745 -0.024605 0.429 -0.17873 -0.017413 -0.98374
-0.0023745 -0.023811 0.429 -0.17552 -0.053226 -0.98304
-0.0023745 -0.023018 0.429 -0.16276 -0.11127 -0.98037
-0.0023745 -0.022224 0.429 -0.12337 -0.17691 -0.97646
-0.0023801 -0.02148 0.43 -0.097434 -0.24642 -0.96425
-0.0023801 -0.020685 0.43 -0.06386 -0.32625 -0.94312
-0.0023801 -0.019889 0.43 -0.028643 -0.39894 -0.91653
-0.0023856 -0.019138 0.431 -0.17192 -0.26801 -0.94795
-0.0023801 -0.018298 0.43 0.020487 -0.50598 -0.8623
-0.0023801 -0.017502 0.43 0.03543 -0.5452 -0.83756
-0.0023745 -0.016668 0.429 0.046989 -0.59327 -0.80363
-0.0023745 -0.015874 0.429 0.028431 -0.6165 -0.78684
-0.0023745 -0.01508 0.429 0.017422 -0.63382 -0.77329
-0.0023745 -0.014287 0.429 -0.0085291 -0.64362 -0.7653
-0.0023745 -0.013493 0.429 -0.023594 -0.64965 -0.75987
-0.0023745 -0.012699 0.429 -0.062722 -0.65207 -0.75556
-0.0023745 -0.011906 0.429 -0.05707 -0.65151 -0.75649
-0.0024797 0.0074598 0.448 -0.54872 -0.65269 -0.52239
-0.0024797 0.0082886 0.448 -0.66256 -0.55838 -0.49922
-0.0024852 0.0091378 0.449 -0.58076 -0.48935 -0.65058
-0.0024908 0.0099907 0.45 -0.44549 -0.49022 -0.74915
-0.0025018 0.010871 0.452 -0.17093 -0.3465 -0.92235
-0.0025018 0.011708 0.452 -0.18685 -0.32141 -0.92832
-0.0025018 0.012544 0.452 -0.14945 -0.29687 -0.94315
-0.0025018 0.01338 0.452 -0.087168 -0.24048 -0.96673
-0.0024963 0.014185 0.451 -0.064993 -0.20424 -0.97676
-0.0024963 0.015019 0.451 -0.0064966 -0.11665 -0.99315
-0.0025018 0.015889 0.452 0.033666 -0.022711 -0.99918
-0.0025018 0.016725 0.452 0.046419 0.067959 -0.99661
-0.0025018 0.017562 0.452 0.014742 0.12741 -0.99174
-0.0025018 0.018398 0.452 -0.017566 0.17322 -0.98473
-0.0025018 0.019234 0.452 -0.050187 0.22137 -0.9739
-0.0025018 0.02007 0.452 -0.10832 0.26248 -0.95884
-0.0025018 0.020907 0.452 -0.17038 0.29712 -0.93952
-0.0025018 0.021743 0.452 -0.23513 0.33459 -0.91256
-0.0025018 0.022579 0.452 -0.27317 0.33317 -0.90243
-0.0025018 0.023415 0.452 -0.25628 0.33739 -0.90581
-0.0014649 -0.097689 0.397 0.022972 -0.36981 -0.92882
-0.0014649 -0.096955 0.397 -0.047181 -0.35326 -0.93433
-0.0014649 -0.09622 0.397 -0.12119 -0.32588 -0.93761
-0.0014649 -0.095486 0.397 -0.18714 -0.30048 -0.93525
-0.0014649 -0.094751 0.397 -0.22945 -0.27727 -0.93299
-0.0014649 -0.094017 0.397 -0.27469 -0.26137 -0.92533
-0.0014649 -0.093282 0.397 -0.29913 -0.25741 -0.91884
-0.0014649 -0.092548 0.397 -0.32229 -0.25157 -0.9126
-0.0014686 -0.092044 0.398 -0.3714 -0.22162 -0.90164
-0.0014686 -0.091308 0.398 -0.38333 -0.21889 -0.8973
-0.0014723 -0.090799 0.399 -0.43981 -0.18431 -0.87898
-0.0014723 -0.090061 0.399 -0.42961 -0.19216 -0.88233
-0.0014723 -0.089323 0.399 -0.38508 -0.21163 -0.89829
-0.001476 -0.088807 0.4 -0.51519 -0.14654 -0.84446
-0.0016162 -0.06726 0.438 0.78203 0.073412 -0.6189
-0.0016089 -0.06534 0.436 0.74651 0.11383 -0.65556
-0.0016052 -0.064385 0.435 0.7143 0.13502 -0.68669
-0.0016015 -0.063434 0.434 0.68833 0.15929 -0.7077
-0.0015978 -0.062487 0.433 0.66449 0.17824 -0.72573
-0.0015941 -0.061543 0.432 0.64545 0.19698 -0.73797
-0.0015941 -0.060744 0.432 0.63392 0.20508 -0.74571
-0.0015904 -0.059806 0.431 0.59363 0.22427 -0.77285
-0.0015867 -0.058871 0.43 0.55927 0.23761 -0.7942
-0.0015867 -0.058076 0.43 0.52786 0.24886 -0.81206
-0.001583 -0.057147 0.429 0.49765 0.25073 -0.83035
-0.001583 -0.056353 0.429 0.46519 0.25184 -0.84863
-0.001583 -0.05556 0.429 0.43942 0.25143 -0.86238
-0.0015793 -0.054638 0.428 0.4177 0.2439 -0.87524
-0.0015793 -0.053846 0.428 0.39594 0.24134 -0.88599
-0.0015756 -0.052931 0.427 0.37458 0.24248 -0.89493
-0.0015756 -0.052141 0.427 0.35489 0.24537 -0.90214
-0.0015756 -0.051351 0.427 0.33148 0.24673 -0.91063
-0.001572 -0.050442 0.426 0.30702 0.25033 -0.91819
-0.001572 -0.049654 0.426 0.27304 0.25575 -0.92738
-0.001572 -0.048866 0.426 0.24287 0.25789 -0.93515
-0.001572 -0.048078 0.426 0.21488 0.25872 -0.94175
-0.001572 -0.04729 0.426 0.18152 0.25959 -0.94851
-0.0015683 -0.046392 0.425 0.14565 0.26545 -0.95306
-0.0015683 -0.045606 0.425 0.12075 0.27193 -0.95471
-0.0015683 -0.04482 0.425 0.093775 0.27552 -0.95671
-0.0015683 -0.044033 0.425 0.072728 0.27601 -0.9584
-0.0015683 -0.043247 0.425 0.04958 0.27547 -0.96003
-0.0015683 -0.042461 0.425 0.03242 0.27379 -0.96124
-0.0015683 -0.041674 0.425 0.017239 0.27203 -0.96214
-0.0015683 -0.040102 0.425 -0.012241 0.25126 -0.96784
-0.0015683 -0.039315 0.425 -0.02351 0.2426 -0.96984
-0.0015683 -0.038529 0.425 -0.042987 0.23475 -0.9711
-0.0015683 -0.037743 0.425 -0.068669 0.22281 -0.97244
-0.0015683 -0.036957 0.425 -0.092488 0.20189 -0.97503
-0.0015683 -0.03617 0.425 -0.11235 0.17577 -0.978
-0.0015683 -0.035384 0.425 -0.137 0.16128 -0.97735
-0.001572 -0.034679 0.426 -0.17395 0.15102 -0.97311
-0.001572 -0.033891 0.426 -0.21485 0.12693 -0.96837
-0.001572 -0.033103 0.426 -0.24971 0.11493 -0.96148
-0.001572 -0.032315 0.426 -0.30025 0.099474 -0.94866
-0.001572 -0.031526 0.426 -0.31833 0.095926 -0.94311
-0.0015756 -0.03081 0.427 -0.31603 0.090891 -0.94439
-0.0015756 -0.03002 0.427 -0.31887 0.084927 -0.94399
-0.0015756 -0.02923 0.427 -0.32408 0.088678 -0.94187
-0.0015793 -0.028507 0.428 -0.31605 0.097509 -0.94372
-0.0015793 -0.027715 0.428 -0.29139 0.11008 -0.95025
-0.0015793 -0.026923 0.428 -0.26966 0.09897 -0.95786
-0.0015793 -0.026131 0.428 -0.23709 0.080832 -0.96812
-0.001583 -0.025399 0.429 -0.22127 0.077938 -0.97209
-0.001583 -0.024605 0.429 -0.21879 0.047696 -0.97461
-0.001583 -0.023811 0.429 -0.22192 0.016242 -0.97493
-0.001583 -0.023018 0.429 -0.22182 -0.033485 -0.97451
-0.001583 -0.022224 0.429 -0.18981 -0.093625 -0.97735
-0.0015867 -0.02148 0.43 -0.17506 -0.16045 -0.9714
-0.0015867 -0.020685 0.43 -0.13994 -0.24422 -0.95957
-0.0015867 -0.019889 0.43 -0.10546 -0.33205 -0.93735
-0.0015904 -0.019138 0.431 -0.16857 -0.30646 -0.93684
-0.0015867 -0.018298 0.43 -0.047359 -0.46798 -0.88247
-0.0015904 -0.017543 0.431 -0.099564 -0.42885 -0.89787
-0.0015867 -0.016707 0.43 -0.0076557 -0.56807 -0.82294
-0.0015867 -0.015911 0.43 -0.015738 -0.60007 -0.7998
-0.0015867 -0.015116 0.43 -0.025545 -0.62627 -0.77918
-0.0015867 -0.01432 0.43 -0.05588 -0.64606 -0.76124
-0.001583 -0.013493 0.429 0.050733 -0.62349 -0.78018
-0.0015867 -0.012729 0.43 -0.11624 -0.67119 -0.73212
-0.0016568 0.0074764 0.449 -0.52693 -0.63442 -0.56557
-0.0016605 0.0083256 0.45 -0.45408 -0.57166 -0.68339
-0.0016642 0.0091785 0.451 -0.33946 -0.54004 -0.77015
-0.0016679 0.010035 0.452 -0.14474 -0.49183 -0.85858
-0.0016716 0.010895 0.453 0.072011 -0.32271 -0.94375
-0.0016679 0.011708 0.452 -0.13671 -0.42347 -0.89554
-0.0016679 0.012544 0.452 -0.089409 -0.37452 -0.9229
-0.0016642 0.013351 0.451 -0.056601 -0.3423 -0.93788
-0.0016642 0.014185 0.451 0.024238 -0.24733 -0.96863
-0.0016679 0.015053 0.452 0.10404 -0.12917 -0.98615
-0.0016642 0.015854 0.451 0.11625 -0.050107 -0.99195
-0.0016679 0.016725 0.452 0.10345 0.030457 -0.99417
-0.0016679 0.017562 0.452 0.066009 0.085476 -0.99415
-0.0016679 0.018398 0.452 0.027483 0.13508 -0.99045
-0.0016642 0.019191 0.451 -0.0058553 0.18588 -0.98256
-0.0016642 0.020026 0.451 -0.070332 0.23251 -0.97005
-0.0016642 0.02086 0.451 -0.13842 0.26379 -0.9546
-0.0016679 0.021743 0.452 -0.21284 0.30046 -0.92974
-0.0016679 0.022579 0.452 -0.26183 0.30339 -0.91619
-0.0016679 0.023415 0.452 -0.26816 0.30367 -0.91426
-0.00073247 -0.096955 0.397 -0.11585 -0.33653 -0.93452
-0.00073247 -0.09622 0.397 -0.16903 -0.31549 -0.93375
-0.00073247 -0.095486 0.397 -0.21607 -0.2942 -0.931
-0.00073247 -0.094751 0.397 -0.24477 -0.27259 -0.93048
-0.00073247 -0.094017 0.397 -0.28103 -0.26545 -0.92226
-0.00073247 -0.093282 0.397 -0.29764 -0.26701 -0.91658
-0.00073432 -0.092781 0.398 -0.30892 -0.2702 -0.9119
-0.00073432 -0.092044 0.398 -0.34846 -0.24284 -0.90532
-0.00073432 -0.091308 0.398 -0.36022 -0.23957 -0.90158
-0.00073616 -0.090799 0.399 -0.40192 -0.21088 -0.89106
-0.00073616 -0.090061 0.399 -0.39346 -0.21723 -0.89331
-0.00073616 -0.089323 0.399 -0.34793 -0.23651 -0.9072
-0.00073801 -0.088807 0.4 -0.47589 -0.17008 -0.8629
-0.00073801 -0.088067 0.4 -0.39471 -0.19314 -0.89828
-0.00080627 -0.066298 0.437 0.7841 0.13954 -0.60474
-0.00080443 -0.06534 0.436 0.76144 0.14425 -0.63198
-0.00080443 -0.064533 0.436 0.76703 0.10833 -0.63241
-0.00080074 -0.063434 0.434 0.70378 0.1994 -0.68186
-0.00079889 -0.062487 0.433 0.67795 0.21515 -0.70292
-0.00079705 -0.061543 0.432 0.64996 0.24265 -0.72019
-0.0007952 -0.060603 0.431 0.60298 0.26278 -0.75323
-0.0007952 -0.059806 0.431 0.58739 0.27583 -0.76085
-0.00079336 -0.058871 0.43 0.54819 0.29367 -0.7831
-0.00079336 -0.058076 0.43 0.51615 0.29782 -0.80305
-0.00079151 -0.057147 0.429 0.48528 0.29636 -0.8226
-0.00079151 -0.056353 0.429 0.45225 0.29687 -0.84103
-0.00078967 -0.05543 0.428 0.42718 0.29204 -0.8557
-0.00078967 -0.054638 0.428 0.40512 0.28144 -0.86987
-0.00078967 -0.053846 0.428 0.38063 0.27547 -0.88274
-0.00078782 -0.052931 0.427 0.36581 0.2736 -0.88957
-0.00078782 -0.052141 0.427 0.34901 0.27206 -0.89676
-0.00078782 -0.051351 0.427 0.32844 0.27074 -0.90489
-0.00078598 -0.050442 0.426 0.30747 0.26542 -0.91379
-0.00078598 -0.049654 0.426 0.27691 0.26355 -0.92405
-0.00078598 -0.048866 0.426 0.24495 0.26773 -0.93184
-0.00078413 -0.047965 0.425 0.21099 0.26868 -0.93984
-0.00078413 -0.047179 0.425 0.17674 0.26686 -0.94739
-0.00078413 -0.046392 0.425 0.14046 0.27215 -0.95195
-0.00078413 -0.045606 0.425 0.11069 0.27596 -0.95477
-0.00078413 -0.04482 0.425 0.078687 0.27867 -0.95716
-0.00078413 -0.044033 0.425 0.058641 0.27626 -0.95929
-0.00078413 -0.043247 0.425 0.037458 0.27561 -0.96054
-0.00078413 -0.042461 0.425 0.023295 0.27573 -0.96095
-0.00078413 -0.041674 0.425 0.012153 0.27672 -0.96087
-0.00078413 -0.040102 0.425 -0.012209 0.26075 -0.96533
-0.00078413 -0.039315 0.425 -0.028567 0.24927 -0.96801
-0.00078413 -0.038529 0.425 -0.0521 0.24042 -0.96927
-0.00078413 -0.037743 0.425 -0.080763 0.22939 -0.96998
-0.00078413 -0.036957 0.425 -0.10647 0.21236 -0.97137
-0.00078413 -0.03617 0.425 -0.13236 0.18623 -0.97355
-0.00078413 -0.035384 0.425 -0.15592 0.16878 -0.97324
-0.00078413 -0.034598 0.425 -0.19092 0.15883 -0.96867
-0.00078598 -0.033891 0.426 -0.22801 0.13845 -0.96376
-0.00078598 -0.033103 0.426 -0.25404 0.12767 -0.95873
-0.00078598 -0.032315 0.426 -0.30068 0.11418 -0.94687
-0.00078598 -0.031526 0.426 -0.31424 0.11171 -0.94275
-0.00078782 -0.03081 0.427 -0.3118 0.11154 -0.94358
-0.00078782 -0.03002 0.427 -0.31018 0.10673 -0.94467
-0.00078782 -0.02923 0.427 -0.31636 0.10845 -0.94242
-0.00078967 -0.028507 0.428 -0.30926 0.1143 -0.94408
-0.00078967 -0.027715 0.428 -0.29074 0.12864 -0.94812
-0.00078967 -0.026923 0.428 -0.2707 0.12551 -0.95445
-0.00078967 -0.026131 0.428 -0.24966 0.11143 -0.9619
-0.00078967 -0.02534 0.428 -0.24396 0.11259 -0.96323
-0.00079151 -0.024605 0.429 -0.24781 0.088401 -0.96477
-0.00079151 -0.023811 0.429 -0.26424 0.065126 -0.96225
-0.00079151 -0.023018 0.429 -0.27868 0.023992 -0.96008
-0.00079151 -0.022224 0.429 -0.25812 -0.02916 -0.96567
-0.00079336 -0.02148 0.43 -0.24817 -0.090176 -0.96451
-0.00079336 -0.020685 0.43 -0.22212 -0.16763 -0.9605
-0.00079336 -0.019889 0.43 -0.19334 -0.25675 -0.94694
-0.00079336 -0.019093 0.43 -0.15246 -0.3445 -0.92632
-0.0007952 -0.01834 0.431 -0.17449 -0.35347 -0.91903
-0.0007952 -0.017543 0.431 -0.12831 -0.43845 -0.88955
-0.0007952 -0.016746 0.431 -0.099476 -0.50992 -0.85445
-0.0007952 -0.015948 0.431 -0.083822 -0.55855 -0.82523
-0.00079336 -0.015116 0.43 -0.022368 -0.59507 -0.80337
-0.00079336 -0.01432 0.43 -0.021066 -0.6179 -0.78597
-0.00079336 -0.013525 0.43 0.0062893 -0.63423 -0.77312
-0.00079336 -0.012729 0.43 0.0098695 -0.64954 -0.76027
-0.00079336 -0.011933 0.43 0.048037 -0.65827 -0.75125
-0.0007952 -0.010366 0.431 -0.10618 -0.69581 -0.71033
-0.00083026 0.0074931 0.45 -0.50062 -0.61183 -0.61241
-0.0008321 0.0083441 0.451 -0.37901 -0.56679 -0.73151
-0.00083395 0.0091989 0.452 -0.18866 -0.57914 -0.7931
-0.00083395 0.010035 0.452 -0.15257 -0.55278 -0.81924
-0.00083579 0.010895 0.453 0.058235 -0.41976 -0.90576
-0.00083579 0.011734 0.453 0.060101 -0.37941 -0.92327
-0.00083579 0.012572 0.453 0.10447 -0.3305 -0.938
-0.00083395 0.01338 0.452 0.050368 -0.34924 -0.93568
-0.00083395 0.014216 0.452 0.1158 -0.26314 -0.95778
-0.00083395 0.015053 0.452 0.17147 -0.16043 -0.97204
-0.00083395 0.015889 0.452 0.18732 -0.075496 -0.97939
-0.00083395 0.016725 0.452 0.15755 -0.0087829 -0.98747
-0.0008321 0.017523 0.451 0.11241 0.0413 -0.9928
-0.0008321 0.018357 0.451 0.071042 0.089541 -0.99345
-0.0008321 0.019191 0.451 0.035365 0.14303 -0.98909
-0.0008321 0.020026 0.451 -0.031185 0.19048 -0.9812
-0.0008321 0.02086 0.451 -0.10595 0.21995 -0.96974
-0.0008321 0.021695 0.451 -0.18664 0.2538 -0.94908
-0.0008321 0.022529 0.451 -0.24505 0.26194 -0.93346
-0.00083395 0.023415 0.452 -0.27224 0.266 -0.92473
0 -0.096955 0.397 -0.18576 -0.32643 -0.92679
0 -0.09622 0.397 -0.22125 -0.30927 -0.92488
0 -0.095486 0.397 -0.25137 -0.28973 -0.92351
0 -0.094751 0.397 -0.26971 -0.27073 -0.9241
0 -0.094017 0.397 -0.29307 -0.27201 -0.91658
0 -0.093517 0.398 -0.26917 -0.2971 -0.91612
0 -0.092781 0.398 -0.29167 -0.28677 -0.91252
0 -0.092044 0.398 -0.32875 -0.26268 -0.90715
0 -0.091308 0.398 -0.34056 -0.25969 -0.90365
0 -0.090799 0.399 -0.3759 -0.23503 -0.89636
0 -0.090061 0.399 -0.36706 -0.23932 -0.89889
0 -0.089323 0.399 -0.3103 -0.25309 -0.91633
0 -0.088585 0.399 -0.18822 -0.27341 -0.9433
0 -0.088067 0.4 -0.34109 -0.21709 -0.91462
0 -0.087545 0.401 -0.50559 -0.16105 -0.84761
0 -0.086803 0.401 -0.43206 -0.16935 -0.8858
0 -0.066146 0.436 0.70992 0.18297 -0.6801
0 -0.064533 0.436 0.75261 0.095905 -0.65144
0 -0.063434 0.434 0.71006 0.22261 -0.66803
0 -0.062487 0.433 0.68215 0.24738 -0.68809
0 -0.061543 0.432 0.6514 0.27561 -0.70691
0 -0.060603 0.431 0.60991 0.30256 -0.73244
0 -0.059806 0.431 0.58012 0.31341 -0.75182
0 -0.058871 0.43 0.53875 0.33217 -0.77422
0 -0.057941 0.429 0.49919 0.33287 -0.80001
0 -0.057147 0.429 0.46986 0.33505 -0.81669
0 -0.056353 0.429 0.43883 0.3306 -0.83554
0 -0.05543 0.428 0.40781 0.32659 -0.85266
0 -0.054638 0.428 0.38495 0.31507 -0.86749
0 -0.053721 0.427 0.366 0.30614 -0.87882
0 -0.052931 0.427 0.35625 0.3016 -0.88438
0 -0.052141 0.427 0.34157 0.29583 -0.89208
0 -0.05123 0.426 0.32435 0.29328 -0.89932
0 -0.050442 0.426 0.30231 0.2843 -0.90983
0 -0.049654 0.426 0.27195 0.28085 -0.92041
0 -0.048751 0.425 0.2361 0.28332 -0.92951
0 -0.047965 0.425 0.20285 0.27827 -0.93884
0 -0.047179 0.425 0.17056 0.27452 -0.94633
0 -0.046392 0.425 0.13623 0.27969 -0.95038
0 -0.045606 0.425 0.10741 0.28529 -0.9524
0 -0.04482 0.425 0.081485 0.28692 -0.95448
0 -0.044033 0.425 0.067472 0.28722 -0.95549
0 -0.043247 0.425 0.047386 0.28755 -0.95659
0 -0.042461 0.425 0.029284 0.28498 -0.95809
0 -0.041674 0.425 0.014146 0.28415 -0.95868
0 -0.040888 0.425 -0.0020239 0.27953 -0.96013
0 -0.040102 0.425 -0.018273 0.26827 -0.96317
0 -0.039315 0.425 -0.043779 0.25484 -0.96599
0 -0.038529 0.425 -0.075371 0.2458 -0.96639
0 -0.037743 0.425 -0.10499 0.23175 -0.96709
0 -0.036957 0.425 -0.12958 0.21468 -0.96805
0 -0.03617 0.425 -0.15743 0.18554 -0.96994
0 -0.035384 0.425 -0.17505 0.16129 -0.97126
0 -0.034598 0.425 -0.20775 0.15234 -0.96625
0 -0.033811 0.425 -0.24195 0.1373 -0.96052
0 -0.033103 0.426 -0.2636 0.1224 -0.95683
0 -0.032315 0.426 -0.30526 0.11205 -0.94565
0 -0.031526 0.426 -0.31334 0.11174 -0.94304
0 -0.030738 0.426 -0.31048 0.11673 -0.94338
0 -0.03002 0.427 -0.30282 0.11188 -0.94646
0 -0.02923 0.427 -0.30445 0.1167 -0.94535
0 -0.028507 0.428 -0.29831 0.11959 -0.94695
0 -0.027715 0.428 -0.28596 0.13466 -0.94873
0 -0.026923 0.428 -0.26743 0.13931 -0.95345
0 -0.026131 0.428 -0.25301 0.12515 -0.95933
0 -0.02534 0.428 -0.25298 0.12614 -0.95921
0 -0.024548 0.428 -0.271 0.11667 -0.95548
0 -0.023811 0.429 -0.29745 0.098877 -0.9496
0 -0.023018 0.429 -0.3242 0.064857 -0.94376
0 -0.022224 0.429 -0.31859 0.02368 -0.9476
0 -0.02143 0.429 -0.31859 -0.02368 -0.9476
0 -0.020685 0.43 -0.30501 -0.095481 -0.94755
0 -0.019889 0.43 -0.28651 -0.17515 -0.94193
0 -0.019093 0.43 -0.25228 -0.26222 -0.93145
0 -0.01834 0.431 -0.21141 -0.33999 -0.91636
0 -0.017543 0.431 -0.17564 -0.41023 -0.89491
0 -0.016746 0.431 -0.14597 -0.4762 -0.86714
0 -0.015948 0.431 -0.12465 -0.52618 -0.84119
0 -0.015151 0.431 -0.1047 -0.56456 -0.81873
0 -0.014353 0.431 -0.097179 -0.59489 -0.79791
0 -0.013556 0.431 -0.064476 -0.62135 -0.78088
0 -0.012759 0.431 -0.05077 -0.64535 -0.76219
0 -0.011961 0.431 -0.0075108 -0.66378 -0.74789
0 -0.01119 0.432 -0.18553 -0.70064 -0.68897
0 0.0075097 0.451 -0.41986 -0.59593 -0.68453
0 0.0083626 0.452 -0.24963 -0.61415 -0.74867
0 0.0091989 0.452 -0.23856 -0.57989 -0.77899
0 0.010057 0.453 0.047395 -0.52333 -0.85081
0 0.010895 0.453 0.074537 -0.48638 -0.87056
0 0.011734 0.453 0.10505 -0.44084 -0.89142
0 0.012572 0.453 0.15741 -0.37639 -0.91299
0 0.01341 0.453 0.19182 -0.31661 -0.92896
0 0.014216 0.452 0.19797 -0.27005 -0.94227
0 0.015053 0.452 0.24019 -0.17823 -0.95422
0 0.015889 0.452 0.24005 -0.10491 -0.96507
0 0.016725 0.452 0.20351 -0.04832 -0.97788
0 0.017523 0.451 0.15694 -0.0029345 -0.9876
0 0.018357 0.451 0.10947 0.044259 -0.993
0 0.019191 0.451 0.073939 0.096346 -0.9926
0 0.020026 0.451 0.0029481 0.14504 -0.98942
0 0.02086 0.451 -0.075152 0.16935 -0.98269
0 0.021695 0.451 -0.16309 0.20091 -0.96594
0 0.022529 0.451 -0.23757 0.22287 -0.94546
0 0.023415 0.452 -0.27717 0.22061 -0.93515
0.00073432 -0.096463 0.398 -0.0017331 -0.39159 -0.92014
0.00073432 -0.095726 0.398 -0.080763 -0.37026 -0.92541
0.00073432 -0.09499 0.398 -0.15825 -0.34363 -0.92567
0.00073432 -0.094253 0.398 -0.22861 -0.31652 -0.92063
0.00073432 -0.093517 0.398 -0.27246 -0.29386 -0.91619
0.00073432 -0.092781 0.398 -0.28672 -0.28935 -0.91327
0.00073432 -0.092044 0.398 -0.3221 -0.26698 -0.90828
0.00073616 -0.091537 0.399 -0.34527 -0.25758 -0.90246
0.00073616 -0.090799 0.399 -0.35496 -0.25169 -0.90036
0.00073616 -0.090061 0.399 -0.34106 -0.25345 -0.90523
0.00073801 -0.089547 0.4 -0.43186 -0.22058 -0.87455
0.00073801 -0.088807 0.4 -0.38217 -0.21759 -0.89811
0.00073801 -0.088067 0.4 -0.29013 -0.22319 -0.9306
0.00073985 -0.087545 0.401 -0.46268 -0.17788 -0.8685
0.00073985 -0.086803 0.401 -0.3858 -0.17573 -0.90569
0.00080258 -0.064385 0.435 0.756 0.17487 -0.63078
0.00079889 -0.063288 0.433 0.69011 0.29787 -0.65956
0.00079705 -0.062342 0.432 0.6569 0.32522 -0.68024
0.00079705 -0.061543 0.432 0.6504 0.30679 -0.69488
0.0007952 -0.060603 0.431 0.60818 0.34438 -0.7152
0.00079336 -0.059667 0.43 0.56137 0.36306 -0.74367
0.00079336 -0.058871 0.43 0.52227 0.37534 -0.76574
0.00079151 -0.057941 0.429 0.48366 0.38142 -0.78778
0.00079151 -0.057147 0.429 0.4531 0.37962 -0.80659
0.00078967 -0.056222 0.428 0.42137 0.37275 -0.82674
0.00078967 -0.05543 0.428 0.38798 0.36928 -0.84445
0.00078782 -0.054511 0.427 0.36957 0.35869 -0.85718
0.00078782 -0.053721 0.427 0.35115 0.34745 -0.86946
0.00078782 -0.052931 0.427 0.34435 0.3333 -0.87769
0.00078598 -0.052019 0.426 0.32905 0.32535 -0.8865
0.00078598 -0.05123 0.426 0.30659 0.31797 -0.89716
0.00078598 -0.050442 0.426 0.28589 0.30226 -0.90934
0.00078598 -0.049654 0.426 0.2584 0.2934 -0.92041
0.00078413 -0.048751 0.425 0.22618 0.29293 -0.929
0.00078413 -0.047965 0.425 0.19659 0.28767 -0.93733
0.00078413 -0.047179 0.425 0.16796 0.28742 -0.94296
0.00078413 -0.046392 0.425 0.13788 0.28695 -0.94797
0.00078413 -0.045606 0.425 0.11322 0.28877 -0.95068
0.00078413 -0.04482 0.425 0.091386 0.28942 -0.95283
0.00078413 -0.044033 0.425 0.081343 0.29243 -0.95282
0.00078413 -0.043247 0.425 0.059325 0.2938 -0.95402
0.00078413 -0.042461 0.425 0.03328 0.28864 -0.95686
0.00078229 -0.041576 0.424 0.010121 0.28663 -0.95799
0.00078229 -0.040792 0.424 -0.014189 0.28198 -0.95932
0.00078229 -0.040007 0.424 -0.03257 0.26593 -0.96344
0.00078413 -0.039315 0.425 -0.059065 0.25084 -0.96622
0.00078413 -0.038529 0.425 -0.095763 0.23773 -0.9666
0.00078413 -0.037743 0.425 -0.12834 0.22246 -0.96646
0.00078413 -0.036957 0.425 -0.15376 0.20716 -0.96615
0.00078413 -0.03617 0.425 -0.1803 0.18284 -0.96647
0.00078413 -0.035384 0.425 -0.195 0.15374 -0.96868
0.00078413 -0.034598 0.425 -0.22263 0.14193 -0.96452
0.00078598 -0.033891 0.426 -0.25482 0.13258 -0.95786
0.00078598 -0.033103 0.426 -0.2702 0.1202 -0.95527
0.00078598 -0.032315 0.426 -0.30969 0.11383 -0.944
0.00078598 -0.031526 0.426 -0.31495 0.11655 -0.94192
0.00078598 -0.030738 0.426 -0.30851 0.12168 -0.94341
0.00078782 -0.03002 0.427 -0.30157 0.12168 -0.94565
0.00078782 -0.02923 0.427 -0.29951 0.12857 -0.94539
0.00078967 -0.028507 0.428 -0.29527 0.12845 -0.94674
0.00078967 -0.027715 0.428 -0.28489 0.13859 -0.94849
0.00078967 -0.026923 0.428 -0.26789 0.15095 -0.95155
0.00078967 -0.026131 0.428 -0.26006 0.13765 -0.95573
0.00078967 -0.02534 0.428 -0.26557 0.13939 -0.95396
0.00078967 -0.024548 0.428 -0.28246 0.13092 -0.9503
0.00078967 -0.023756 0.428 -0.31631 0.11595 -0.94154
0.00079151 -0.023018 0.429 -0.35546 0.092009 -0.93015
0.00079151 -0.022224 0.429 -0.36486 0.056127 -0.92937
0.00079151 -0.02143 0.429 -0.37542 0.017368 -0.92669
0.00079336 -0.020685 0.43 -0.36842 -0.051108 -0.92826
0.00079336 -0.019889 0.43 -0.36449 -0.1218 -0.92321
0.0007952 -0.019138 0.431 -0.34212 -0.20528 -0.91696
0.0007952 -0.01834 0.431 -0.30565 -0.28471 -0.90858
0.00079705 -0.017584 0.432 -0.28228 -0.37114 -0.88463
0.0007952 -0.016746 0.431 -0.21155 -0.41896 -0.88302
0.00079705 -0.015985 0.432 -0.21855 -0.50435 -0.83538
0.00079705 -0.015186 0.432 -0.20846 -0.54207 -0.81406
0.0007952 -0.014353 0.431 -0.043546 -0.53712 -0.84238
0.00079705 -0.013587 0.432 -0.17555 -0.61535 -0.76846
0.00079705 -0.012788 0.432 -0.14101 -0.65107 -0.7458
0.00079705 -0.011989 0.432 -0.074097 -0.67878 -0.7306
0.00083395 0.0075264 0.452 -0.34788 -0.60525 -0.716
0.00083579 0.0083811 0.453 -0.12406 -0.58792 -0.79935
0.00083579 0.0092192 0.453 -0.071728 -0.55883 -0.82618
0.00083764 0.01008 0.454 0.2247 -0.47356 -0.85162
0.00083764 0.01092 0.454 0.23426 -0.4381 -0.86787
0.00083764 0.011759 0.454 0.22939 -0.40205 -0.88642
0.00083579 0.012572 0.453 0.20347 -0.3869 -0.8994
0.00083579 0.01341 0.453 0.24349 -0.33006 -0.91202
0.00083579 0.014248 0.453 0.27056 -0.25792 -0.92751
0.00083395 0.015053 0.452 0.29816 -0.18062 -0.93727
0.00083395 0.015889 0.452 0.282 -0.12133 -0.95171
0.00083395 0.016725 0.452 0.23891 -0.074631 -0.96817
0.0008321 0.017523 0.451 0.19657 -0.037846 -0.97976
0.0008321 0.018357 0.451 0.14927 0.0039174 -0.98879
0.0008321 0.019191 0.451 0.10944 0.050146 -0.99273
0.0008321 0.020026 0.451 0.040501 0.095555 -0.9946
0.0008321 0.02086 0.451 -0.0453 0.12178 -0.99152
0.0008321 0.021695 0.451 -0.13431 0.14752 -0.9799
0.0008321 0.022529 0.451 -0.21294 0.17426 -0.9614
0.0008321 0.023364 0.451 -0.23663 0.16157 -0.95807
0.0014686 -0.096463 0.398 -0.083714 -0.3827 -0.92007
0.0014686 -0.095726 0.398 -0.14692 -0.35649 -0.92268
0.0014686 -0.09499 0.398 -0.19842 -0.33289 -0.92185
0.0014686 -0.094253 0.398 -0.25754 -0.30759 -0.916
0.0014686 -0.093517 0.398 -0.28443 -0.29174 -0.91323
0.0014686 -0.092781 0.398 -0.28377 -0.28995 -0.914
0.0014723 -0.092276 0.399 -0.29949 -0.29659 -0.90683
0.0014723 -0.091537 0.399 -0.32416 -0.284 -0.90237
0.0014723 -0.090799 0.399 -0.3255 -0.27863 -0.90356
0.001476 -0.090287 0.4 -0.3983 -0.27133 -0.87621
0.001476 -0.089547 0.4 -0.38604 -0.25652 -0.8861
0.001476 -0.088807 0.4 -0.3272 -0.23851 -0.91436
0.0014797 -0.088287 0.401 -0.48601 -0.23052 -0.843
0.0014797 -0.087545 0.401 -0.40879 -0.22179 -0.88527
0.0014834 -0.087019 0.402 -0.5734 -0.19015 -0.79691
0.0016089 -0.066146 0.436 0.75925 0.22438 -0.6109
0.0016052 -0.06519 0.435 0.74917 0.24387 -0.61586
0.0016015 -0.064237 0.434 0.73241 0.28995 -0.61604
0.0015978 -0.063288 0.433 0.70449 0.33426 -0.62606
0.0015941 -0.062342 0.432 0.66553 0.36898 -0.64879
0.0015904 -0.061401 0.431 0.62913 0.38267 -0.67658
0.0015867 -0.060463 0.43 0.57035 0.39715 -0.71901
0.001583 -0.059528 0.429 0.52149 0.39858 -0.75444
0.001583 -0.058735 0.429 0.50147 0.41501 -0.75914
0.001583 -0.057941 0.429 0.46783 0.41705 -0.77923
0.0015793 -0.057014 0.428 0.43459 0.41334 -0.80017
0.0015793 -0.056222 0.428 0.40329 0.40986 -0.81815
0.0015756 -0.055301 0.427 0.37163 0.40469 -0.83553
0.0015756 -0.054511 0.427 0.35071 0.39157 -0.85069
0.0015756 -0.053721 0.427 0.33621 0.37505 -0.86389
0.001572 -0.052807 0.426 0.32645 0.35857 -0.87456
0.001572 -0.052019 0.426 0.30804 0.34895 -0.88507
0.001572 -0.05123 0.426 0.28533 0.33353 -0.89852
0.001572 -0.050442 0.426 0.26562 0.3127 -0.91196
0.0015683 -0.049537 0.425 0.2454 0.30469 -0.9203
0.0015683 -0.048751 0.425 0.21542 0.30075 -0.92905
0.0015683 -0.047965 0.425 0.19453 0.29049 -0.9369
0.0015683 -0.047179 0.425 0.17008 0.28368 -0.94371
0.0015683 -0.046392 0.425 0.14416 0.27753 -0.94984
0.0015646 -0.045499 0.424 0.12385 0.27613 -0.95311
0.0015646 -0.044714 0.424 0.10598 0.27578 -0.95536
0.0015646 -0.04393 0.424 0.093978 0.27611 -0.95652
0.0015646 -0.043145 0.424 0.068837 0.27762 -0.95822
0.0015646 -0.042361 0.424 0.038574 0.27433 -0.96086
0.0015646 -0.041576 0.424 0.010158 0.27452 -0.96153
0.0015646 -0.040792 0.424 -0.019351 0.26508 -0.96403
0.0015646 -0.040007 0.424 -0.04699 0.2506 -0.96695
0.0015646 -0.039223 0.424 -0.075742 0.23578 -0.96885
0.0015646 -0.038438 0.424 -0.11347 0.2253 -0.96766
0.0015646 -0.037654 0.424 -0.15101 0.21063 -0.96583
0.0015683 -0.036957 0.425 -0.17876 0.19852 -0.96366
0.0015683 -0.03617 0.425 -0.20577 0.18094 -0.96173
0.0015683 -0.035384 0.425 -0.21912 0.15984 -0.96252
0.0015683 -0.034598 0.425 -0.24351 0.14711 -0.95868
0.0015683 -0.033811 0.425 -0.271 0.14013 -0.95232
0.001572 -0.033103 0.426 -0.27909 0.13068 -0.95133
0.001572 -0.032315 0.426 -0.31068 0.13419 -0.94099
0.001572 -0.031526 0.426 -0.31865 0.13478 -0.93824
0.001572 -0.030738 0.426 -0.3095 0.14101 -0.94039
0.0015756 -0.03002 0.427 -0.29899 0.14118 -0.94376
0.0015756 -0.02923 0.427 -0.29323 0.14917 -0.94433
0.0015793 -0.028507 0.428 -0.29093 0.14605 -0.94553
0.0015756 -0.02765 0.427 -0.28313 0.15158 -0.94703
0.0015756 -0.02686 0.427 -0.26804 0.16098 -0.94986
0.0015793 -0.026131 0.428 -0.26612 0.14909 -0.95234
0.0015793 -0.02534 0.428 -0.27266 0.14687 -0.95083
0.0015793 -0.024548 0.428 -0.295 0.13525 -0.94588
0.0015793 -0.023756 0.428 -0.33236 0.1095 -0.93678
0.001583 -0.023018 0.429 -0.37649 0.088342 -0.9222
0.001583 -0.022224 0.429 -0.39777 0.056258 -0.91576
0.001583 -0.02143 0.429 -0.41656 0.024603 -0.90878
0.0015867 -0.020685 0.43 -0.41877 -0.033937 -0.90746
0.0015867 -0.019889 0.43 -0.42719 -0.093424 -0.89932
0.0015904 -0.019138 0.431 -0.41676 -0.16939 -0.8931
0.0015904 -0.01834 0.431 -0.38259 -0.24034 -0.89211
0.0015904 -0.017543 0.431 -0.33569 -0.29714 -0.89388
0.0015941 -0.016784 0.432 -0.31499 -0.39868 -0.8613
0.0015941 -0.015985 0.432 -0.27969 -0.45192 -0.84708
0.0015941 -0.015186 0.432 -0.23041 -0.48422 -0.84406
0.0015978 -0.01442 0.433 -0.32199 -0.5531 -0.76838
0.0015978 -0.013619 0.433 -0.28712 -0.58855 -0.75576
0.0015978 -0.012818 0.433 -0.23359 -0.63263 -0.73839
0.0015978 -0.012017 0.433 -0.14916 -0.67019 -0.72705
0.0016753 0.0075597 0.454 -0.032166 -0.60721 -0.79389
0.0016753 0.0083996 0.454 0.026611 -0.56771 -0.8228
0.001679 0.0092599 0.455 0.3341 -0.45837 -0.82357
0.0016753 0.01008 0.454 0.20526 -0.49251 -0.84575
0.0016753 0.01092 0.454 0.24568 -0.45802 -0.85431
0.001679 0.011785 0.455 0.33728 -0.36015 -0.86979
0.0016753 0.012599 0.454 0.29525 -0.3647 -0.88307
0.0016716 0.01341 0.453 0.30491 -0.32174 -0.89639
0.0016716 0.014248 0.453 0.33536 -0.24656 -0.90925
0.0016716 0.015086 0.453 0.3432 -0.1861 -0.92064
0.0016679 0.015889 0.452 0.31331 -0.14741 -0.93814
0.0016679 0.016725 0.452 0.27104 -0.10963 -0.9563
0.0016642 0.017523 0.451 0.22574 -0.075038 -0.97129
0.0016642 0.018357 0.451 0.17681 -0.037018 -0.98355
0.0016642 0.019191 0.451 0.13192 -0.0058907 -0.99124
0.0016642 0.020026 0.451 0.060442 0.032608 -0.99764
0.0016642 0.02086 0.451 -0.025772 0.057333 -0.99802
0.0016642 0.021695 0.451 -0.11312 0.079456 -0.9904
0.0016642 0.022529 0.451 -0.18809 0.10829 -0.97616
0.0016642 0.023364 0.451 -0.21474 0.10524 -0.97098
0.002203 -0.096463 0.398 -0.16766 -0.34808 -0.92235
0.002203 -0.095726 0.398 -0.21263 -0.32508 -0.92147
0.002203 -0.09499 0.398 -0.2542 -0.30923 -0.91639
0.002203 -0.094253 0.398 -0.30208 -0.28164 -0.91073
0.0022085 -0.093752 0.399 -0.21041 -0.34461 -0.91486
0.0022085 -0.093014 0.399 -0.254 -0.32583 -0.91067
0.0022085 -0.092276 0.399 -0.28752 -0.30749 -0.90707
0.0022085 -0.091537 0.399 -0.30969 -0.29561 -0.90372
0.002214 -0.091027 0.4 -0.35951 -0.31539 -0.87823
0.002214 -0.090287 0.4 -0.3703 -0.29343 -0.88135
0.002214 -0.089547 0.4 -0.34297 -0.26915 -0.89996
0.002214 -0.088807 0.4 -0.27275 -0.24042 -0.93156
0.0022196 -0.088287 0.401 -0.42805 -0.26954 -0.86262
0.0022196 -0.087545 0.401 -0.35131 -0.23935 -0.90515
0.0024188 -0.067106 0.437 0.78805 0.25072 -0.56225
0.0024077 -0.065994 0.435 0.70773 0.34364 -0.61728
0.0024022 -0.06504 0.434 0.70745 0.37714 -0.59773
0.0023967 -0.064089 0.433 0.69219 0.40149 -0.59973
0.0023911 -0.063142 0.432 0.66039 0.41972 -0.62267
0.0023856 -0.062198 0.431 0.62407 0.428 -0.65373
0.0023801 -0.061258 0.43 0.55856 0.43689 -0.70508
0.0023801 -0.060463 0.43 0.57215 0.43691 -0.69409
0.0023745 -0.059528 0.429 0.52475 0.44051 -0.72842
0.002369 -0.058598 0.428 0.46275 0.44145 -0.76875
0.002369 -0.057806 0.428 0.44227 0.45206 -0.77462
0.002369 -0.057014 0.428 0.41715 0.45059 -0.78928
0.0023635 -0.056091 0.427 0.38146 0.44239 -0.81165
0.0023635 -0.055301 0.427 0.34987 0.43894 -0.8276
0.0023635 -0.054511 0.427 0.32899 0.42093 -0.84533
0.0023579 -0.053595 0.426 0.31499 0.41015 -0.8559
0.0023579 -0.052807 0.426 0.30739 0.39114 -0.86748
0.0023579 -0.052019 0.426 0.28867 0.37737 -0.87992
0.0023579 -0.05123 0.426 0.26608 0.36005 -0.89418
0.0023524 -0.050324 0.425 0.25332 0.3365 -0.90697
0.0023524 -0.049537 0.425 0.23595 0.32016 -0.91751
0.0023524 -0.048751 0.425 0.21018 0.30904 -0.92753
0.0023524 -0.047965 0.425 0.18916 0.30065 -0.93479
0.0023469 -0.047068 0.424 0.16125 0.29381 -0.94217
0.0023469 -0.046283 0.424 0.13227 0.28779 -0.94851
0.0023469 -0.045499 0.424 0.10956 0.28768 -0.95144
0.0023469 -0.044714 0.424 0.090818 0.28176 -0.95518
0.0023469 -0.04393 0.424 0.078857 0.27927 -0.95697
0.0023469 -0.043145 0.424 0.054667 0.28065 -0.95825
0.0023469 -0.042361 0.424 0.026366 0.27911 -0.9599
0.0023469 -0.041576 0.424 0.0010136 0.282 -0.95941
0.0023469 -0.040792 0.424 -0.029447 0.27442 -0.96116
0.0023469 -0.040007 0.424 -0.055953 0.26377 -0.96296
0.0023469 -0.039223 0.424 -0.087611 0.24991 -0.9643
0.0023469 -0.038438 0.424 -0.12217 0.23757 -0.96366
0.0023469 -0.037654 0.424 -0.15647 0.22493 -0.96173
0.0023469 -0.03687 0.424 -0.18643 0.21319 -0.95906
0.0023524 -0.03617 0.425 -0.21374 0.19807 -0.9566
0.0023524 -0.035384 0.425 -0.22693 0.18104 -0.95694
0.0023524 -0.034598 0.425 -0.2455 0.16856 -0.95463
0.0023524 -0.033811 0.425 -0.27205 0.15958 -0.94896
0.0023524 -0.033025 0.425 -0.27894 0.14955 -0.94859
0.0023579 -0.032315 0.426 -0.31257 0.15143 -0.93775
0.0023579 -0.031526 0.426 -0.32324 0.1499 -0.93437
0.0023579 -0.030738 0.426 -0.31696 0.15215 -0.93615
0.0023635 -0.03002 0.427 -0.30381 0.15345 -0.94029
0.0023635 -0.02923 0.427 -0.29016 0.15702 -0.94401
0.0023635 -0.02844 0.427 -0.28566 0.15628 -0.9455
0.0023635 -0.02765 0.427 -0.28018 0.15654 -0.9471
0.0023635 -0.02686 0.427 -0.26795 0.16291 -0.94956
0.002369 -0.026131 0.428 -0.26797 0.14901 -0.95183
0.002369 -0.02534 0.428 -0.27558 0.14287 -0.9506
0.002369 -0.024548 0.428 -0.30334 0.12908 -0.9441
0.002369 -0.023756 0.428 -0.34463 0.10515 -0.93283
0.0023745 -0.023018 0.429 -0.39138 0.083022 -0.91648
0.0023745 -0.022224 0.429 -0.42234 0.052764 -0.9049
0.0023745 -0.02143 0.429 -0.45168 0.02136 -0.89193
0.0023801 -0.020685 0.43 -0.46106 -0.026721 -0.88697
0.0023801 -0.019889 0.43 -0.47551 -0.079184 -0.87614
0.0023856 -0.019138 0.431 -0.47525 -0.14569 -0.86771
0.0023856 -0.01834 0.431 -0.44531 -0.20754 -0.87099
0.0023911 -0.017584 0.432 -0.44464 -0.2882 -0.84808
0.0023911 -0.016784 0.432 -0.38581 -0.35173 -0.8529
0.0023967 -0.016022 0.433 -0.40301 -0.43231 -0.80665
0.0023967 -0.015221 0.433 -0.3724 -0.46788 -0.8015
0.0024022 -0.014453 0.434 -0.44664 -0.5102 -0.73499
0.0024077 -0.013682 0.435 -0.56388 -0.44673 -0.69461
0.0024022 -0.012847 0.434 -0.34839 -0.60142 -0.71897
0.002524 0.007593 0.456 0.34581 -0.48508 -0.80319
0.002524 0.0084366 0.456 0.427 -0.42504 -0.79813
0.0025185 0.0092599 0.455 0.29407 -0.48033 -0.82632
0.0025185 0.010102 0.455 0.36052 -0.43611 -0.82452
0.0025185 0.010944 0.455 0.36844 -0.40413 -0.83722
0.0025185 0.011785 0.455 0.34671 -0.38529 -0.85519
0.0025129 0.012599 0.454 0.33512 -0.35395 -0.87316
0.0025129 0.013439 0.454 0.36931 -0.28384 -0.8849
0.0025074 0.014248 0.453 0.38619 -0.22825 -0.89373
0.0025074 0.015086 0.453 0.37991 -0.18586 -0.90616
0.0025018 0.015889 0.452 0.34623 -0.16076 -0.92427
0.0025018 0.016725 0.452 0.30186 -0.1398 -0.94305
0.0024963 0.017523 0.451 0.25192 -0.11609 -0.96076
0.0024963 0.018357 0.451 0.20057 -0.08986 -0.97555
0.0024963 0.019191 0.451 0.14511 -0.066487 -0.98718
0.0024963 0.020026 0.451 0.070276 -0.043431 -0.99658
0.0024963 0.02086 0.451 -0.016879 -0.017823 -0.9997
0.0024963 0.021695 0.451 -0.096876 -0.0019716 -0.99529
0.0024963 0.022529 0.451 -0.16736 0.031232 -0.9854
0.0024963 0.023364 0.451 -0.19407 0.036039 -0.98032
