0.0087011 -0.041445 0.393 -0.35874 0.5357 -0.76441
0.0087011 -0.040718 0.393 -0.40345 0.4722 -0.78375
0.0087232 -0.040093 0.394 -0.38451 0.592 -0.7083
0.0087232 -0.039364 0.394 -0.40783 0.55072 -0.72828
0.0087454 -0.038733 0.395 -0.39447 0.61435 -0.68335
0.0087675 -0.038098 0.396 -0.3858 0.65713 -0.64757
0.0087675 -0.037365 0.396 -0.38956 0.64615 -0.65631
0.0087675 -0.036633 0.396 -0.36632 0.63353 -0.68151
0.0087675 -0.0359 0.396 -0.33695 0.61064 -0.71665
0.0087675 -0.035167 0.396 -0.31871 0.55519 -0.76824
0.0087897 -0.034522 0.397 -0.41544 0.60332 -0.68075
0.0088118 -0.033872 0.398 -0.46522 0.61361 -0.638
0.0088118 -0.033136 0.398 -0.47262 0.57485 -0.66796
0.0088561 -0.032562 0.4 -0.47272 0.56803 -0.67371
0.0088782 -0.031902 0.401 -0.37762 0.47994 -0.79187
0.0088782 -0.03116 0.401 -0.38427 0.48566 -0.78516
0.0088782 -0.030418 0.401 -0.36562 0.48398 -0.79504
0.0089004 -0.02975 0.402 -0.27385 0.432 -0.85929
0.0089004 -0.029006 0.402 -0.25767 0.43363 -0.86347
0.0089004 -0.028263 0.402 -0.23675 0.42671 -0.87285
0.0089004 -0.027519 0.402 -0.2106 0.41018 -0.88735
0.0089004 -0.026775 0.402 -0.17242 0.38913 -0.9049
0.0089225 -0.026096 0.403 -0.16068 0.37017 -0.91496
0.0089225 -0.025351 0.403 -0.15847 0.35889 -0.91983
0.0089225 -0.024605 0.403 -0.15987 0.35259 -0.92202
0.0089225 -0.023859 0.403 -0.17629 0.34444 -0.92211
0.0089225 -0.023114 0.403 -0.18156 0.33961 -0.92287
0.0089225 -0.022368 0.403 -0.182 0.33326 -0.9251
0.0089225 -0.021623 0.403 -0.18709 0.33112 -0.92486
0.0089446 -0.020929 0.404 -0.19091 0.32651 -0.92571
0.0089446 -0.020181 0.404 -0.19834 0.31872 -0.92687
0.0089446 -0.019434 0.404 -0.20747 0.31444 -0.92633
0.0089446 -0.018686 0.404 -0.2076 0.31259 -0.92693
0.0089446 -0.017939 0.404 -0.21403 0.30476 -0.92807
0.0089446 -0.017191 0.404 -0.2305 0.29246 -0.92808
0.0089446 -0.016444 0.404 -0.25021 0.28633 -0.92488
0.0089668 -0.015735 0.405 -0.26786 0.28337 -0.92085
0.0089668 -0.014986 0.405 -0.27398 0.27729 -0.92089
0.0089668 -0.014237 0.405 -0.27602 0.27525 -0.9209
0.0089668 -0.013488 0.405 -0.28874 0.26766 -0.91923
0.0089889 -0.01277 0.406 -0.28922 0.26514 -0.91981
0.0089889 -0.012019 0.406 -0.30815 0.26814 -0.91277
0.0089889 -0.011267 0.406 -0.33174 0.2732 -0.90295
0.0089889 -0.010516 0.406 -0.37007 0.26724 -0.88973
0.0090111 -0.0097891 0.407 -0.39094 0.26506 -0.88142
0.0090111 -0.0090361 0.407 -0.43173 0.25889 -0.86405
0.0090111 -0.0082831 0.407 -0.46203 0.25369 -0.84981
0.0090332 -0.0075486 0.408 -0.49202 0.24258 -0.83611
0.0090332 -0.0067937 0.408 -0.50822 0.24164 -0.82663
0.0090554 -0.0060537 0.409 -0.51867 0.22938 -0.82363
0.0090554 -0.0052969 0.409 -0.52856 0.22692 -0.818
0.0090775 -0.0045513 0.41 -0.53812 0.22315 -0.81279
0.0090775 -0.0037928 0.41 -0.55602 0.20524 -0.80543
0.0090996 -0.0030416 0.411 -0.59411 0.19136 -0.78129
0.0090996 -0.0022812 0.411 -0.6068 0.17255 -0.7759
0.0091218 -0.0015245 0.412 -0.65053 0.16222 -0.74195
0.0091218 -0.00076226 0.412 -0.61804 0.15499 -0.77072
0.0091661 0 0.414 -0.72916 0.17544 -0.66147
0.0091882 0.00076781 0.415 -0.75601 0.18278 -0.62852
0.0092103 0.0015393 0.416 -0.78167 0.18558 -0.59544
0.0092325 0.0023145 0.417 -0.79098 0.18525 -0.58313
0.0092546 0.0030934 0.418 -0.79178 0.19062 -0.5803
0.0092546 0.0038668 0.418 -0.70487 0.20676 -0.67854
0.0098524 0.0082331 0.445 -0.56189 -0.23534 -0.79303
0.0098967 0.0090971 0.447 -0.29356 -0.44315 -0.84702
0.0099188 0.011604 0.448 -0.30822 -0.32295 -0.89482
0.0099188 0.012433 0.448 -0.31596 -0.24544 -0.91648
0.0099188 0.013262 0.448 -0.29286 -0.1834 -0.9384
0.0099188 0.014091 0.448 -0.27131 -0.12028 -0.95495
0.009941 0.014953 0.449 -0.10693 -0.118 -0.98724
0.009941 0.015784 0.449 -0.055509 -0.067875 -0.99615
0.009941 0.016614 0.449 0.018312 -0.015457 -0.99971
0.009941 0.017445 0.449 0.095126 0.026704 -0.99511
0.009941 0.018276 0.449 0.19013 0.067637 -0.97943
0.0099188 0.019064 0.448 0.2529 0.10548 -0.96173
0.0099188 0.019893 0.448 0.30911 0.13294 -0.94169
0.0099188 0.020722 0.448 0.32218 0.14852 -0.93496
0.0098967 0.021502 0.447 0.3673 0.13336 -0.92049
0.0098967 0.022329 0.447 0.35976 0.15568 -0.91997
0.0098967 0.023156 0.447 0.31907 0.18614 -0.92927
0.0098745 0.02393 0.446 0.40693 0.12847 -0.90438
0.0098745 0.024755 0.446 0.26734 0.18265 -0.94613
0.0098745 0.02558 0.446 0.16684 0.166 -0.97191
0.0098524 0.026346 0.445 0.17717 0.0076811 -0.98415
0.0094742 -0.07308 0.395 -0.13125 -0.011898 -0.99128
0.0090664 -0.068537 0.378 0.5213 -0.66647 -0.53298
0.0090185 -0.067478 0.376 0.19008 -0.67613 -0.71184
0.0090185 -0.066783 0.376 0.23149 -0.68316 -0.6926
0.0089945 -0.065911 0.375 0.064522 -0.65145 -0.75595
0.0089945 -0.065217 0.375 0.064664 -0.67501 -0.73497
0.0089945 -0.064524 0.375 0.01147 -0.69722 -0.71676
0.0090185 -0.064 0.376 0.0018905 -0.71429 -0.69985
0.0089945 -0.063136 0.375 -0.11734 -0.68292 -0.72101
0.0090185 -0.062609 0.376 -0.16942 -0.68013 -0.71324
0.0090185 -0.061913 0.376 -0.20846 -0.66981 -0.71267
0.0090185 -0.061217 0.376 -0.22038 -0.66289 -0.71554
0.0090424 -0.060683 0.377 -0.37521 -0.60049 -0.70614
0.0090424 -0.059985 0.377 -0.37059 -0.60475 -0.70494
0.0093303 -0.04966 0.389 -0.40491 0.47992 -0.77828
0.0093542 -0.049066 0.39 -0.26736 0.58558 -0.76525
0.0093542 -0.048344 0.39 -0.30552 0.54654 -0.77971
0.0093542 -0.047623 0.39 -0.32584 0.49796 -0.80366
0.0093782 -0.047021 0.391 -0.24962 0.61655 -0.7467
0.0093782 -0.046298 0.391 -0.26575 0.58276 -0.76796
0.0093782 -0.045574 0.391 -0.26894 0.54919 -0.79124
0.0093782 -0.044851 0.391 -0.29589 0.51706 -0.80318
0.0093782 -0.044128 0.391 -0.32653 0.47245 -0.81864
0.0094022 -0.043515 0.392 -0.28426 0.5843 -0.76013
0.0094022 -0.04279 0.392 -0.30436 0.55131 -0.7768
0.0094022 -0.042065 0.392 -0.3384 0.51408 -0.78817
0.0094262 -0.041445 0.393 -0.32776 0.59229 -0.73605
0.0094262 -0.040718 0.393 -0.37399 0.54939 -0.74719
0.0094262 -0.039991 0.393 -0.39378 0.51794 -0.75939
0.0094502 -0.039364 0.394 -0.39452 0.58425 -0.70923
0.0094502 -0.038635 0.394 -0.40283 0.55517 -0.72768
0.0094742 -0.038002 0.395 -0.40567 0.59373 -0.69492
0.0094982 -0.037365 0.396 -0.39674 0.62174 -0.67531
0.0094982 -0.036633 0.396 -0.39444 0.61656 -0.68137
0.0094982 -0.0359 0.396 -0.38717 0.60283 -0.69763
0.0094982 -0.035167 0.396 -0.38793 0.56764 -0.72615
0.0094982 -0.034435 0.396 -0.38621 0.50447 -0.77224
0.0094982 -0.033702 0.396 -0.36151 0.40368 -0.84045
0.0095221 -0.033053 0.397 -0.47233 0.5128 -0.7169
0.0095701 -0.032481 0.399 -0.51473 0.55161 -0.65634
0.0095941 -0.031822 0.4 -0.50065 0.51684 -0.69443
0.0096181 -0.03116 0.401 -0.37459 0.44654 -0.81258
0.0096181 -0.030418 0.401 -0.37605 0.45584 -0.80672
0.0096181 -0.029676 0.401 -0.36212 0.4558 -0.81309
0.0096421 -0.029006 0.402 -0.26361 0.40975 -0.87328
0.0096421 -0.028263 0.402 -0.25407 0.41266 -0.87473
0.0096421 -0.027519 0.402 -0.23888 0.40132 -0.88424
0.0096421 -0.026775 0.402 -0.20857 0.38298 -0.8999
0.0096421 -0.026031 0.402 -0.18551 0.35882 -0.91479
0.0096421 -0.025288 0.402 -0.17373 0.34445 -0.92259
0.0096421 -0.024544 0.402 -0.16898 0.34113 -0.9247
0.0096661 -0.023859 0.403 -0.17802 0.3335 -0.92579
0.0096661 -0.023114 0.403 -0.18629 0.32844 -0.92597
0.0096661 -0.022368 0.403 -0.18871 0.32188 -0.92778
0.0096661 -0.021623 0.403 -0.19008 0.31627 -0.92943
0.0096661 -0.020877 0.403 -0.19063 0.30789 -0.93213
0.0096661 -0.020131 0.403 -0.19947 0.29423 -0.93469
0.0096661 -0.019386 0.403 -0.21481 0.28666 -0.93364
0.00969 -0.018686 0.404 -0.22046 0.28281 -0.9335
0.00969 -0.017939 0.404 -0.22649 0.28052 -0.93275
0.00969 -0.017191 0.404 -0.23693 0.27033 -0.93316
0.00969 -0.016444 0.404 -0.25598 0.26042 -0.93094
0.00969 -0.015697 0.404 -0.27262 0.25443 -0.92787
0.009714 -0.014986 0.405 -0.28078 0.25037 -0.92654
0.009714 -0.014237 0.405 -0.281 0.24749 -0.92725
0.009714 -0.013488 0.405 -0.29177 0.24094 -0.92564
0.009714 -0.012738 0.405 -0.2899 0.24108 -0.92619
0.009738 -0.012019 0.406 -0.30548 0.24594 -0.91989
0.009738 -0.011267 0.406 -0.32789 0.24775 -0.91165
0.009738 -0.010516 0.406 -0.36566 0.24409 -0.89817
0.009738 -0.009765 0.406 -0.39218 0.23759 -0.88867
0.009762 -0.0090361 0.407 -0.43232 0.2261 -0.87291
0.009762 -0.0082831 0.407 -0.46575 0.22189 -0.85665
0.009762 -0.0075301 0.407 -0.49985 0.20677 -0.84107
0.009786 -0.0067937 0.408 -0.51814 0.20286 -0.83089
0.009786 -0.0060389 0.408 -0.53112 0.19071 -0.82555
0.00981 -0.0052969 0.409 -0.54116 0.18884 -0.81944
0.0098339 -0.0045513 0.41 -0.552 0.1826 -0.81361
0.0098339 -0.0037928 0.41 -0.57121 0.16848 -0.80333
0.0098579 -0.0030416 0.411 -0.60393 0.15745 -0.78133
0.0098579 -0.0022812 0.411 -0.62215 0.13301 -0.77152
0.0098819 -0.0015245 0.412 -0.66261 0.13616 -0.73649
0.0098819 -0.00076226 0.412 -0.63724 0.13817 -0.75818
0.0099059 0 0.413 -0.684 0.16451 -0.71069
0.0099299 0.00076596 0.414 -0.71134 0.17303 -0.68121
0.0099779 0.0015393 0.416 -0.78969 0.14971 -0.59496
0.0099779 0.002309 0.416 -0.7306 0.18117 -0.65833
0.010002 0.003086 0.417 -0.73099 0.18293 -0.65741
0.010026 0.0038668 0.418 -0.72501 0.19049 -0.66188
0.010721 0.0090971 0.447 -0.32987 -0.42095 -0.84498
0.010721 0.011578 0.447 -0.40417 -0.22525 -0.88651
0.010745 0.012433 0.448 -0.25659 -0.26808 -0.9286
0.010745 0.013262 0.448 -0.21038 -0.20978 -0.95485
0.010769 0.014122 0.449 -0.045105 -0.17365 -0.98377
0.010769 0.014953 0.449 -0.030447 -0.1139 -0.99303
0.010769 0.015784 0.449 0.010562 -0.078047 -0.99689
0.010769 0.016614 0.449 0.078489 -0.031708 -0.99641
0.010769 0.017445 0.449 0.13996 0.013102 -0.99007
0.010769 0.018276 0.449 0.22498 0.056066 -0.97275
0.010745 0.019064 0.448 0.27808 0.096247 -0.95573
0.010745 0.019893 0.448 0.32493 0.12113 -0.93795
0.010745 0.020722 0.448 0.33351 0.1333 -0.93327
0.010721 0.021502 0.447 0.36226 0.12802 -0.92325
0.010721 0.022329 0.447 0.35486 0.14276 -0.92396
0.010721 0.023156 0.447 0.31211 0.16705 -0.93525
0.010697 0.02393 0.446 0.38304 0.1305 -0.91447
0.010697 0.024755 0.446 0.237 0.18214 -0.95428
0.010673 0.025523 0.445 0.23112 0.084706 -0.96923
0.0097638 -0.067837 0.378 0.42002 -0.68492 -0.59537
0.009738 -0.06696 0.377 0.26228 -0.70159 -0.66255
0.0097122 -0.066087 0.376 0.10312 -0.67485 -0.73071
0.0097122 -0.065391 0.376 0.10915 -0.6843 -0.72099
0.0097122 -0.064696 0.376 0.055397 -0.69881 -0.71316
0.009738 -0.06417 0.377 0.042994 -0.7084 -0.7045
0.0097122 -0.063304 0.376 -0.076627 -0.68616 -0.7234
0.0097122 -0.062609 0.376 -0.13022 -0.67518 -0.72607
0.009738 -0.062078 0.377 -0.2094 -0.64805 -0.73224
0.009738 -0.06138 0.377 -0.25686 -0.63268 -0.73057
0.009738 -0.060683 0.377 -0.25085 -0.63543 -0.73028
0.0097638 -0.060144 0.378 -0.42385 -0.53362 -0.73185
0.0097638 -0.059445 0.378 -0.3893 -0.55189 -0.73747
0.010048 -0.04966 0.389 -0.31499 0.54306 -0.77838
0.010048 -0.04894 0.389 -0.36449 0.49705 -0.78746
0.010074 -0.048344 0.39 -0.23295 0.59927 -0.76591
0.010074 -0.047623 0.39 -0.27903 0.56148 -0.77903
0.010074 -0.046901 0.39 -0.29338 0.53081 -0.79509
0.010074 -0.046179 0.39 -0.29677 0.49953 -0.81388
0.0101 -0.045574 0.391 -0.25538 0.57739 -0.7755
0.0101 -0.044851 0.391 -0.27137 0.55638 -0.78537
0.0101 -0.044128 0.391 -0.29479 0.53111 -0.79437
0.0101 -0.043404 0.391 -0.3075 0.50934 -0.80375
0.0101 -0.042681 0.391 -0.31465 0.48358 -0.81679
0.010125 -0.042065 0.392 -0.31396 0.55251 -0.77211
0.010125 -0.04134 0.392 -0.34826 0.53071 -0.7727
0.010125 -0.040614 0.392 -0.38351 0.50521 -0.7731
0.010125 -0.039889 0.392 -0.37805 0.49443 -0.7827
0.010151 -0.039264 0.393 -0.39024 0.53068 -0.75239
0.010151 -0.038537 0.393 -0.40073 0.50187 -0.76651
0.010177 -0.037906 0.394 -0.42209 0.53243 -0.73373
0.010203 -0.037271 0.395 -0.42268 0.55631 -0.71545
0.010203 -0.03654 0.395 -0.40955 0.54226 -0.73363
0.010203 -0.035809 0.395 -0.39916 0.51623 -0.75775
0.010229 -0.035167 0.396 -0.43242 0.55433 -0.71115
0.010229 -0.034435 0.396 -0.44509 0.51332 -0.73376
0.010229 -0.033702 0.396 -0.44213 0.45492 -0.77302
0.010203 -0.032886 0.395 -0.19086 0.087502 -0.97771
0.010229 -0.032237 0.396 -0.34506 0.1999 -0.91704
0.010306 -0.031743 0.399 -0.5521 0.48439 -0.67864
0.010332 -0.031082 0.4 -0.51884 0.45521 -0.72359
0.010358 -0.030418 0.401 -0.36955 0.3932 -0.84192
0.010358 -0.029676 0.401 -0.37633 0.40455 -0.83349
0.010358 -0.028934 0.401 -0.35208 0.41155 -0.84063
0.010384 -0.028263 0.402 -0.26794 0.36513 -0.89156
0.010384 -0.027519 0.402 -0.26122 0.36732 -0.89266
0.010384 -0.026775 0.402 -0.23977 0.35364 -0.90413
0.010384 -0.026031 0.402 -0.20921 0.33034 -0.92038
0.010384 -0.025288 0.402 -0.18668 0.31441 -0.93075
0.010384 -0.024544 0.402 -0.18101 0.30915 -0.93363
0.010384 -0.0238 0.402 -0.18332 0.30433 -0.93476
0.010384 -0.023056 0.402 -0.18929 0.30492 -0.93338
0.01041 -0.022368 0.403 -0.19424 0.29831 -0.9345
0.01041 -0.021623 0.403 -0.19747 0.29435 -0.93507
0.01041 -0.020877 0.403 -0.19895 0.28669 -0.93714
0.01041 -0.020131 0.403 -0.20277 0.27309 -0.94037
0.01041 -0.019386 0.403 -0.21864 0.25767 -0.94117
0.01041 -0.01864 0.403 -0.2298 0.25312 -0.93975
0.010435 -0.017939 0.404 -0.24017 0.25092 -0.93774
0.010435 -0.017191 0.404 -0.24909 0.2484 -0.93608
0.010435 -0.016444 0.404 -0.26632 0.23562 -0.93464
0.010435 -0.015697 0.404 -0.28026 0.22689 -0.93273
0.010435 -0.014949 0.404 -0.28534 0.22166 -0.93244
0.010461 -0.014237 0.405 -0.28561 0.2221 -0.93226
0.010461 -0.013488 0.405 -0.29757 0.21152 -0.93097
0.010461 -0.012738 0.405 -0.29683 0.20864 -0.93186
0.010461 -0.011989 0.405 -0.30837 0.21659 -0.92628
0.010487 -0.011267 0.406 -0.33021 0.2192 -0.9181
0.010487 -0.010516 0.406 -0.36377 0.21726 -0.9058
0.010487 -0.009765 0.406 -0.39176 0.20619 -0.89667
0.010487 -0.0090139 0.406 -0.43377 0.19548 -0.87956
0.010513 -0.0082831 0.407 -0.46727 0.19226 -0.86295
0.010513 -0.0075301 0.407 -0.50549 0.17791 -0.84429
0.010539 -0.0067937 0.408 -0.52392 0.17172 -0.83428
0.010539 -0.0060389 0.408 -0.53661 0.16054 -0.82842
0.010565 -0.0052969 0.409 -0.5465 0.15981 -0.82207
0.010565 -0.0045402 0.409 -0.55486 0.15618 -0.81715
0.01059 -0.0037928 0.41 -0.57689 0.14024 -0.80469
0.01059 -0.0030342 0.41 -0.59158 0.11099 -0.79857
0.010616 -0.0022812 0.411 -0.6339 0.1089 -0.76571
0.010616 -0.0015208 0.411 -0.59089 0.097401 -0.80085
0.010642 -0.00076226 0.412 -0.65391 0.1281 -0.74565
0.010668 0 0.413 -0.6917 0.13917 -0.70865
0.010694 0.00076596 0.414 -0.72541 0.14617 -0.67262
0.01072 0.0015356 0.415 -0.74037 0.14367 -0.65666
0.010771 0.0038575 0.417 -0.62377 0.20257 -0.7549
0.010797 0.0046401 0.418 -0.62759 0.20348 -0.75148
0.011546 0.0082701 0.447 -0.3641 -0.47477 -0.80127
0.011572 0.0091175 0.448 -0.16638 -0.4755 -0.86384
0.011598 0.013291 0.449 -0.040044 -0.20584 -0.97777
0.011598 0.014122 0.449 0.021203 -0.14479 -0.98924
0.011598 0.014953 0.449 0.038443 -0.11246 -0.99291
0.011598 0.015784 0.449 0.082046 -0.085969 -0.99291
0.011598 0.016614 0.449 0.14246 -0.051262 -0.98847
0.011598 0.017445 0.449 0.1916 -0.010762 -0.98141
0.011572 0.018235 0.448 0.2643 0.032535 -0.96389
0.011572 0.019064 0.448 0.31346 0.067997 -0.94716
0.011572 0.019893 0.448 0.34707 0.09397 -0.93312
0.011546 0.020675 0.447 0.35744 0.096774 -0.92891
0.011546 0.021502 0.447 0.36284 0.10896 -0.92546
0.011546 0.022329 0.447 0.35019 0.12142 -0.92878
0.01152 0.023105 0.446 0.40651 0.087227 -0.90947
0.01152 0.02393 0.446 0.35469 0.12419 -0.9267
0.01152 0.024755 0.446 0.22342 0.14781 -0.96345
0.01152 0.02558 0.446 0.12589 0.14056 -0.98204
0.010904 -0.072895 0.394 0.018908 0.12222 -0.99232
0.010904 -0.072167 0.394 0.079036 0.07619 -0.99396
0.010517 -0.068196 0.38 0.61365 -0.57609 -0.53995
0.010461 -0.067138 0.378 0.30709 -0.70457 -0.63974
0.010434 -0.066263 0.377 0.14017 -0.69801 -0.70223
0.010434 -0.065565 0.377 0.14777 -0.69897 -0.69972
0.010434 -0.064868 0.377 0.10429 -0.70243 -0.70408
0.010434 -0.06417 0.377 0.047566 -0.69891 -0.71363
0.010434 -0.063473 0.377 -0.035851 -0.68779 -0.72503
0.010434 -0.062775 0.377 -0.1088 -0.66915 -0.73512
0.010434 -0.062078 0.377 -0.13714 -0.65807 -0.74036
0.010434 -0.06138 0.377 -0.16671 -0.64794 -0.74322
0.010461 -0.060844 0.378 -0.28572 -0.57943 -0.7633
0.010461 -0.060144 0.378 -0.30486 -0.57921 -0.75603
0.010489 -0.059602 0.379 -0.45309 -0.45278 -0.76792
0.010738 -0.049532 0.388 -0.41553 0.44757 -0.79184
0.010766 -0.04894 0.389 -0.28325 0.55643 -0.78112
0.010766 -0.04822 0.389 -0.31814 0.5212 -0.79192
0.010766 -0.0475 0.389 -0.33942 0.4881 -0.80409
0.010766 -0.046781 0.389 -0.32315 0.46906 -0.82192
0.010793 -0.046179 0.39 -0.28723 0.53468 -0.79474
0.010793 -0.045458 0.39 -0.27597 0.52174 -0.80724
0.010793 -0.044736 0.39 -0.29144 0.5049 -0.81249
0.010821 -0.044128 0.391 -0.28265 0.54279 -0.79088
0.010821 -0.043404 0.391 -0.2954 0.52961 -0.79514
0.010821 -0.042681 0.391 -0.3035 0.51375 -0.80246
0.010821 -0.041957 0.391 -0.31622 0.49583 -0.8088
0.010821 -0.041234 0.391 -0.32958 0.47361 -0.81674
0.010849 -0.040614 0.392 -0.37074 0.51967 -0.76974
0.010849 -0.039889 0.392 -0.37884 0.51911 -0.76616
0.010849 -0.039164 0.392 -0.38512 0.50452 -0.77275
0.010876 -0.038537 0.393 -0.41087 0.51548 -0.75198
0.010876 -0.037809 0.393 -0.42479 0.49124 -0.76042
0.010904 -0.037177 0.394 -0.43858 0.49981 -0.74688
0.010904 -0.036448 0.394 -0.42074 0.48987 -0.76355
0.010932 -0.035809 0.395 -0.4339 0.49567 -0.75236
0.010932 -0.035079 0.395 -0.43952 0.47035 -0.76524
0.010959 -0.034435 0.396 -0.48559 0.4889 -0.72469
0.010959 -0.033702 0.396 -0.50525 0.44179 -0.74131
0.010959 -0.032969 0.396 -0.50297 0.38183 -0.77539
0.010959 -0.032237 0.396 -0.46285 0.26793 -0.84498
0.011015 -0.031663 0.398 -0.58823 0.43422 -0.68223
0.011042 -0.031005 0.399 -0.57855 0.42045 -0.69893
0.01107 -0.030342 0.4 -0.5323 0.40265 -0.74467
0.011098 -0.029676 0.401 -0.38151 0.36576 -0.84892
0.011098 -0.028934 0.401 -0.3734 0.37811 -0.84711
0.011098 -0.028192 0.401 -0.35737 0.37557 -0.85512
0.011125 -0.027519 0.402 -0.27852 0.33746 -0.89919
0.011125 -0.026775 0.402 -0.25835 0.33613 -0.90569
0.011125 -0.026031 0.402 -0.22329 0.31195 -0.92349
0.011125 -0.025288 0.402 -0.19884 0.29588 -0.9343
0.011125 -0.024544 0.402 -0.18922 0.28982 -0.93819
0.011125 -0.0238 0.402 -0.18664 0.28231 -0.94099
0.011125 -0.023056 0.402 -0.18787 0.2784 -0.94191
0.011125 -0.022313 0.402 -0.19954 0.26811 -0.9425
0.011153 -0.021623 0.403 -0.20853 0.2602 -0.94277
0.011153 -0.020877 0.403 -0.20987 0.25429 -0.94408
0.011153 -0.020131 0.403 -0.21232 0.24632 -0.94565
0.011153 -0.019386 0.403 -0.22593 0.23474 -0.94544
0.011153 -0.01864 0.403 -0.23445 0.22437 -0.94588
0.011153 -0.017895 0.403 -0.2473 0.22363 -0.94278
0.011181 -0.017191 0.404 -0.25745 0.22348 -0.94009
0.011181 -0.016444 0.404 -0.28146 0.20818 -0.93672
0.011181 -0.015697 0.404 -0.29064 0.19771 -0.93618
0.011181 -0.014949 0.404 -0.29004 0.19179 -0.9376
0.011208 -0.014237 0.405 -0.28912 0.19635 -0.93694
0.011208 -0.013488 0.405 -0.29969 0.19271 -0.93437
0.011208 -0.012738 0.405 -0.29816 0.18687 -0.93605
0.011208 -0.011989 0.405 -0.30905 0.19211 -0.93144
0.011236 -0.011267 0.406 -0.33078 0.18529 -0.92534
0.011236 -0.010516 0.406 -0.3633 0.18968 -0.91216
0.011236 -0.009765 0.406 -0.39469 0.17945 -0.90112
0.011236 -0.0090139 0.406 -0.43514 0.16929 -0.88431
0.011264 -0.0082831 0.407 -0.47535 0.16686 -0.86383
0.011264 -0.0075301 0.407 -0.51501 0.15454 -0.84314
0.011292 -0.0067937 0.408 -0.53419 0.15116 -0.83174
0.011292 -0.0060389 0.408 -0.54748 0.13649 -0.82561
0.011319 -0.0052969 0.409 -0.55742 0.13248 -0.81959
0.011319 -0.0045402 0.409 -0.56484 0.13081 -0.81477
0.011347 -0.0037928 0.41 -0.58532 0.115 -0.80261
0.011347 -0.0030342 0.41 -0.60294 0.092997 -0.79235
0.011375 -0.0022812 0.411 -0.6419 0.087931 -0.76173
0.011375 -0.0015208 0.411 -0.60783 0.074438 -0.79057
0.011402 -0.00076226 0.412 -0.65904 0.10563 -0.74465
0.01143 0 0.413 -0.69712 0.12082 -0.7067
0.011458 0.00076596 0.414 -0.72851 0.12183 -0.67412
0.011485 0.0015356 0.415 -0.74665 0.11251 -0.65563
0.011568 0.0046401 0.418 -0.6515 0.17248 -0.73878
0.012399 0.0091175 0.448 -0.22297 -0.44833 -0.86561
0.012399 0.0099463 0.448 -0.25749 -0.39759 -0.8807
0.012399 0.013262 0.448 -0.1911 -0.18825 -0.96335
0.012426 0.014122 0.449 0.040676 -0.17222 -0.98422
0.012426 0.014953 0.449 0.079987 -0.14804 -0.98574
0.012426 0.015784 0.449 0.13457 -0.11286 -0.98446
0.012426 0.016614 0.449 0.20072 -0.070018 -0.97714
0.012426 0.017445 0.449 0.23865 -0.03645 -0.97042
0.012399 0.018235 0.448 0.30608 0.0088972 -0.95197
0.012399 0.019064 0.448 0.34075 0.049614 -0.93884
0.012399 0.019893 0.448 0.36391 0.074062 -0.92848
0.012371 0.020675 0.447 0.36606 0.085905 -0.92662
0.012371 0.021502 0.447 0.36789 0.097425 -0.92475
0.012343 0.022279 0.446 0.38419 0.077031 -0.92003
0.012343 0.023105 0.446 0.39117 0.085355 -0.91635
0.012343 0.02393 0.446 0.34001 0.12562 -0.93199
0.012343 0.024755 0.446 0.21152 0.12751 -0.96902
0.012343 0.02558 0.446 0.10929 0.12089 -0.98663
0.012315 0.026346 0.445 0.076815 0.073654 -0.99432
0.011247 -0.068376 0.381 0.65002 -0.54979 -0.5246
0.011188 -0.067315 0.379 0.36419 -0.689 -0.62662
0.011159 -0.066438 0.378 0.18637 -0.70342 -0.6859
0.011159 -0.065739 0.378 0.18739 -0.69932 -0.68981
0.011129 -0.064868 0.377 0.049717 -0.65703 -0.75222
0.011129 -0.06417 0.377 0.026218 -0.66258 -0.74853
0.011129 -0.063473 0.377 -0.032574 -0.66356 -0.74742
0.011129 -0.062775 0.377 -0.076482 -0.6591 -0.74816
0.011159 -0.062242 0.378 -0.122 -0.64682 -0.75282
0.011159 -0.061543 0.378 -0.18041 -0.62386 -0.76043
0.011159 -0.060844 0.378 -0.18042 -0.62567 -0.75894
0.011188 -0.060303 0.379 -0.36451 -0.50799 -0.78044
0.011454 -0.048814 0.388 -0.37508 0.46307 -0.80304
0.011483 -0.04822 0.389 -0.26192 0.54536 -0.79623
0.011483 -0.0475 0.389 -0.29434 0.51304 -0.80632
0.011483 -0.046781 0.389 -0.30585 0.49381 -0.814
0.011483 -0.046061 0.389 -0.3011 0.48218 -0.8227
0.011513 -0.045458 0.39 -0.2757 0.51607 -0.81097
0.011513 -0.044736 0.39 -0.28519 0.50266 -0.81609
0.011513 -0.044015 0.39 -0.30688 0.48737 -0.8175
0.011513 -0.043293 0.39 -0.30994 0.479 -0.82128
0.011513 -0.042572 0.39 -0.30628 0.47035 -0.82763
0.011542 -0.041957 0.391 -0.32031 0.48565 -0.81335
0.011542 -0.041234 0.391 -0.34398 0.47019 -0.81277
0.011542 -0.040511 0.391 -0.35789 0.45328 -0.81636
0.011572 -0.039889 0.392 -0.38816 0.49464 -0.7776
0.011572 -0.039164 0.392 -0.40084 0.49285 -0.77229
0.011572 -0.038438 0.392 -0.41632 0.48254 -0.77061
0.011601 -0.037809 0.393 -0.43979 0.47915 -0.75961
0.011601 -0.037082 0.393 -0.44266 0.46413 -0.76723
0.011631 -0.036448 0.394 -0.44698 0.46474 -0.76435
0.011661 -0.035809 0.395 -0.45492 0.46056 -0.76219
0.011661 -0.035079 0.395 -0.47052 0.44938 -0.75939
0.011661 -0.034348 0.395 -0.48225 0.42294 -0.76717
0.011661 -0.033617 0.395 -0.47694 0.36691 -0.79869
0.01169 -0.032969 0.396 -0.5564 0.37776 -0.74008
0.01169 -0.032237 0.396 -0.54577 0.30081 -0.78208
0.01172 -0.031584 0.397 -0.60442 0.37733 -0.70164
0.011779 -0.031005 0.399 -0.60501 0.38178 -0.69872
0.011808 -0.030342 0.4 -0.54407 0.36665 -0.75469
0.011808 -0.029602 0.4 -0.52854 0.37747 -0.76037
0.011838 -0.028934 0.401 -0.38031 0.35314 -0.85479
0.011838 -0.028192 0.401 -0.38211 0.35425 -0.85352
0.011838 -0.027451 0.401 -0.33645 0.35013 -0.87419
0.011838 -0.026709 0.401 -0.27973 0.33214 -0.9008
0.011838 -0.025967 0.401 -0.23502 0.3053 -0.9228
0.011867 -0.025288 0.402 -0.20881 0.28007 -0.93699
0.011867 -0.024544 0.402 -0.2015 0.26896 -0.94184
0.011867 -0.0238 0.402 -0.19396 0.25965 -0.94603
0.011867 -0.023056 0.402 -0.19412 0.2567 -0.9468
0.011867 -0.022313 0.402 -0.20366 0.24835 -0.94702
0.011867 -0.021569 0.402 -0.2163 0.2378 -0.94692
0.011897 -0.020877 0.403 -0.22031 0.22811 -0.94838
0.011897 -0.020131 0.403 -0.22569 0.22086 -0.94883
0.011897 -0.019386 0.403 -0.23599 0.21432 -0.94783
0.011897 -0.01864 0.403 -0.24017 0.2101 -0.94772
0.011897 -0.017895 0.403 -0.24831 0.20565 -0.9466
0.011897 -0.017149 0.403 -0.25889 0.20905 -0.94301
0.011926 -0.016444 0.404 -0.28211 0.19724 -0.93889
0.011926 -0.015697 0.404 -0.29608 0.18545 -0.93699
0.011926 -0.014949 0.404 -0.29926 0.17927 -0.93718
0.011926 -0.014202 0.404 -0.29748 0.17737 -0.93811
0.011956 -0.013488 0.405 -0.30509 0.18048 -0.93507
0.011956 -0.012738 0.405 -0.30619 0.17743 -0.93529
0.011956 -0.011989 0.405 -0.31442 0.17991 -0.93208
0.011956 -0.01124 0.405 -0.33881 0.16944 -0.92547
0.011985 -0.010516 0.406 -0.3673 0.16906 -0.91461
0.011985 -0.009765 0.406 -0.39932 0.16087 -0.90259
0.011985 -0.0090139 0.406 -0.43564 0.15132 -0.88731
0.011985 -0.0082627 0.406 -0.47712 0.14589 -0.86664
0.012015 -0.0075301 0.407 -0.51578 0.13555 -0.84593
0.012044 -0.0067937 0.408 -0.53902 0.13028 -0.83215
0.012044 -0.0060389 0.408 -0.55161 0.12284 -0.82501
0.012074 -0.0052969 0.409 -0.56101 0.11637 -0.81959
0.012074 -0.0045402 0.409 -0.56766 0.1166 -0.81497
0.012103 -0.0037928 0.41 -0.58912 0.10475 -0.80123
0.012103 -0.0030342 0.41 -0.61447 0.089881 -0.7838
0.012133 -0.0022812 0.411 -0.64973 0.079642 -0.75599
0.012133 -0.0015208 0.411 -0.62644 0.072903 -0.77606
0.012162 -0.00076226 0.412 -0.66754 0.10243 -0.73749
0.012192 0 0.413 -0.70511 0.11779 -0.69924
0.012221 0.00076596 0.414 -0.73253 0.10681 -0.6723
0.012251 0.0015356 0.415 -0.75368 0.094293 -0.65045
0.012339 0.0046401 0.418 -0.66877 0.13977 -0.73022
0.013284 0.0099907 0.45 0.12568 -0.50253 -0.85537
0.013255 0.013291 0.449 -0.025955 -0.2392 -0.97062
0.013255 0.014122 0.449 0.080876 -0.1706 -0.98202
0.013255 0.014953 0.449 0.14636 -0.14637 -0.97834
0.013255 0.015784 0.449 0.20052 -0.12113 -0.97217
0.013255 0.016614 0.449 0.26204 -0.084253 -0.96137
0.013255 0.017445 0.449 0.28901 -0.060883 -0.95539
0.013225 0.018235 0.448 0.34415 -0.0079778 -0.93888
0.013225 0.019064 0.448 0.36793 0.033356 -0.92925
0.013225 0.019893 0.448 0.37867 0.058024 -0.92371
0.013196 0.020675 0.447 0.37413 0.077574 -0.92413
0.013196 0.021502 0.447 0.37414 0.087279 -0.92325
0.013166 0.022279 0.446 0.3753 0.077676 -0.92364
0.013166 0.023105 0.446 0.38335 0.084706 -0.91971
0.013166 0.02393 0.446 0.32932 0.096819 -0.93924
0.013166 0.024755 0.446 0.2049 0.086587 -0.97495
0.013137 0.025523 0.445 0.1664 0.061706 -0.98413
0.013137 0.026346 0.445 0.05688 0.062062 -0.99645
0.011982 -0.068555 0.382 0.69668 -0.53226 -0.48098
0.011919 -0.067493 0.38 0.44515 -0.64208 -0.62416
0.011887 -0.066614 0.379 0.25995 -0.67947 -0.68611
0.011887 -0.065913 0.379 0.24689 -0.67829 -0.69208
0.011856 -0.06504 0.378 0.11503 -0.65624 -0.74573
0.011856 -0.06434 0.378 0.086465 -0.657 -0.74892
0.011856 -0.063641 0.378 0.014567 -0.65815 -0.75275
0.011856 -0.062942 0.378 -0.046336 -0.64961 -0.75886
0.011856 -0.062242 0.378 -0.070888 -0.63715 -0.76747
0.011887 -0.061706 0.379 -0.2057 -0.5831 -0.78593
0.011887 -0.061005 0.379 -0.22932 -0.57002 -0.78898
0.011887 -0.060303 0.379 -0.26107 -0.56124 -0.7854
0.012138 -0.049404 0.387 -0.41555 0.39279 -0.82039
0.01217 -0.048814 0.388 -0.31223 0.49773 -0.80918
0.01217 -0.048096 0.388 -0.33904 0.47393 -0.81267
0.01217 -0.047378 0.388 -0.34576 0.46071 -0.81743
0.01217 -0.04666 0.388 -0.33093 0.46113 -0.82331
0.012201 -0.046061 0.389 -0.29791 0.48507 -0.82217
0.012201 -0.045341 0.389 -0.28304 0.48171 -0.82936
0.012201 -0.044622 0.389 -0.29074 0.47195 -0.83231
0.012232 -0.044015 0.39 -0.29776 0.47595 -0.82754
0.012232 -0.043293 0.39 -0.30233 0.47454 -0.82669
0.012232 -0.042572 0.39 -0.30707 0.47046 -0.82727
0.012232 -0.04185 0.39 -0.31645 0.45682 -0.83137
0.012264 -0.041234 0.391 -0.33513 0.46358 -0.82023
0.012264 -0.040511 0.391 -0.35852 0.45546 -0.81487
0.012264 -0.039787 0.391 -0.36843 0.44985 -0.81357
0.012295 -0.039164 0.392 -0.40758 0.47404 -0.78049
0.012295 -0.038438 0.392 -0.42754 0.46864 -0.77304
0.012295 -0.037713 0.392 -0.44696 0.45884 -0.76791
0.012327 -0.037082 0.393 -0.45666 0.45104 -0.76683
0.012327 -0.036355 0.393 -0.45749 0.43934 -0.7731
0.012358 -0.035719 0.394 -0.46449 0.43092 -0.77366
0.012389 -0.035079 0.395 -0.48611 0.42504 -0.76357
0.012389 -0.034348 0.395 -0.50749 0.41521 -0.75502
0.012389 -0.033617 0.395 -0.52126 0.37657 -0.76582
0.012421 -0.032969 0.396 -0.58302 0.3786 -0.71885
0.012421 -0.032237 0.396 -0.5868 0.33009 -0.7394
0.012452 -0.031584 0.397 -0.62567 0.37123 -0.6861
0.012483 -0.030927 0.398 -0.62933 0.36281 -0.68725
0.012515 -0.030266 0.399 -0.61298 0.35215 -0.70728
0.012546 -0.029602 0.4 -0.54788 0.34261 -0.76318
0.012546 -0.028862 0.4 -0.51535 0.35529 -0.77986
0.012577 -0.028192 0.401 -0.4002 0.33038 -0.85481
0.012577 -0.027451 0.401 -0.36246 0.33659 -0.8691
0.012577 -0.026709 0.401 -0.31201 0.32605 -0.89238
0.012577 -0.025967 0.401 -0.26097 0.30413 -0.91619
0.012577 -0.025225 0.401 -0.22519 0.27967 -0.93331
0.012577 -0.024483 0.401 -0.21052 0.26032 -0.94229
0.012609 -0.0238 0.402 -0.1988 0.24465 -0.94901
0.012609 -0.023056 0.402 -0.20017 0.23764 -0.9505
0.012609 -0.022313 0.402 -0.20449 0.23245 -0.95087
0.012609 -0.021569 0.402 -0.21673 0.22983 -0.94879
0.012609 -0.020825 0.402 -0.22609 0.22336 -0.94815
0.01264 -0.020131 0.403 -0.2299 0.21664 -0.9488
0.01264 -0.019386 0.403 -0.23918 0.21015 -0.94796
0.01264 -0.01864 0.403 -0.24232 0.20697 -0.94786
0.01264 -0.017895 0.403 -0.25454 0.19929 -0.9463
0.01264 -0.017149 0.403 -0.26358 0.19478 -0.94477
0.012672 -0.016444 0.404 -0.28459 0.18712 -0.94021
0.012672 -0.015697 0.404 -0.29636 0.18044 -0.93788
0.012672 -0.014949 0.404 -0.30232 0.17509 -0.93699
0.012672 -0.014202 0.404 -0.30248 0.17207 -0.9375
0.012703 -0.013488 0.405 -0.30652 0.17143 -0.9363
0.012703 -0.012738 0.405 -0.31427 0.16598 -0.93471
0.012703 -0.011989 0.405 -0.31892 0.16571 -0.93318
0.012703 -0.01124 0.405 -0.34428 0.15225 -0.92644
0.012703 -0.01049 0.405 -0.36936 0.14774 -0.91747
0.012734 -0.009765 0.406 -0.40136 0.14138 -0.90494
0.012734 -0.0090139 0.406 -0.43809 0.13781 -0.88831
0.012734 -0.0082627 0.406 -0.47967 0.12985 -0.86779
0.012766 -0.0075301 0.407 -0.51739 0.12178 -0.84704
0.012797 -0.0067937 0.408 -0.54328 0.11473 -0.83167
0.012797 -0.0060389 0.408 -0.55806 0.10986 -0.8225
0.012828 -0.0052969 0.409 -0.56617 0.10184 -0.81797
0.012828 -0.0045402 0.409 -0.57475 0.098485 -0.81238
0.01286 -0.0037928 0.41 -0.594 0.088853 -0.79955
0.01286 -0.0030342 0.41 -0.6242 0.079707 -0.77719
0.012891 -0.0022812 0.411 -0.65648 0.068302 -0.75124
0.012891 -0.0015208 0.411 -0.63674 0.060723 -0.76868
0.012923 -0.00076226 0.412 -0.6741 0.086297 -0.73359
0.012954 0 0.413 -0.70773 0.08914 -0.70084
0.012985 0.00076596 0.414 -0.73857 0.071264 -0.6704
0.013048 0.0015393 0.416 -0.80439 -0.023986 -0.59361
0.014083 0.012461 0.449 -0.1082 -0.29997 -0.94779
0.014083 0.013291 0.449 -0.026873 -0.24675 -0.96871
0.014083 0.014953 0.449 0.16598 -0.17826 -0.96988
0.014083 0.015784 0.449 0.23885 -0.15197 -0.95909
0.014083 0.016614 0.449 0.3078 -0.11487 -0.94449
0.014052 0.017406 0.448 0.31909 -0.069361 -0.94518
0.014052 0.018235 0.448 0.37713 -0.025843 -0.9258
0.014052 0.019064 0.448 0.39729 0.006405 -0.91767
0.014052 0.019893 0.448 0.39792 0.02743 -0.91701
0.01402 0.020675 0.447 0.38975 0.051456 -0.91948
0.01402 0.021502 0.447 0.38316 0.065372 -0.92136
0.013989 0.022279 0.446 0.37423 0.061839 -0.92527
0.013989 0.023105 0.446 0.38456 0.065785 -0.92075
0.013989 0.02393 0.446 0.32368 0.069027 -0.94365
0.013989 0.024755 0.446 0.19072 0.063618 -0.97958
0.013958 0.025523 0.445 0.15488 0.03472 -0.98732
0.013958 0.026346 0.445 0.051245 0.035012 -0.99807
0.012753 -0.068914 0.384 0.81369 -0.31068 -0.49132
0.012653 -0.067671 0.381 0.5326 -0.58867 -0.60812
0.01262 -0.06679 0.38 0.36435 -0.62678 -0.68876
0.012587 -0.065913 0.379 0.18079 -0.64024 -0.7466
0.012587 -0.065212 0.379 0.17763 -0.6369 -0.75021
0.012587 -0.064511 0.379 0.13247 -0.63566 -0.76051
0.012587 -0.063809 0.379 0.043419 -0.63473 -0.77151
0.012587 -0.063108 0.379 -0.027903 -0.62458 -0.78046
0.012587 -0.062407 0.379 -0.07652 -0.60156 -0.79516
0.012587 -0.061706 0.379 -0.1421 -0.5824 -0.80038
0.012587 -0.061005 0.379 -0.16408 -0.57234 -0.80343
0.012587 -0.060303 0.379 -0.18893 -0.5724 -0.79791
0.01262 -0.059759 0.38 -0.32665 -0.4582 -0.82665
0.012653 -0.058507 0.381 -0.46687 -0.28361 -0.83761
0.012653 -0.057802 0.381 -0.46442 -0.31627 -0.82722
0.012686 -0.05654 0.382 -0.50257 -0.16285 -0.84906
0.01272 -0.055271 0.383 -0.48013 -0.040879 -0.87624
0.012786 -0.054847 0.385 -0.41966 0.46625 -0.77878
0.012786 -0.054135 0.385 -0.41714 0.38886 -0.82145
0.012819 -0.052133 0.386 -0.36644 0.41265 -0.83393
0.012819 -0.051419 0.386 -0.40505 0.35994 -0.84046
0.012819 -0.050705 0.386 -0.45181 0.31536 -0.83451
0.012852 -0.05012 0.387 -0.34385 0.44719 -0.8257
0.012852 -0.049404 0.387 -0.3664 0.41704 -0.83176
0.012886 -0.048814 0.388 -0.27693 0.4938 -0.8243
0.012886 -0.048096 0.388 -0.30357 0.46589 -0.83114
0.012886 -0.047378 0.388 -0.32553 0.44738 -0.83299
0.012886 -0.04666 0.388 -0.32711 0.44472 -0.8338
0.012886 -0.045943 0.388 -0.30784 0.44823 -0.83924
0.012919 -0.045341 0.389 -0.28921 0.4539 -0.84281
0.012919 -0.044622 0.389 -0.29492 0.45083 -0.84248
0.012919 -0.043902 0.389 -0.30791 0.44513 -0.84086
0.012919 -0.043182 0.389 -0.30791 0.44513 -0.84086
0.012952 -0.042572 0.39 -0.31205 0.44661 -0.83855
0.012952 -0.04185 0.39 -0.31612 0.44747 -0.83657
0.012952 -0.041129 0.39 -0.3267 0.44249 -0.83514
0.012985 -0.040511 0.391 -0.35143 0.44988 -0.82104
0.012985 -0.039787 0.391 -0.3709 0.44999 -0.81237
0.012985 -0.039064 0.391 -0.39378 0.44645 -0.8035
0.013018 -0.038438 0.392 -0.42654 0.4591 -0.77929
0.013018 -0.037713 0.392 -0.44714 0.45468 -0.77028
0.013052 -0.037082 0.393 -0.46112 0.44501 -0.76768
0.013052 -0.036355 0.393 -0.47355 0.43122 -0.76798
0.013052 -0.035628 0.393 -0.47829 0.41724 -0.77276
0.013085 -0.03499 0.394 -0.49759 0.40482 -0.76715
0.013118 -0.034348 0.395 -0.51948 0.40374 -0.75308
0.013118 -0.033617 0.395 -0.54231 0.38738 -0.74555
0.013118 -0.032886 0.395 -0.55791 0.3448 -0.75488
0.013151 -0.032237 0.396 -0.60597 0.35263 -0.71305
0.013185 -0.031584 0.397 -0.63403 0.36193 -0.68339
0.013185 -0.030849 0.397 -0.6435 0.33941 -0.68608
0.013218 -0.030191 0.398 -0.63802 0.33533 -0.69317
0.013251 -0.029528 0.399 -0.60587 0.33005 -0.72387
0.013284 -0.028862 0.4 -0.53845 0.31426 -0.78187
0.013284 -0.028122 0.4 -0.47176 0.33166 -0.81697
0.013317 -0.027451 0.401 -0.37965 0.30283 -0.87416
0.013317 -0.026709 0.401 -0.33432 0.30157 -0.89291
0.013317 -0.025967 0.401 -0.28696 0.28616 -0.9142
0.013317 -0.025225 0.401 -0.24621 0.25905 -0.93395
0.013317 -0.024483 0.401 -0.22309 0.23302 -0.94654
0.013351 -0.0238 0.402 -0.20647 0.21227 -0.95515
0.013351 -0.023056 0.402 -0.20799 0.20103 -0.95725
0.013351 -0.022313 0.402 -0.21238 0.1937 -0.9578
0.013351 -0.021569 0.402 -0.21844 0.19446 -0.95628
0.013351 -0.020825 0.402 -0.23166 0.19181 -0.9537
0.013351 -0.020081 0.402 -0.23864 0.1925 -0.95184
0.013384 -0.019386 0.403 -0.24437 0.18567 -0.95174
0.013384 -0.01864 0.403 -0.24446 0.18363 -0.95211
0.013384 -0.017895 0.403 -0.25358 0.17912 -0.95059
0.013384 -0.017149 0.403 -0.27032 0.17727 -0.94631
0.013417 -0.016444 0.404 -0.28816 0.17388 -0.94166
0.013417 -0.015697 0.404 -0.2968 0.17239 -0.93925
0.013417 -0.014949 0.404 -0.29953 0.17424 -0.93804
0.013417 -0.014202 0.404 -0.30159 0.17112 -0.93796
0.013417 -0.013454 0.404 -0.30274 0.16703 -0.93832
0.01345 -0.012738 0.405 -0.31158 0.16413 -0.93594
0.01345 -0.011989 0.405 -0.32382 0.16043 -0.93242
0.01345 -0.01124 0.405 -0.34619 0.15015 -0.92607
0.01345 -0.01049 0.405 -0.37291 0.14653 -0.91622
0.013483 -0.009765 0.406 -0.40164 0.1365 -0.90557
0.013483 -0.0090139 0.406 -0.44384 0.13356 -0.8861
0.013483 -0.0082627 0.406 -0.48193 0.12873 -0.8667
0.013517 -0.0075301 0.407 -0.51999 0.12338 -0.84521
0.013517 -0.0067771 0.407 -0.54705 0.1102 -0.82981
0.01355 -0.0060389 0.408 -0.56372 0.10759 -0.81893
0.013583 -0.0052969 0.409 -0.57116 0.098787 -0.81487
0.013583 -0.0045402 0.409 -0.58155 0.092684 -0.80822
0.013616 -0.0037928 0.41 -0.60167 0.08052 -0.79468
0.013616 -0.0030342 0.41 -0.63307 0.073878 -0.77056
0.013649 -0.0022812 0.411 -0.6651 0.057328 -0.74455
0.013649 -0.0015208 0.411 -0.64949 0.05163 -0.75862
0.013683 -0.00076226 0.412 -0.67999 0.06281 -0.73053
0.013716 0 0.413 -0.70913 0.056355 -0.70282
0.013749 0.00076596 0.414 -0.74389 0.035212 -0.66738
0.013782 0.0015356 0.415 -0.76566 0.019264 -0.64295
0.014978 0.0091785 0.451 0.13208 -0.6241 -0.7701
0.015011 0.010035 0.452 0.34654 -0.5467 -0.76225
0.014945 0.012488 0.45 0.086342 -0.38659 -0.9182
0.014945 0.013321 0.45 0.16225 -0.33633 -0.92766
0.014945 0.014154 0.45 0.29138 -0.27447 -0.91639
0.014911 0.014953 0.449 0.18625 -0.19954 -0.96203
0.014911 0.015784 0.449 0.28059 -0.17318 -0.94407
0.014911 0.016614 0.449 0.3559 -0.1424 -0.92361
0.014878 0.017406 0.448 0.34552 -0.085567 -0.9345
0.014878 0.018235 0.448 0.40067 -0.056192 -0.9145
0.014878 0.019064 0.448 0.41837 -0.033486 -0.90766
0.014878 0.019893 0.448 0.41257 -0.0090823 -0.91088
0.014845 0.020675 0.447 0.39644 0.017428 -0.9179
0.014845 0.021502 0.447 0.3885 0.032209 -0.92088
0.014812 0.022279 0.446 0.38126 0.032502 -0.9239
0.014812 0.023105 0.446 0.38781 0.041501 -0.9208
0.014812 0.02393 0.446 0.31908 0.042008 -0.9468
0.014812 0.024755 0.446 0.18134 0.042594 -0.9825
0.014779 0.025523 0.445 0.1448 0.022668 -0.9892
0.014779 0.026346 0.445 0.037144 0.027691 -0.99893
0.013496 -0.069093 0.385 0.84115 -0.25878 -0.47487
0.013356 -0.067671 0.381 0.4431 -0.59343 -0.67194
0.013321 -0.06679 0.38 0.27316 -0.60182 -0.75047
0.013321 -0.066087 0.38 0.29234 -0.59764 -0.74656
0.013321 -0.064681 0.38 0.21689 -0.59689 -0.77245
0.013286 -0.063809 0.379 0.060486 -0.58616 -0.80793
0.013286 -0.063108 0.379 0.0039414 -0.58336 -0.81221
0.013286 -0.062407 0.379 -0.029652 -0.57216 -0.81961
0.013286 -0.061706 0.379 -0.092281 -0.56425 -0.82043
0.013321 -0.061166 0.38 -0.19891 -0.50069 -0.84247
0.013321 -0.060463 0.38 -0.25024 -0.4761 -0.84303
0.013321 -0.059759 0.38 -0.27097 -0.45502 -0.84825
0.013321 -0.059056 0.38 -0.2896 -0.45515 -0.842
0.013356 -0.058507 0.381 -0.42033 -0.30203 -0.85563
0.013356 -0.057802 0.381 -0.43016 -0.31179 -0.8472
0.013391 -0.057247 0.382 -0.51393 -0.10933 -0.85084
0.013391 -0.05654 0.382 -0.4821 -0.15485 -0.86232
0.013426 -0.05598 0.383 -0.46919 0.088794 -0.87862
0.013426 -0.055271 0.383 -0.45851 -0.0080045 -0.88865
0.013461 -0.054705 0.384 -0.45062 0.21826 -0.86562
0.013496 -0.054135 0.385 -0.40107 0.41608 -0.8161
0.013461 -0.053284 0.384 -0.43623 0.041215 -0.89889
0.013496 -0.05271 0.385 -0.38698 0.27246 -0.88092
0.013496 -0.051998 0.385 -0.43396 0.22448 -0.87252
0.013531 -0.051419 0.386 -0.3642 0.39382 -0.84396
0.013531 -0.050705 0.386 -0.39979 0.35065 -0.84688
0.013531 -0.049991 0.386 -0.42544 0.31826 -0.84718
0.013531 -0.049277 0.386 -0.4332 0.30712 -0.84736
0.013566 -0.048688 0.387 -0.35068 0.40285 -0.84542
0.013601 -0.048096 0.388 -0.28471 0.45394 -0.84432
0.013601 -0.047378 0.388 -0.31019 0.43732 -0.84412
0.013601 -0.04666 0.388 -0.32114 0.42601 -0.84581
0.013601 -0.045943 0.388 -0.31166 0.42257 -0.85106
0.013601 -0.045225 0.388 -0.29569 0.42855 -0.85376
0.013637 -0.044622 0.389 -0.29693 0.4275 -0.85386
0.013637 -0.043902 0.389 -0.30713 0.4237 -0.85214
0.013637 -0.043182 0.389 -0.31005 0.42171 -0.85207
0.013672 -0.042572 0.39 -0.30706 0.42519 -0.85143
0.013672 -0.04185 0.39 -0.30869 0.43116 -0.84783
0.013672 -0.041129 0.39 -0.32027 0.43325 -0.84245
0.013672 -0.040407 0.39 -0.33676 0.43257 -0.83635
0.013707 -0.039787 0.391 -0.3651 0.43822 -0.82138
0.013707 -0.039064 0.391 -0.39403 0.44263 -0.80549
0.013707 -0.03834 0.391 -0.41816 0.44416 -0.79238
0.013742 -0.037713 0.392 -0.44927 0.44361 -0.77548
0.013742 -0.036988 0.392 -0.46633 0.44056 -0.7671
0.013742 -0.036263 0.392 -0.48192 0.42651 -0.76541
0.013777 -0.035628 0.393 -0.49468 0.41153 -0.76546
0.013812 -0.03499 0.394 -0.51286 0.39372 -0.76287
0.013847 -0.034348 0.395 -0.52402 0.37973 -0.76237
0.013847 -0.033617 0.395 -0.55833 0.38268 -0.73608
0.013847 -0.032886 0.395 -0.58328 0.35975 -0.72826
0.013882 -0.032237 0.396 -0.61383 0.36347 -0.70079
0.013882 -0.031504 0.396 -0.62233 0.33545 -0.70724
0.013917 -0.030849 0.397 -0.64836 0.34031 -0.68104
0.013952 -0.030191 0.398 -0.64518 0.3201 -0.69374
0.013987 -0.029528 0.399 -0.61906 0.30601 -0.72328
0.014022 -0.028862 0.4 -0.55421 0.27555 -0.78545
0.014022 -0.028122 0.4 -0.50181 0.30576 -0.80913
0.014057 -0.027451 0.401 -0.4017 0.27465 -0.87362
0.014057 -0.026709 0.401 -0.36178 0.28416 -0.8879
0.014057 -0.025967 0.401 -0.31805 0.27677 -0.90678
0.014057 -0.025225 0.401 -0.27289 0.25041 -0.92889
0.014057 -0.024483 0.401 -0.24169 0.22103 -0.94484
0.014057 -0.023741 0.401 -0.2188 0.19797 -0.95548
0.014092 -0.023056 0.402 -0.21587 0.1833 -0.95906
0.014092 -0.022313 0.402 -0.21522 0.17405 -0.96093
0.014092 -0.021569 0.402 -0.21628 0.17297 -0.96089
0.014092 -0.020825 0.402 -0.23567 0.16908 -0.95701
0.014092 -0.020081 0.402 -0.24856 0.1716 -0.95329
0.014092 -0.019338 0.402 -0.25453 0.17133 -0.95177
0.014127 -0.01864 0.403 -0.24804 0.17019 -0.95368
0.014127 -0.017895 0.403 -0.25107 0.16903 -0.9531
0.014127 -0.017149 0.403 -0.26699 0.16522 -0.94943
0.014127 -0.016403 0.403 -0.28921 0.16615 -0.94274
0.014162 -0.015697 0.404 -0.29631 0.16335 -0.94102
0.014162 -0.014949 0.404 -0.29901 0.16623 -0.93966
0.014162 -0.014202 0.404 -0.30101 0.16411 -0.93939
0.014162 -0.013454 0.404 -0.30111 0.16209 -0.93971
0.014197 -0.012738 0.405 -0.30893 0.16127 -0.93731
0.014197 -0.011989 0.405 -0.32598 0.15431 -0.9327
0.014197 -0.01124 0.405 -0.35264 0.14678 -0.92418
0.014197 -0.01049 0.405 -0.37819 0.14521 -0.91427
0.014232 -0.009765 0.406 -0.40493 0.13725 -0.90399
0.014232 -0.0090139 0.406 -0.44919 0.13506 -0.88317
0.014232 -0.0082627 0.406 -0.48565 0.1275 -0.8648
0.014268 -0.0075301 0.407 -0.52184 0.12593 -0.84369
0.014268 -0.0067771 0.407 -0.54721 0.1075 -0.83006
0.014303 -0.0060389 0.408 -0.56495 0.10748 -0.8181
0.014303 -0.005284 0.408 -0.57478 0.093455 -0.81295
0.014338 -0.0045402 0.409 -0.58479 0.08633 -0.80658
0.014373 -0.0037928 0.41 -0.60438 0.081167 -0.79255
0.014373 -0.0030342 0.41 -0.63551 0.075346 -0.76841
0.014373 -0.0022757 0.41 -0.62313 0.064956 -0.77942
0.014408 -0.0015208 0.411 -0.65837 0.059711 -0.75032
0.014408 -0.00076041 0.411 -0.59805 0.052695 -0.79973
0.014478 0 0.413 -0.71011 0.048494 -0.70242
0.014513 0.00076596 0.414 -0.74839 0.027634 -0.66268
0.014548 0.0015356 0.415 -0.77119 0.018858 -0.63633
0.014653 0.0046401 0.418 -0.71624 0.033494 -0.69705
0.015775 0.013321 0.45 0.15581 -0.36028 -0.91974
0.015775 0.014154 0.45 0.29577 -0.31669 -0.90124
0.015775 0.014986 0.45 0.40904 -0.26009 -0.87466
0.015775 0.015819 0.45 0.4559 -0.22355 -0.8615
0.01574 0.016614 0.449 0.39518 -0.16642 -0.9034
0.01574 0.017445 0.449 0.41462 -0.15223 -0.89717
0.015705 0.018235 0.448 0.42594 -0.10095 -0.8991
0.015705 0.019064 0.448 0.44492 -0.082691 -0.89175
0.01567 0.019848 0.447 0.43212 -0.053079 -0.90025
0.01567 0.020675 0.447 0.40941 -0.026429 -0.91197
0.01567 0.021502 0.447 0.38948 -0.007363 -0.92101
0.015635 0.022279 0.446 0.37776 0.0026625 -0.9259
0.015635 0.023105 0.446 0.38251 0.014565 -0.92384
0.015635 0.02393 0.446 0.30499 0.0042897 -0.95235
0.015635 0.024755 0.446 0.17125 0.0029399 -0.98522
0.0156 0.025523 0.445 0.13813 -0.0051849 -0.9904
0.0156 0.026346 0.445 0.032387 -0.00091997 -0.99947
0.014207 -0.069093 0.385 0.81052 -0.36813 -0.45556
0.014096 -0.067848 0.382 0.53905 -0.52951 -0.65501
0.014059 -0.066966 0.381 0.41188 -0.56009 -0.71879
0.014059 -0.066261 0.381 0.42631 -0.56143 -0.70927
0.014022 -0.064681 0.38 0.20503 -0.54226 -0.81481
0.014022 -0.063978 0.38 0.1084 -0.5566 -0.82368
0.014022 -0.063275 0.38 0.044486 -0.54956 -0.83427
0.014022 -0.062572 0.38 -0.014097 -0.53442 -0.8451
0.014022 -0.061869 0.38 -0.097288 -0.51767 -0.85003
0.014022 -0.061166 0.38 -0.14699 -0.49437 -0.85673
0.014022 -0.060463 0.38 -0.19178 -0.47266 -0.86013
0.014022 -0.059759 0.38 -0.2219 -0.44876 -0.86567
0.014059 -0.059212 0.381 -0.35331 -0.31457 -0.88103
0.014059 -0.058507 0.381 -0.37794 -0.29677 -0.87698
0.014059 -0.057802 0.381 -0.39962 -0.29317 -0.86854
0.014096 -0.057247 0.382 -0.47752 -0.093944 -0.87359
0.014096 -0.05654 0.382 -0.45556 -0.12884 -0.88083
0.014133 -0.05598 0.383 -0.44824 0.083258 -0.89003
0.01417 -0.055415 0.384 -0.4278 0.28348 -0.85827
0.01417 -0.054705 0.384 -0.43894 0.22311 -0.87037
0.01417 -0.053994 0.384 -0.43632 0.16156 -0.88517
0.01417 -0.053284 0.384 -0.42723 0.095653 -0.89907
0.014207 -0.05271 0.385 -0.36533 0.28752 -0.88536
0.014207 -0.051998 0.385 -0.4045 0.24695 -0.88057
0.014207 -0.051286 0.385 -0.42797 0.22467 -0.87542
0.014244 -0.050705 0.386 -0.36967 0.3488 -0.86121
0.014244 -0.049991 0.386 -0.38314 0.31676 -0.86768
0.014244 -0.049277 0.386 -0.39371 0.30327 -0.86777
0.01428 -0.048688 0.387 -0.33461 0.37575 -0.8642
0.01428 -0.047972 0.387 -0.33686 0.36357 -0.86853
0.01428 -0.047256 0.387 -0.3446 0.36895 -0.86321
0.01428 -0.04654 0.387 -0.34587 0.37066 -0.86197
0.014317 -0.045943 0.388 -0.3213 0.3827 -0.8662
0.014317 -0.045225 0.388 -0.30242 0.38875 -0.87029
0.014317 -0.044507 0.388 -0.30583 0.38998 -0.86855
0.014354 -0.043902 0.389 -0.31198 0.39163 -0.86561
0.014354 -0.043182 0.389 -0.31113 0.3975 -0.86324
0.014354 -0.042463 0.389 -0.3059 0.40311 -0.86251
0.014354 -0.041743 0.389 -0.30966 0.41306 -0.85644
0.014391 -0.041129 0.39 -0.31402 0.41948 -0.85172
0.014391 -0.040407 0.39 -0.32687 0.42916 -0.84201
0.014391 -0.039685 0.39 -0.3475 0.42959 -0.83348
0.014428 -0.039064 0.391 -0.37807 0.4394 -0.81486
0.014428 -0.03834 0.391 -0.40981 0.44418 -0.79672
0.014428 -0.037617 0.391 -0.43563 0.44604 -0.78184
0.014465 -0.036988 0.392 -0.45887 0.4471 -0.76782
0.014465 -0.036263 0.392 -0.48454 0.43566 -0.75856
0.014502 -0.035628 0.393 -0.50691 0.41812 -0.7538
0.014502 -0.034901 0.393 -0.53445 0.40478 -0.74197
0.014539 -0.034261 0.394 -0.54938 0.39377 -0.73697
0.014576 -0.033617 0.395 -0.56637 0.37542 -0.73368
0.014576 -0.032886 0.395 -0.5955 0.3736 -0.7112
0.014613 -0.032237 0.396 -0.61112 0.36694 -0.70135
0.014613 -0.031504 0.396 -0.62902 0.35527 -0.69146
0.014649 -0.030849 0.397 -0.64324 0.33918 -0.68644
0.014686 -0.030191 0.398 -0.6402 0.31132 -0.7023
0.014723 -0.029528 0.399 -0.61466 0.29161 -0.73291
0.014723 -0.02879 0.399 -0.60067 0.29557 -0.74285
0.01476 -0.028122 0.4 -0.52458 0.26988 -0.80745
0.01476 -0.027382 0.4 -0.48137 0.28373 -0.82933
0.014797 -0.026709 0.401 -0.38862 0.24858 -0.88723
0.014797 -0.025967 0.401 -0.34564 0.25101 -0.90417
0.014797 -0.025225 0.401 -0.29963 0.23389 -0.92494
0.014797 -0.024483 0.401 -0.25841 0.20406 -0.94424
0.014797 -0.023741 0.401 -0.22764 0.18118 -0.95674
0.014797 -0.022999 0.401 -0.22012 0.16597 -0.96125
0.014834 -0.022313 0.402 -0.21776 0.16046 -0.96272
0.014834 -0.021569 0.402 -0.21173 0.15755 -0.96455
0.014834 -0.020825 0.402 -0.23005 0.15792 -0.96028
0.014834 -0.020081 0.402 -0.24796 0.16237 -0.95507
0.014834 -0.019338 0.402 -0.25885 0.16292 -0.95208
0.014871 -0.01864 0.403 -0.25728 0.1626 -0.95256
0.014871 -0.017895 0.403 -0.25422 0.16479 -0.953
0.014871 -0.017149 0.403 -0.26918 0.16001 -0.94971
0.014871 -0.016403 0.403 -0.2895 0.16004 -0.9437
0.014871 -0.015658 0.403 -0.29992 0.16153 -0.94019
0.014908 -0.014949 0.404 -0.30006 0.16416 -0.93969
0.014908 -0.014202 0.404 -0.30604 0.15779 -0.93885
0.014908 -0.013454 0.404 -0.3041 0.1589 -0.93929
0.014945 -0.012738 0.405 -0.30898 0.16027 -0.93747
0.014945 -0.011989 0.405 -0.32802 0.15019 -0.93265
0.014945 -0.01124 0.405 -0.35627 0.14557 -0.92298
0.014945 -0.01049 0.405 -0.38359 0.14093 -0.91269
0.014945 -0.009741 0.405 -0.40747 0.13644 -0.90297
0.014982 -0.0090139 0.406 -0.45152 0.13489 -0.88201
0.014982 -0.0082627 0.406 -0.48844 0.12913 -0.86299
0.015018 -0.0075301 0.407 -0.52515 0.12654 -0.84155
0.015018 -0.0067771 0.407 -0.55029 0.10903 -0.82782
0.015055 -0.0060389 0.408 -0.56711 0.11168 -0.81604
0.015055 -0.005284 0.408 -0.57929 0.097463 -0.80927
0.015092 -0.0045402 0.409 -0.59113 0.085839 -0.802
0.015129 -0.0037928 0.41 -0.6084 0.087656 -0.78878
0.015129 -0.0030342 0.41 -0.63689 0.083797 -0.76639
0.015166 -0.0022812 0.411 -0.66942 0.074649 -0.73912
0.015166 -0.0015208 0.411 -0.65792 0.07543 -0.7493
0.015203 -0.00076226 0.412 -0.68405 0.069014 -0.72616
0.01524 0 0.413 -0.71424 0.057518 -0.69754
0.015277 0.00076596 0.414 -0.7529 0.034764 -0.65722
0.015314 0.0015356 0.415 -0.77849 0.030521 -0.62691
0.016642 0.013351 0.451 0.3266 -0.43587 -0.83866
0.016642 0.014185 0.451 0.44761 -0.37875 -0.81005
0.016605 0.014986 0.45 0.39599 -0.30439 -0.86634
0.016605 0.015819 0.45 0.46672 -0.26675 -0.84322
0.016568 0.016614 0.449 0.40925 -0.2037 -0.88939
0.016568 0.017445 0.449 0.44065 -0.1866 -0.87807
0.016531 0.018235 0.448 0.44205 -0.13249 -0.88715
0.016531 0.019064 0.448 0.45901 -0.12166 -0.88006
0.016494 0.019848 0.447 0.43925 -0.08408 -0.89442
