-0.045461 -0.055356 0.44 -0.046768 -0.021291 -0.99868
-0.045461 -0.054542 0.44 -0.020339 0.041579 -0.99893
-0.045461 -0.053728 0.44 0.0070903 0.1 -0.99496
-0.045461 -0.052914 0.44 0.039209 0.15239 -0.98754
-0.045461 -0.0521 0.44 0.063844 0.18901 -0.9799
-0.045358 -0.051169 0.439 0.07835 0.22154 -0.972
-0.045358 -0.050357 0.439 0.086692 0.2456 -0.96549
-0.045358 -0.049545 0.439 0.083468 0.25852 -0.96239
-0.045358 -0.048733 0.439 0.078428 0.26592 -0.9608
-0.045358 -0.04792 0.439 0.076459 0.26687 -0.9607
-0.045358 -0.047108 0.439 0.071509 0.27059 -0.96004
-0.045358 -0.046296 0.439 0.069559 0.27063 -0.96017
-0.045358 -0.045484 0.439 0.060777 0.27078 -0.96072
-0.045358 -0.044672 0.439 0.052008 0.2691 -0.96171
-0.045358 -0.043859 0.439 0.039295 0.26744 -0.96277
-0.045255 -0.042949 0.438 0.013792 0.26819 -0.96327
-0.045255 -0.042139 0.438 -0.020707 0.26451 -0.96416
-0.045255 -0.041328 0.438 -0.061142 0.25766 -0.9643
-0.045358 -0.040611 0.439 -0.10496 0.25435 -0.9614
-0.045358 -0.039798 0.439 -0.13498 0.25068 -0.95861
-0.045358 -0.038986 0.439 -0.16448 0.25137 -0.95381
-0.045358 -0.038174 0.439 -0.18978 0.25201 -0.94893
-0.045358 -0.037362 0.439 -0.20352 0.2549 -0.94531
-0.045358 -0.036549 0.439 -0.21889 0.25849 -0.94089
-0.045358 -0.035737 0.439 -0.23332 0.25938 -0.93717
-0.045461 -0.035005 0.44 -0.23898 0.26111 -0.93526
-0.045461 -0.034191 0.44 -0.25447 0.26792 -0.92923
-0.045461 -0.033377 0.44 -0.27849 0.27211 -0.92108
-0.045565 -0.032636 0.441 -0.29919 0.28081 -0.91194
-0.045565 -0.031821 0.441 -0.33419 0.28319 -0.89896
-0.045565 -0.031005 0.441 -0.3641 0.2831 -0.88729
-0.045668 -0.030257 0.442 -0.39751 0.28075 -0.87359
-0.045668 -0.029439 0.442 -0.43339 0.27338 -0.85874
-0.045771 -0.028686 0.443 -0.45544 0.27028 -0.84825
-0.045771 -0.027867 0.443 -0.47623 0.26619 -0.83806
-0.045875 -0.027108 0.444 -0.4932 0.26053 -0.82999
-0.045875 -0.026287 0.444 -0.50614 0.25527 -0.82381
-0.045978 -0.025523 0.445 -0.50958 0.23914 -0.82652
-0.045978 -0.024699 0.445 -0.52659 0.23752 -0.81626
-0.046081 -0.02393 0.446 -0.52962 0.2425 -0.81283
-0.046081 -0.023105 0.446 -0.52417 0.22368 -0.82171
-0.046185 -0.022329 0.447 -0.54356 0.23773 -0.805
-0.046185 -0.021502 0.447 -0.54899 0.20062 -0.8114
-0.046288 -0.020722 0.448 -0.57487 0.2112 -0.79052
-0.046288 -0.019893 0.448 -0.586 0.1577 -0.79481
-0.046391 -0.019106 0.449 -0.60534 0.18559 -0.77403
-0.046494 -0.018316 0.45 -0.6303 0.22159 -0.74406
-0.046494 -0.017484 0.45 -0.61419 0.14742 -0.77527
-0.046598 -0.016688 0.451 -0.63086 0.18099 -0.7545
-0.046701 -0.015889 0.452 -0.67627 0.19509 -0.71035
-0.049284 0.0035301 0.477 0.52287 0.34064 -0.78139
-0.049181 0.0044033 0.476 0.44103 0.33882 -0.83108
-0.049181 0.005284 0.476 0.49005 0.31172 -0.81405
-0.049077 0.0061517 0.475 0.43013 0.31374 -0.8465
-0.049077 0.0070305 0.475 0.43468 0.29914 -0.84945
-0.048974 0.0078927 0.474 0.37141 0.2559 -0.89251
-0.048974 0.0087697 0.474 0.33117 0.24789 -0.91043
-0.048974 0.0096466 0.474 0.2787 0.22842 -0.93282
-0.048871 0.010501 0.473 0.22064 0.20677 -0.95318
-0.048871 0.011377 0.473 0.15849 0.18955 -0.96899
-0.048871 0.012252 0.473 0.098971 0.17853 -0.97894
-0.048871 0.013127 0.473 0.01986 0.16721 -0.98572
-0.048871 0.014002 0.473 -0.059712 0.16056 -0.98522
-0.048871 0.014877 0.473 -0.084352 0.14991 -0.98509
-0.048871 0.015752 0.473 -0.086842 0.13754 -0.98668
-0.048871 0.016627 0.473 -0.058409 0.13234 -0.98948
-0.048974 0.017539 0.474 -0.26546 0.13094 -0.95519
-0.048974 0.018416 0.474 -0.23317 0.12131 -0.96484
-0.048201 -0.15204 0.475 0.44123 0.2414 -0.86432
-0.048201 -0.15116 0.475 0.50645 0.28549 -0.81364
-0.0481 -0.14996 0.474 0.46786 0.20955 -0.8586
-0.047998 -0.14877 0.473 0.46716 0.11668 -0.87644
-0.047998 -0.14789 0.473 0.5004 0.17239 -0.84846
-0.047897 -0.14671 0.472 0.51463 0.076189 -0.85402
-0.047897 -0.14584 0.472 0.54629 0.12099 -0.82881
-0.047795 -0.14465 0.471 0.54917 0.035227 -0.83497
-0.047795 -0.14378 0.471 0.57586 0.081178 -0.8135
-0.047694 -0.14261 0.47 0.59765 0.0046732 -0.80175
-0.047592 -0.14144 0.469 0.61043 -0.060891 -0.78973
-0.047491 -0.14027 0.468 0.60416 -0.1269 -0.7867
-0.047491 -0.1394 0.468 0.62627 -0.082114 -0.77527
-0.047389 -0.13824 0.467 0.6099 -0.13999 -0.78002
-0.047288 -0.13708 0.466 0.57977 -0.19273 -0.79166
-0.047186 -0.13593 0.465 0.53452 -0.22678 -0.81416
-0.047186 -0.13507 0.465 0.53966 -0.19438 -0.81914
-0.047085 -0.13392 0.464 0.50565 -0.24061 -0.82851
-0.047085 -0.13306 0.464 0.48016 -0.23436 -0.84529
-0.046983 -0.13192 0.463 0.44703 -0.27568 -0.85098
-0.046983 -0.13106 0.463 0.42704 -0.27548 -0.86125
-0.046882 -0.12992 0.462 0.41794 -0.31263 -0.85299
-0.046882 -0.12907 0.462 0.4034 -0.31801 -0.85799
-0.046882 -0.12821 0.462 0.40339 -0.31196 -0.86021
-0.046882 -0.12736 0.462 0.38157 -0.334 -0.86189
-0.04678 -0.12623 0.461 0.39105 -0.32781 -0.86001
-0.04678 -0.12538 0.461 0.34089 -0.38397 -0.85812
-0.046679 -0.1234 0.46 0.34111 -0.38423 -0.85791
-0.046679 -0.12255 0.46 0.29794 -0.42791 -0.8533
-0.046679 -0.1217 0.46 0.25264 -0.47775 -0.84138
-0.046679 -0.12085 0.46 0.24143 -0.52675 -0.81501
-0.046577 -0.11889 0.459 0.24932 -0.47064 -0.84637
-0.046476 -0.11694 0.458 0.27324 -0.3646 -0.89017
-0.046476 -0.11609 0.458 0.2353 -0.4186 -0.87716
-0.046476 -0.11524 0.458 0.20793 -0.45407 -0.86636
-0.046375 -0.11414 0.457 0.29634 -0.273 -0.91523
-0.044244 -0.10729 0.436 -0.098437 0.40704 -0.90809
-0.044345 -0.10672 0.437 0.15473 0.55347 -0.81837
-0.044345 -0.10591 0.437 0.16225 0.5582 -0.81369
-0.044446 -0.10535 0.438 0.26524 0.61826 -0.73987
-0.044345 -0.1043 0.437 0.17709 0.53368 -0.82694
-0.044244 -0.10325 0.436 0.11225 0.45338 -0.88422
-0.044244 -0.10245 0.436 0.13021 0.42772 -0.89448
-0.044244 -0.10164 0.436 0.11125 0.38854 -0.91469
-0.044142 -0.1006 0.435 0.07936 0.32044 -0.94394
-0.044142 -0.099796 0.435 0.06195 0.28468 -0.95662
-0.044244 -0.099219 0.436 0.022901 0.24526 -0.96919
-0.044244 -0.098413 0.436 -0.024258 0.1774 -0.98384
-0.044244 -0.097606 0.436 -0.047863 0.10976 -0.9928
-0.044244 -0.096799 0.436 -0.078616 0.05063 -0.99562
-0.044244 -0.095993 0.436 -0.10403 -0.0071782 -0.99455
-0.044244 -0.095186 0.436 -0.09195 -0.049252 -0.99454
-0.044244 -0.094379 0.436 -0.067322 -0.089206 -0.99374
-0.044244 -0.093573 0.436 -0.038513 -0.11712 -0.99237
-0.044345 -0.092979 0.437 -0.15881 -0.29219 -0.94308
-0.044345 -0.09217 0.437 -0.15729 -0.34002 -0.92717
-0.044345 -0.091362 0.437 -0.152 -0.39134 -0.90761
-0.044345 -0.090553 0.437 -0.1395 -0.41752 -0.8979
-0.044446 -0.08995 0.438 -0.15688 -0.61392 -0.77362
-0.044446 -0.08914 0.438 -0.15394 -0.61517 -0.77322
-0.044548 -0.088531 0.439 -0.14684 -0.72909 -0.66848
-0.044548 -0.087719 0.439 -0.16306 -0.72247 -0.6719
-0.044548 -0.086907 0.439 -0.16132 -0.71276 -0.6826
-0.044548 -0.086094 0.439 -0.16292 -0.69179 -0.70348
-0.044649 -0.085476 0.44 -0.14019 -0.77954 -0.61046
-0.044649 -0.084662 0.44 -0.13542 -0.76313 -0.63189
-0.044751 -0.084039 0.441 -0.054276 -0.82771 -0.55852
-0.044649 -0.083034 0.44 -0.076829 -0.72728 -0.68202
-0.044649 -0.08222 0.44 -0.041339 -0.714 -0.69892
-0.044649 -0.081406 0.44 -0.0041937 -0.70327 -0.71091
-0.044649 -0.080592 0.44 0.015918 -0.69432 -0.71949
-0.044649 -0.079778 0.44 0.039237 -0.68426 -0.72818
-0.044649 -0.078964 0.44 0.063765 -0.67538 -0.73471
-0.044649 -0.07815 0.44 0.092581 -0.66741 -0.73892
-0.044548 -0.07716 0.439 0.051125 -0.61665 -0.78557
-0.044548 -0.076348 0.439 0.092185 -0.62153 -0.77794
-0.044548 -0.075536 0.439 0.12179 -0.62168 -0.77375
-0.044548 -0.074723 0.439 0.13183 -0.61687 -0.77594
-0.044548 -0.073911 0.439 0.13809 -0.61515 -0.77622
-0.044548 -0.073099 0.439 0.14022 -0.61243 -0.77799
-0.044548 -0.072287 0.439 0.1362 -0.61001 -0.7806
-0.044446 -0.071312 0.438 0.11151 -0.59569 -0.79544
-0.044446 -0.070501 0.438 0.094647 -0.59964 -0.79465
-0.044446 -0.069691 0.438 0.078258 -0.6028 -0.79405
-0.044446 -0.068881 0.438 0.055288 -0.60405 -0.79503
-0.044446 -0.06807 0.438 0.021178 -0.60433 -0.79646
-0.044446 -0.06726 0.438 -0.0098192 -0.59976 -0.80012
-0.044446 -0.06645 0.438 -0.031172 -0.59635 -0.80212
-0.044446 -0.065639 0.438 -0.05544 -0.58504 -0.80911
-0.044446 -0.064829 0.438 -0.063556 -0.57209 -0.81772
-0.044548 -0.064165 0.439 -0.08124 -0.55276 -0.82937
-0.044548 -0.063352 0.439 -0.10158 -0.52711 -0.8437
-0.044548 -0.06254 0.439 -0.11251 -0.49524 -0.86144
-0.044649 -0.061869 0.44 -0.093221 -0.43894 -0.89367
-0.044548 -0.060916 0.439 -0.10899 -0.41079 -0.90519
-0.044649 -0.060241 0.44 -0.10776 -0.35537 -0.92849
-0.044649 -0.059426 0.44 -0.10158 -0.29426 -0.95031
-0.044649 -0.058612 0.44 -0.097847 -0.21881 -0.97085
-0.044649 -0.057798 0.44 -0.080394 -0.1383 -0.98712
-0.044649 -0.056984 0.44 -0.055783 -0.065743 -0.99628
-0.044649 -0.05617 0.44 -0.019339 0.0050751 -0.9998
-0.044649 -0.055356 0.44 0.015231 0.06987 -0.99744
-0.044649 -0.054542 0.44 0.032297 0.12682 -0.9914
-0.044649 -0.053728 0.44 0.051096 0.16985 -0.98414
-0.044649 -0.052914 0.44 0.070516 0.20799 -0.97559
-0.044548 -0.051981 0.439 0.089773 0.23906 -0.96685
-0.044548 -0.051169 0.439 0.095031 0.26281 -0.96016
-0.044548 -0.050357 0.439 0.097583 0.2754 -0.95637
-0.044548 -0.049545 0.439 0.092596 0.28091 -0.95526
-0.044548 -0.048733 0.439 0.089573 0.28545 -0.9542
-0.044548 -0.04792 0.439 0.088656 0.28369 -0.95481
-0.044548 -0.047108 0.439 0.079086 0.27944 -0.9569
-0.044548 -0.046296 0.439 0.072426 0.27328 -0.9592
-0.044548 -0.045484 0.439 0.058885 0.26719 -0.96184
-0.044446 -0.04457 0.438 0.045344 0.26246 -0.96388
-0.044446 -0.043759 0.438 0.027661 0.25713 -0.96598
-0.044446 -0.042949 0.438 0.0029685 0.25261 -0.96756
-0.044446 -0.042139 0.438 -0.024797 0.24234 -0.96988
-0.044446 -0.041328 0.438 -0.064464 0.23538 -0.96976
-0.044446 -0.040518 0.438 -0.10293 0.22996 -0.96774
-0.044446 -0.039708 0.438 -0.12745 0.22464 -0.96607
-0.044548 -0.038986 0.439 -0.15614 0.22229 -0.9624
-0.044548 -0.038174 0.439 -0.18081 0.22319 -0.95786
-0.044548 -0.037362 0.439 -0.19472 0.22719 -0.95418
-0.044548 -0.036549 0.439 -0.21102 0.23553 -0.94868
-0.044548 -0.035737 0.439 -0.22711 0.24279 -0.94312
-0.044649 -0.035005 0.44 -0.235 0.25341 -0.93838
-0.044649 -0.034191 0.44 -0.25415 0.26007 -0.93154
-0.044649 -0.033377 0.44 -0.2769 0.27052 -0.92203
-0.044649 -0.032562 0.44 -0.29675 0.28668 -0.91091
-0.044751 -0.031821 0.441 -0.33025 0.29022 -0.89817
-0.044751 -0.031005 0.441 -0.35868 0.29673 -0.88504
-0.044751 -0.030189 0.441 -0.39182 0.30273 -0.86881
-0.044852 -0.029439 0.442 -0.42627 0.30548 -0.85146
-0.044852 -0.028622 0.442 -0.44889 0.30776 -0.83891
-0.044954 -0.027867 0.443 -0.46865 0.30879 -0.82766
-0.045055 -0.027108 0.444 -0.48345 0.2992 -0.82265
-0.045055 -0.026287 0.444 -0.49948 0.29935 -0.81296
-0.045157 -0.025523 0.445 -0.4956 0.27851 -0.82269
-0.045157 -0.024699 0.445 -0.51831 0.28988 -0.80457
-0.045258 -0.02393 0.446 -0.51309 0.27876 -0.81181
-0.045258 -0.023105 0.446 -0.51376 0.27764 -0.81177
-0.04536 -0.022329 0.447 -0.52605 0.27846 -0.80358
-0.04536 -0.021502 0.447 -0.53824 0.26676 -0.79946
-0.045461 -0.020722 0.448 -0.56099 0.26249 -0.78511
-0.045461 -0.019893 0.448 -0.58573 0.24153 -0.77368
-0.045563 -0.019106 0.449 -0.60332 0.25355 -0.75612
-0.045563 -0.018276 0.449 -0.59621 0.21135 -0.77451
-0.045664 -0.017484 0.45 -0.61994 0.23515 -0.74858
-0.045766 -0.016688 0.451 -0.64025 0.249 -0.72669
-0.045867 -0.015889 0.452 -0.68642 0.24491 -0.68472
-0.045867 -0.015053 0.452 -0.61778 0.1974 -0.76117
-0.048404 0.0026475 0.477 0.49116 0.36613 -0.79039
-0.048404 0.0035301 0.477 0.57466 0.31119 -0.75692
-0.048303 0.0044033 0.476 0.47583 0.35147 -0.80626
-0.048201 0.0052729 0.475 0.37472 0.37196 -0.84925
-0.048201 0.0061517 0.475 0.40316 0.35153 -0.84492
-0.0481 0.0070157 0.474 0.33763 0.31177 -0.88815
-0.0481 0.0078927 0.474 0.34616 0.29055 -0.89205
-0.0481 0.0087697 0.474 0.30829 0.26438 -0.91382
-0.0481 0.0096466 0.474 0.25877 0.23154 -0.93778
-0.047998 0.010501 0.473 0.20033 0.20882 -0.95722
-0.047998 0.011377 0.473 0.13903 0.18822 -0.97224
-0.047998 0.012252 0.473 0.07716 0.17429 -0.98167
-0.047998 0.013127 0.473 0.0018684 0.16396 -0.98646
-0.047998 0.014002 0.473 -0.068177 0.15088 -0.9862
-0.047998 0.014877 0.473 -0.10591 0.13538 -0.98512
-0.047998 0.015752 0.473 -0.11419 0.12415 -0.98567
-0.047998 0.016627 0.473 -0.096513 0.11567 -0.98859
-0.0481 0.017539 0.474 -0.30161 0.11841 -0.94605
-0.0481 0.018416 0.474 -0.27182 0.1077 -0.9563
-0.047325 -0.15204 0.475 0.46086 0.21331 -0.86145
-0.047225 -0.15084 0.474 0.41231 0.1467 -0.89916
-0.047225 -0.14996 0.474 0.46486 0.18095 -0.8667
-0.047125 -0.14877 0.473 0.4621 0.1166 -0.87913
-0.047125 -0.14789 0.473 0.49325 0.13677 -0.85907
-0.047026 -0.14671 0.472 0.50214 0.062815 -0.8625
-0.046926 -0.14553 0.471 0.51787 -0.017746 -0.85527
-0.046926 -0.14465 0.471 0.53655 -0.0010002 -0.84386
-0.046827 -0.14348 0.47 0.55692 -0.060474 -0.82836
-0.046827 -0.14261 0.47 0.58536 -0.049749 -0.80924
-0.046727 -0.14144 0.469 0.59699 -0.097644 -0.79629
-0.046627 -0.14027 0.468 0.59238 -0.15222 -0.79115
-0.046627 -0.1394 0.468 0.61269 -0.13989 -0.77784
-0.046528 -0.13824 0.467 0.5994 -0.17973 -0.78001
-0.046428 -0.13708 0.466 0.5684 -0.20925 -0.7957
-0.046328 -0.13593 0.465 0.51562 -0.21361 -0.82977
-0.046328 -0.13507 0.465 0.52576 -0.22461 -0.82045
-0.046229 -0.13392 0.464 0.48977 -0.24652 -0.83627
-0.046229 -0.13306 0.464 0.46857 -0.26915 -0.84143
-0.046229 -0.1322 0.464 0.43871 -0.28351 -0.85274
-0.046129 -0.13106 0.463 0.40241 -0.31696 -0.85884
-0.04603 -0.12992 0.462 0.4001 -0.32632 -0.85641
-0.04603 -0.12907 0.462 0.40596 -0.33471 -0.85039
-0.04603 -0.12821 0.462 0.4058 -0.33791 -0.8492
-0.04603 -0.12736 0.462 0.38261 -0.36272 -0.84973
-0.04593 -0.12623 0.461 0.41883 -0.316 -0.85131
-0.04593 -0.12538 0.461 0.3634 -0.37794 -0.85153
-0.04593 -0.12453 0.461 0.32422 -0.42297 -0.84615
-0.04593 -0.12282 0.461 0.22728 -0.52113 -0.82266
-0.04593 -0.12197 0.461 0.19613 -0.57828 -0.79191
-0.045731 -0.11804 0.459 0.25955 -0.44526 -0.85696
-0.045731 -0.11719 0.459 0.23026 -0.48191 -0.84542
-0.045631 -0.11609 0.458 0.28119 -0.31706 -0.90576
-0.045731 -0.11549 0.459 0.15581 -0.56606 -0.80951
-0.043339 -0.10784 0.435 -0.26072 0.31068 -0.91406
-0.043439 -0.10729 0.436 0.017064 0.48051 -0.87682
-0.043539 -0.10672 0.437 0.2134 0.58947 -0.77909
-0.043638 -0.10616 0.438 0.30786 0.61369 -0.72705
-0.043439 -0.10487 0.436 0.078264 0.48451 -0.87128
-0.043439 -0.10406 0.436 0.093476 0.46022 -0.88287
-0.043439 -0.10325 0.436 0.10044 0.43601 -0.89432
-0.043339 -0.10221 0.435 0.064664 0.37698 -0.92396
-0.043339 -0.10141 0.435 0.050114 0.3413 -0.93862
-0.043339 -0.1006 0.435 0.036502 0.30781 -0.95075
-0.043339 -0.099796 0.435 0.010923 0.2644 -0.96435
-0.043339 -0.098992 0.435 -0.052493 0.19026 -0.98033
-0.043339 -0.098187 0.435 -0.086441 0.13379 -0.98723
-0.043439 -0.097606 0.436 -0.11406 0.067763 -0.99116
-0.043439 -0.096799 0.436 -0.13533 0.02996 -0.99035
-0.043439 -0.095993 0.436 -0.14767 -0.0062847 -0.98902
-0.043439 -0.095186 0.436 -0.12518 -0.030281 -0.99167
-0.043439 -0.094379 0.436 -0.087548 -0.043865 -0.99519
-0.043539 -0.093787 0.437 -0.20054 -0.205 -0.958
-0.043539 -0.092979 0.437 -0.19997 -0.23 -0.95242
-0.043539 -0.09217 0.437 -0.18815 -0.25096 -0.94954
-0.043638 -0.091571 0.438 -0.26153 -0.46548 -0.84554
-0.043838 -0.087919 0.44 -0.17553 -0.7441 -0.64459
-0.043937 -0.084039 0.441 -0.088724 -0.75898 -0.64505
-0.043937 -0.079959 0.441 0.076141 -0.7002 -0.70988
-0.043937 -0.079143 0.441 0.10341 -0.69473 -0.7118
-0.043838 -0.07815 0.44 0.034277 -0.61318 -0.7892
-0.043838 -0.077336 0.44 0.07509 -0.61774 -0.78279
-0.043838 -0.076522 0.44 0.11391 -0.62533 -0.772
-0.043838 -0.075708 0.44 0.13872 -0.63016 -0.76397
-0.043838 -0.074894 0.44 0.15237 -0.62768 -0.76342
-0.043838 -0.07408 0.44 0.1556 -0.62578 -0.76432
-0.043738 -0.073099 0.439 0.13671 -0.60542 -0.78408
-0.043738 -0.072287 0.439 0.13469 -0.6081 -0.78235
-0.043738 -0.071475 0.439 0.12175 -0.607 -0.78532
-0.043738 -0.070662 0.439 0.1016 -0.60916 -0.78651
-0.043738 -0.06985 0.439 0.085289 -0.60688 -0.7902
-0.043738 -0.069038 0.439 0.060931 -0.60195 -0.79621
-0.043738 -0.068226 0.439 0.032667 -0.59859 -0.80039
-0.043738 -0.067414 0.439 0.0057728 -0.58884 -0.80823
-0.043738 -0.066601 0.439 -0.0091723 -0.57626 -0.81722
-0.043738 -0.065789 0.439 -0.024557 -0.55735 -0.82992
-0.043738 -0.064977 0.439 -0.030065 -0.53882 -0.84188
-0.043838 -0.064311 0.44 -0.039305 -0.51217 -0.85798
-0.043838 -0.063497 0.44 -0.055427 -0.47517 -0.87815
-0.043838 -0.062683 0.44 -0.061346 -0.4328 -0.8994
-0.043838 -0.061869 0.44 -0.06189 -0.38434 -0.92112
-0.043838 -0.061055 0.44 -0.051927 -0.32413 -0.94459
-0.043838 -0.060241 0.44 -0.046155 -0.25952 -0.96463
-0.043838 -0.059426 0.44 -0.035976 -0.18735 -0.98163
-0.043838 -0.058612 0.44 -0.029341 -0.10695 -0.99383
-0.043838 -0.057798 0.44 -0.010175 -0.029427 -0.99952
-0.043838 -0.056984 0.44 0.014239 0.040571 -0.99908
-0.043838 -0.05617 0.44 0.042469 0.1079 -0.99325
-0.043838 -0.055356 0.44 0.073111 0.16379 -0.98378
-0.043838 -0.054542 0.44 0.081356 0.20876 -0.97458
-0.043738 -0.053606 0.439 0.092598 0.24363 -0.96544
-0.043738 -0.052794 0.439 0.10051 0.27442 -0.95634
-0.043738 -0.051981 0.439 0.11054 0.29105 -0.9503
-0.043738 -0.051169 0.439 0.11006 0.30424 -0.94621
-0.043738 -0.050357 0.439 0.1051 0.30963 -0.94503
-0.043738 -0.049545 0.439 0.096453 0.31164 -0.94529
-0.043738 -0.048733 0.439 0.088773 0.31273 -0.94568
-0.043738 -0.04792 0.439 0.088103 0.30316 -0.94886
-0.043638 -0.047001 0.438 0.078965 0.29165 -0.95326
-0.043638 -0.046191 0.438 0.07246 0.27927 -0.95747
-0.043638 -0.04538 0.438 0.054192 0.26235 -0.96345
-0.043638 -0.04457 0.438 0.036624 0.24875 -0.96788
-0.043638 -0.043759 0.438 0.015903 0.23491 -0.97189
-0.043638 -0.042949 0.438 -0.010957 0.22647 -0.97396
-0.043638 -0.042139 0.438 -0.039918 0.21496 -0.97581
-0.043638 -0.041328 0.438 -0.079762 0.2078 -0.97491
-0.043638 -0.040518 0.438 -0.11249 0.19954 -0.97341
-0.043638 -0.039708 0.438 -0.13128 0.19241 -0.97249
-0.043738 -0.038986 0.439 -0.15423 0.19324 -0.96895
-0.043738 -0.038174 0.439 -0.17321 0.19923 -0.96452
-0.043738 -0.037362 0.439 -0.18138 0.20924 -0.9609
-0.043738 -0.036549 0.439 -0.19289 0.22636 -0.95475
-0.043738 -0.035737 0.439 -0.21083 0.23918 -0.94781
-0.043738 -0.034925 0.439 -0.22163 0.25833 -0.94029
-0.043838 -0.034191 0.44 -0.2394 0.26811 -0.93317
-0.043838 -0.033377 0.44 -0.26287 0.28367 -0.92219
-0.043838 -0.032562 0.44 -0.28955 0.30074 -0.90869
-0.043838 -0.031748 0.44 -0.32147 0.31059 -0.89454
-0.043937 -0.031005 0.441 -0.3473 0.32675 -0.87898
-0.043937 -0.030189 0.441 -0.37582 0.33896 -0.86248
-0.044037 -0.029439 0.442 -0.41098 0.34679 -0.84311
-0.044037 -0.028622 0.442 -0.43155 0.35318 -0.83008
-0.044037 -0.027804 0.442 -0.45042 0.36 -0.81702
-0.044137 -0.027047 0.443 -0.47084 0.35642 -0.80702
-0.044236 -0.026287 0.444 -0.48584 0.34711 -0.80217
-0.044236 -0.025465 0.444 -0.49585 0.348 -0.79563
-0.044336 -0.024699 0.445 -0.49899 0.32519 -0.80328
-0.044336 -0.023876 0.445 -0.5086 0.3382 -0.7918
-0.044435 -0.023105 0.446 -0.49687 0.31286 -0.80947
-0.044435 -0.022279 0.446 -0.52026 0.31524 -0.79369
-0.044535 -0.021502 0.447 -0.5235 0.30258 -0.79649
-0.044635 -0.020722 0.448 -0.54031 0.28499 -0.79174
-0.044635 -0.019893 0.448 -0.57612 0.29312 -0.763
-0.044734 -0.019106 0.449 -0.59509 0.28657 -0.75083
-0.044734 -0.018276 0.449 -0.60421 0.27928 -0.74627
-0.044834 -0.017484 0.45 -0.62466 0.28498 -0.72704
-0.044934 -0.016688 0.451 -0.64729 0.30161 -0.70004
-0.045033 -0.015889 0.452 -0.69652 0.2965 -0.65341
-0.047524 0.0026475 0.477 0.55557 0.34253 -0.75764
-0.047424 0.0035227 0.476 0.45778 0.3869 -0.80047
-0.047424 0.0044033 0.476 0.51893 0.33924 -0.78462
-0.047325 0.0052729 0.475 0.37427 0.40237 -0.83547
-0.047325 0.0061517 0.475 0.37587 0.38376 -0.84348
-0.047225 0.0070157 0.474 0.28835 0.37471 -0.88116
-0.047225 0.0078927 0.474 0.3007 0.33271 -0.8938
-0.047225 0.0087697 0.474 0.26839 0.28843 -0.91912
-0.047125 0.0096263 0.473 0.23177 0.24536 -0.94132
-0.047125 0.010501 0.473 0.17996 0.21571 -0.95973
-0.047125 0.011377 0.473 0.11915 0.18605 -0.97529
-0.047125 0.012252 0.473 0.060573 0.16728 -0.98405
-0.047125 0.013127 0.473 -0.014032 0.15486 -0.98784
-0.047125 0.014002 0.473 -0.076651 0.14076 -0.98707
-0.047125 0.014877 0.473 -0.12774 0.11916 -0.98462
-0.047125 0.015752 0.473 -0.14731 0.10512 -0.98349
-0.047125 0.016627 0.473 -0.1398 0.095013 -0.98561
-0.047225 0.017539 0.474 -0.33933 0.10352 -0.93495
-0.047225 0.018416 0.474 -0.31132 0.093341 -0.94571
-0.046351 -0.15172 0.474 0.30171 0.095639 -0.94859
-0.046351 -0.15084 0.474 0.41098 0.11446 -0.90443
-0.046253 -0.14964 0.473 0.39326 0.0786 -0.91606
-0.046253 -0.14877 0.473 0.45297 0.091348 -0.88683
-0.046155 -0.14758 0.472 0.45746 0.040627 -0.8883
-0.046155 -0.14671 0.472 0.49048 0.032149 -0.87086
-0.046057 -0.14553 0.471 0.50353 -0.02172 -0.8637
-0.046057 -0.14465 0.471 0.52393 -0.037596 -0.85093
-0.045959 -0.14348 0.47 0.5435 -0.075377 -0.83602
-0.045959 -0.14261 0.47 0.5691 -0.093941 -0.81688
-0.045862 -0.14144 0.469 0.58753 -0.1286 -0.79892
-0.045764 -0.14027 0.468 0.58506 -0.17658 -0.79153
-0.045764 -0.1394 0.468 0.60097 -0.18871 -0.77667
-0.045666 -0.13824 0.467 0.59106 -0.20825 -0.77928
-0.045568 -0.13708 0.466 0.55955 -0.21838 -0.79951
-0.045568 -0.13622 0.466 0.54925 -0.24497 -0.79895
-0.04547 -0.13507 0.465 0.51283 -0.24997 -0.82129
-0.04547 -0.13421 0.465 0.49171 -0.28983 -0.82111
-0.04547 -0.13335 0.465 0.45594 -0.31452 -0.83258
-0.045373 -0.1322 0.464 0.41378 -0.33279 -0.84737
-0.045275 -0.13106 0.463 0.37921 -0.33774 -0.86147
-0.045275 -0.13021 0.463 0.38504 -0.34811 -0.85473
-0.045275 -0.12935 0.463 0.37563 -0.36649 -0.85123
-0.045275 -0.12849 0.463 0.34285 -0.39656 -0.85158
-0.045177 -0.12736 0.462 0.39936 -0.35951 -0.84337
-0.045177 -0.12651 0.462 0.34969 -0.40036 -0.84701
-0.045079 -0.12538 0.461 0.40602 -0.31456 -0.85802
-0.045079 -0.12367 0.461 0.32514 -0.40921 -0.85255
-0.044982 -0.12085 0.46 0.28563 -0.38399 -0.87805
-0.044982 -0.11915 0.46 0.25409 -0.50012 -0.82784
-0.042635 -0.1089 0.436 0.1158 0.5074 -0.85389
-0.042635 -0.10809 0.436 0.10465 0.52815 -0.84268
-0.042635 -0.10729 0.436 0.10682 0.54098 -0.83423
-0.042732 -0.10672 0.437 0.23833 0.60913 -0.75641
-0.042537 -0.10543 0.435 -0.020981 0.44069 -0.89741
-0.042537 -0.10463 0.435 0.00085518 0.42961 -0.90301
-0.042537 -0.10382 0.435 0.021264 0.40595 -0.91365
-0.042537 -0.10302 0.435 0.032249 0.3891 -0.92063
-0.042537 -0.10221 0.435 0.026464 0.35741 -0.93357
-0.042537 -0.10141 0.435 0.00066569 0.31454 -0.94924
-0.042537 -0.1006 0.435 -0.0208 0.27262 -0.9619
-0.042537 -0.099796 0.435 -0.058283 0.21044 -0.97587
-0.042537 -0.098992 0.435 -0.10857 0.14618 -0.98328
-0.042537 -0.098187 0.435 -0.13522 0.096232 -0.98613
-0.042635 -0.097606 0.436 -0.16312 0.027929 -0.98621
-0.042635 -0.096799 0.436 -0.17866 0.00054211 -0.98391
-0.042635 -0.095993 0.436 -0.17668 -0.01853 -0.98409
-0.042635 -0.095186 0.436 -0.1421 -0.017327 -0.9897
-0.042732 -0.094596 0.437 -0.25405 -0.17079 -0.95199
-0.042732 -0.093787 0.437 -0.23306 -0.1799 -0.95568
-0.042732 -0.092979 0.437 -0.22531 -0.18219 -0.9571
-0.043221 -0.080141 0.442 0.11064 -0.72798 -0.67661
-0.043124 -0.079143 0.441 0.042647 -0.63552 -0.7709
-0.043124 -0.078327 0.441 0.076086 -0.64217 -0.76278
-0.043124 -0.077512 0.441 0.11611 -0.64633 -0.75417
-0.043124 -0.076696 0.441 0.14442 -0.65183 -0.74449
-0.043124 -0.07588 0.441 0.16289 -0.65503 -0.73784
-0.043026 -0.074894 0.44 0.12341 -0.60597 -0.78586
-0.043026 -0.07408 0.44 0.13421 -0.61616 -0.7761
-0.043026 -0.073265 0.44 0.14422 -0.61762 -0.77314
-0.043026 -0.072451 0.44 0.14529 -0.61828 -0.77241
-0.043026 -0.071637 0.44 0.13585 -0.61644 -0.7756
-0.043026 -0.070823 0.44 0.11812 -0.61622 -0.77866
-0.042928 -0.06985 0.439 0.082141 -0.59742 -0.79771
-0.042928 -0.069038 0.439 0.068651 -0.59118 -0.80361
-0.042928 -0.068226 0.439 0.048666 -0.58319 -0.81088
-0.042928 -0.067414 0.439 0.025953 -0.57106 -0.8205
-0.043026 -0.066753 0.44 0.014464 -0.54895 -0.83573
-0.043026 -0.065939 0.44 0.0043393 -0.52273 -0.85248
-0.043026 -0.065125 0.44 0.0053146 -0.49289 -0.87008
-0.043026 -0.064311 0.44 0.0036221 -0.45693 -0.88949
-0.043026 -0.063497 0.44 -0.0037152 -0.40939 -0.91235
-0.043026 -0.062683 0.44 -0.0047602 -0.35413 -0.93518
-0.043026 -0.061055 0.44 0.014914 -0.21417 -0.97668
-0.043026 -0.060241 0.44 0.024183 -0.14067 -0.98976
-0.043026 -0.059426 0.44 0.031477 -0.064805 -0.9974
-0.043026 -0.058612 0.44 0.038652 0.015215 -0.99914
-0.043026 -0.057798 0.44 0.055703 0.084838 -0.99484
-0.043026 -0.056984 0.44 0.076289 0.14815 -0.98602
-0.043026 -0.05617 0.44 0.10014 0.20368 -0.9739
-0.042928 -0.05523 0.439 0.12168 0.24562 -0.9617
-0.042928 -0.054418 0.439 0.12241 0.28 -0.95216
-0.042928 -0.053606 0.439 0.12247 0.30293 -0.94511
-0.042928 -0.052794 0.439 0.12178 0.31938 -0.93977
-0.042928 -0.051981 0.439 0.12619 0.32604 -0.9369
-0.042928 -0.051169 0.439 0.11858 0.32804 -0.93719
-0.042928 -0.050357 0.439 0.10453 0.32516 -0.93987
-0.04283 -0.049432 0.438 0.096415 0.31921 -0.94277
-0.04283 -0.048622 0.438 0.089008 0.31163 -0.94603
-0.04283 -0.047811 0.438 0.08359 0.29951 -0.95042
-0.04283 -0.047001 0.438 0.070395 0.2847 -0.95603
-0.04283 -0.046191 0.438 0.060905 0.27135 -0.96055
-0.04283 -0.04538 0.438 0.040516 0.25425 -0.96629
-0.04283 -0.04457 0.438 0.016881 0.23865 -0.97096
-0.04283 -0.043759 0.438 -0.0029876 0.22742 -0.97379
-0.04283 -0.042949 0.438 -0.027948 0.21599 -0.97599
-0.04283 -0.042139 0.438 -0.053977 0.20435 -0.97741
-0.04283 -0.041328 0.438 -0.089838 0.19809 -0.97606
-0.04283 -0.040518 0.438 -0.11756 0.19274 -0.97418
-0.04283 -0.039708 0.438 -0.13038 0.18957 -0.97317
-0.04283 -0.038897 0.438 -0.14795 0.18814 -0.97093
-0.042928 -0.038174 0.439 -0.16194 0.193 -0.96774
-0.042928 -0.037362 0.439 -0.16638 0.20323 -0.96489
-0.042928 -0.036549 0.439 -0.17517 0.2225 -0.95907
-0.042928 -0.035737 0.439 -0.19228 0.2392 -0.95174
-0.042928 -0.034925 0.439 -0.19952 0.26048 -0.94464
-0.043026 -0.034191 0.44 -0.21512 0.28192 -0.93501
-0.043026 -0.033377 0.44 -0.23874 0.30089 -0.92329
-0.043026 -0.032562 0.44 -0.26715 0.32265 -0.90803
-0.043026 -0.031748 0.44 -0.29826 0.33643 -0.89323
-0.043026 -0.030934 0.44 -0.3256 0.36107 -0.87385
-0.043124 -0.030189 0.441 -0.35242 0.37661 -0.85671
-0.043124 -0.029373 0.441 -0.3879 0.39274 -0.83384
-0.043124 -0.028557 0.441 -0.41022 0.40078 -0.8192
-0.043221 -0.027804 0.442 -0.4309 0.41021 -0.80377
-0.043319 -0.027047 0.443 -0.45051 0.40758 -0.7943
-0.043319 -0.026228 0.443 -0.47586 0.40857 -0.77886
-0.043417 -0.025465 0.444 -0.48327 0.38807 -0.78476
-0.043417 -0.024644 0.444 -0.50206 0.39856 -0.76752
-0.043515 -0.023876 0.445 -0.49491 0.37475 -0.78398
-0.043613 -0.023105 0.446 -0.47313 0.32992 -0.81689
-0.043613 -0.022279 0.446 -0.51074 0.35489 -0.78307
-0.04371 -0.021502 0.447 -0.50882 0.33543 -0.79284
-0.04371 -0.020675 0.447 -0.54917 0.34445 -0.76143
-0.043808 -0.019893 0.448 -0.55901 0.33745 -0.75739
-0.043808 -0.019064 0.448 -0.58267 0.3381 -0.73904
-0.043906 -0.018276 0.449 -0.60055 0.33498 -0.72603
-0.044004 -0.017484 0.45 -0.61982 0.33404 -0.7101
-0.044101 -0.016688 0.451 -0.64133 0.34567 -0.68499
-0.044101 -0.015854 0.451 -0.6332 0.33538 -0.69755
-0.046546 0.002642 0.476 0.45183 0.42179 -0.78609
-0.046546 0.0035227 0.476 0.51663 0.35139 -0.78078
-0.046448 0.0043941 0.475 0.37446 0.43249 -0.8202
-0.046448 0.0052729 0.475 0.38788 0.40254 -0.82916
-0.046351 0.0061388 0.474 0.22606 0.43711 -0.87053
-0.046351 0.0070157 0.474 0.25071 0.40087 -0.88116
-0.046351 0.0078927 0.474 0.25001 0.35977 -0.89892
-0.046253 0.0087512 0.473 0.20996 0.32018 -0.9238
-0.046253 0.0096263 0.473 0.18602 0.27113 -0.9444
-0.046253 0.010501 0.473 0.14371 0.23855 -0.96044
-0.046253 0.011377 0.473 0.096898 0.20246 -0.97448
-0.046253 0.012252 0.473 0.045663 0.17192 -0.98405
-0.046253 0.013127 0.473 -0.0243 0.15938 -0.98692
-0.046253 0.014002 0.473 -0.085876 0.14521 -0.98567
-0.046253 0.014877 0.473 -0.14044 0.12585 -0.98206
-0.046253 0.015752 0.473 -0.16506 0.11349 -0.97973
-0.046253 0.016627 0.473 -0.15974 0.10834 -0.98119
-0.046351 0.017539 0.474 -0.36212 0.11116 -0.92548
-0.046351 0.018416 0.474 -0.3392 0.10192 -0.93518
-0.045476 -0.15172 0.474 0.31652 0.030473 -0.9481
-0.045476 -0.15084 0.474 0.40514 0.042307 -0.91327
-0.04538 -0.14964 0.473 0.38882 0.0036904 -0.92131
-0.04538 -0.14877 0.473 0.44206 0.0060803 -0.89696
-0.045284 -0.14758 0.472 0.45434 -0.032516 -0.89023
-0.045284 -0.14671 0.472 0.47525 -0.05703 -0.878
-0.045188 -0.14553 0.471 0.48898 -0.10378 -0.8661
-0.045188 -0.14465 0.471 0.50389 -0.12562 -0.85458
-0.045188 -0.14378 0.471 0.52272 -0.15734 -0.83786
-0.045092 -0.14261 0.47 0.54076 -0.18781 -0.81994
-0.044996 -0.14144 0.469 0.55499 -0.21863 -0.80261
-0.044996 -0.14057 0.469 0.56662 -0.24154 -0.78778
-0.0449 -0.1394 0.468 0.57832 -0.2601 -0.77324
-0.044804 -0.13824 0.467 0.5692 -0.26576 -0.77807
-0.044804 -0.13738 0.467 0.5575 -0.29949 -0.77428
-0.044708 -0.13622 0.466 0.52014 -0.31229 -0.79494
-0.044613 -0.13507 0.465 0.46994 -0.30248 -0.82925
-0.044613 -0.13421 0.465 0.45638 -0.34431 -0.82047
-0.044613 -0.13335 0.465 0.42909 -0.36988 -0.82406
-0.044517 -0.1322 0.464 0.39013 -0.37417 -0.8413
-0.044517 -0.13135 0.464 0.36831 -0.39982 -0.83934
-0.044421 -0.13021 0.463 0.38179 -0.37084 -0.84659
-0.044517 -0.12963 0.464 0.30576 -0.44416 -0.84216
-0.044421 -0.12849 0.463 0.35753 -0.41071 -0.83874
-0.044421 -0.12764 0.463 0.31232 -0.45132 -0.83592
-0.044325 -0.12651 0.462 0.38911 -0.35729 -0.84908
-0.044325 -0.12565 0.462 0.33086 -0.41351 -0.84826
-0.044229 -0.12111 0.461 0.25551 -0.49876 -0.82823
-0.044133 -0.11915 0.46 0.28358 -0.40518 -0.86914
-0.041926 -0.10915 0.437 0.36363 0.6097 -0.7043
-0.04183 -0.10809 0.436 0.18538 0.58426 -0.79011
-0.041926 -0.10753 0.437 0.27824 0.60857 -0.74312
-0.041734 -0.10623 0.435 0.016736 0.50211 -0.86464
-0.041734 -0.10543 0.435 -0.010517 0.47607 -0.87935
-0.041734 -0.10463 0.435 -0.013177 0.44346 -0.8962
-0.041734 -0.10382 0.435 -0.010978 0.40404 -0.91467
-0.041734 -0.10302 0.435 -0.015251 0.37123 -0.92842
-0.041734 -0.10221 0.435 -0.027807 0.32812 -0.94423
-0.041734 -0.10141 0.435 -0.055335 0.27591 -0.95959
-0.041734 -0.1006 0.435 -0.082968 0.22529 -0.97075
-0.041734 -0.099796 0.435 -0.10669 0.16832 -0.97994
-0.041734 -0.098992 0.435 -0.15005 0.1089 -0.98266
-0.041734 -0.098187 0.435 -0.1666 0.069163 -0.9836
-0.04183 -0.097606 0.436 -0.19999 -0.0049931 -0.97979
-0.04183 -0.096799 0.436 -0.2104 -0.021664 -0.97738
-0.04183 -0.095993 0.436 -0.19513 -0.022658 -0.98052
-0.04183 -0.095186 0.436 -0.148 -0.0042742 -0.98898
-0.041926 -0.094596 0.437 -0.28098 -0.1629 -0.94579
-0.041926 -0.093787 0.437 -0.2508 -0.14989 -0.95636
-0.042406 -0.080141 0.442 0.060868 -0.675 -0.7353
-0.042406 -0.079323 0.442 0.080082 -0.68007 -0.72876
-0.042406 -0.078505 0.442 0.10442 -0.68569 -0.72037
-0.042406 -0.077687 0.442 0.14487 -0.68631 -0.71274
-0.042406 -0.07687 0.442 0.17511 -0.6876 -0.70465
-0.04231 -0.07588 0.441 0.12178 -0.61738 -0.77718
-0.04231 -0.075064 0.441 0.14543 -0.62644 -0.76579
-0.04231 -0.074248 0.441 0.1584 -0.6352 -0.75593
-0.04231 -0.073432 0.441 0.16828 -0.63442 -0.75445
-0.04231 -0.072616 0.441 0.16517 -0.63014 -0.75871
-0.042214 -0.071637 0.44 0.12495 -0.60076 -0.7896
-0.042214 -0.070823 0.44 0.11719 -0.60007 -0.79132
-0.042214 -0.070009 0.44 0.10848 -0.59686 -0.79498
-0.042214 -0.069195 0.44 0.096129 -0.58427 -0.80584
-0.042214 -0.068381 0.44 0.079152 -0.56915 -0.81842
-0.042214 -0.067567 0.44 0.056305 -0.54277 -0.83799
-0.042214 -0.066753 0.44 0.048958 -0.51002 -0.85877
-0.042214 -0.065939 0.44 0.049351 -0.46978 -0.8814
-0.042214 -0.065125 0.44 0.057946 -0.42468 -0.90349
-0.042214 -0.064311 0.44 0.064968 -0.37465 -0.92489
-0.042214 -0.063497 0.44 0.060867 -0.30927 -0.94902
-0.042214 -0.062683 0.44 0.06698 -0.24361 -0.96756
-0.042214 -0.061869 0.44 0.072031 -0.1706 -0.9827
-0.042214 -0.061055 0.44 0.084898 -0.084663 -0.99279
-0.042214 -0.060241 0.44 0.10028 -0.0060605 -0.99494
-0.042214 -0.059426 0.44 0.10604 0.068482 -0.992
-0.042214 -0.058612 0.44 0.11024 0.13692 -0.98443
-0.042214 -0.057798 0.44 0.11796 0.19474 -0.97373
-0.042118 -0.056855 0.439 0.12958 0.23985 -0.96212
-0.042118 -0.056043 0.439 0.13958 0.27936 -0.94999
-0.042118 -0.05523 0.439 0.14858 0.30876 -0.93946
-0.042118 -0.054418 0.439 0.14022 0.32626 -0.93482
-0.042118 -0.053606 0.439 0.13409 0.33667 -0.93203
-0.042022 -0.052673 0.438 0.12564 0.34359 -0.93068
-0.042118 -0.051981 0.439 0.12087 0.33976 -0.93271
-0.042022 -0.051053 0.438 0.11002 0.33582 -0.93548
-0.042022 -0.050242 0.438 0.093229 0.32875 -0.9398
-0.042022 -0.049432 0.438 0.083043 0.31873 -0.9442
-0.042022 -0.048622 0.438 0.074696 0.30763 -0.94857
-0.042022 -0.047811 0.438 0.069227 0.29364 -0.9534
-0.042022 -0.047001 0.438 0.056897 0.27685 -0.95923
-0.042022 -0.046191 0.438 0.049265 0.26333 -0.96345
-0.042022 -0.04538 0.438 0.031695 0.24693 -0.96851
-0.042022 -0.04457 0.438 0.011925 0.23586 -0.97171
-0.042022 -0.043759 0.438 -0.002987 0.22837 -0.97357
-0.042022 -0.042949 0.438 -0.027923 0.21979 -0.97515
-0.042022 -0.042139 0.438 -0.053865 0.21387 -0.97538
-0.042022 -0.041328 0.438 -0.084695 0.20867 -0.97431
-0.042022 -0.040518 0.438 -0.1084 0.20629 -0.97247
-0.042022 -0.039708 0.438 -0.11819 0.207 -0.97117
-0.042022 -0.038897 0.438 -0.13365 0.21226 -0.96803
-0.042118 -0.038174 0.439 -0.14644 0.22542 -0.96319
-0.042118 -0.037362 0.439 -0.14594 0.2393 -0.95992
-0.042118 -0.036549 0.439 -0.15163 0.26366 -0.95262
-0.042118 -0.035737 0.439 -0.1675 0.28608 -0.94345
-0.042118 -0.034925 0.439 -0.17076 0.31108 -0.93492
-0.042118 -0.034113 0.439 -0.18559 0.33633 -0.92328
-0.042118 -0.033301 0.439 -0.21532 0.3554 -0.90958
-0.042214 -0.032562 0.44 -0.2411 0.37835 -0.89371
-0.042214 -0.031748 0.44 -0.27596 0.39276 -0.87726
-0.042214 -0.030934 0.44 -0.30346 0.4174 -0.85656
-0.042214 -0.03012 0.44 -0.33239 0.43431 -0.83719
-0.04231 -0.029373 0.441 -0.37063 0.44634 -0.8145
-0.04231 -0.028557 0.441 -0.39216 0.45814 -0.7977
-0.042406 -0.027804 0.442 -0.40909 0.45848 -0.78895
-0.042406 -0.026986 0.442 -0.43668 0.46682 -0.76902
-0.042502 -0.026228 0.443 -0.45643 0.4558 -0.76415
-0.042502 -0.025408 0.443 -0.47728 0.45671 -0.75074
-0.042598 -0.024644 0.444 -0.48748 0.43967 -0.75435
-0.042598 -0.023822 0.444 -0.49889 0.44288 -0.74496
-0.042694 -0.023053 0.445 -0.4943 0.42 -0.7611
-0.042694 -0.022229 0.445 -0.52029 0.42334 -0.74167
-0.04279 -0.021454 0.446 -0.51764 0.39285 -0.76007
-0.042886 -0.020675 0.447 -0.53306 0.37295 -0.75944
-0.042886 -0.019848 0.447 -0.55821 0.38335 -0.73583
-0.042982 -0.019064 0.448 -0.57311 0.36875 -0.73183
-0.043077 -0.018276 0.449 -0.59177 0.35877 -0.72186
-0.043173 -0.017484 0.45 -0.60518 0.34446 -0.71771
-0.043173 -0.016651 0.45 -0.61808 0.36115 -0.69824
-0.043269 -0.015854 0.451 -0.64637 0.36801 -0.66841
-0.043365 -0.015053 0.452 -0.67511 0.37383 -0.63598
-0.043365 -0.014216 0.452 -0.62079 0.34522 -0.70387
-0.045572 0.0026364 0.475 0.33933 0.51294 -0.78851
-0.045572 0.0035153 0.475 0.39708 0.45427 -0.79747
-0.045476 0.0043848 0.474 0.20491 0.50567 -0.83804
-0.045476 0.0052618 0.474 0.22508 0.47768 -0.84921
-0.045476 0.0061388 0.474 0.22364 0.44844 -0.86538
-0.045476 0.0070157 0.474 0.22336 0.41329 -0.88278
-0.04538 0.007876 0.473 0.16201 0.40213 -0.90114
-0.04538 0.0087512 0.473 0.14685 0.35565 -0.92301
-0.04538 0.0096263 0.473 0.13509 0.29887 -0.94468
-0.04538 0.010501 0.473 0.10099 0.25857 -0.9607
-0.04538 0.011377 0.473 0.061711 0.22412 -0.97261
-0.045284 0.012226 0.472 0.016785 0.18505 -0.98259
-0.045284 0.013099 0.472 -0.043914 0.16958 -0.98454
-0.04538 0.014002 0.473 -0.098729 0.1514 -0.98353
-0.04538 0.014877 0.473 -0.15428 0.12638 -0.97991
-0.04538 0.015752 0.473 -0.18033 0.11723 -0.9766
-0.04538 0.016627 0.473 -0.18221 0.111 -0.97697
-0.04538 0.017502 0.473 -0.14804 0.10266 -0.98364
-0.045476 0.018416 0.474 -0.36187 0.1069 -0.92608
-0.044601 -0.15172 0.474 0.31128 -0.05774 -0.94856
-0.044601 -0.15084 0.474 0.38375 -0.043524 -0.92241
-0.044507 -0.14964 0.473 0.37346 -0.079923 -0.9242
-0.044507 -0.14877 0.473 0.4171 -0.080153 -0.90532
-0.044507 -0.14789 0.473 0.44031 -0.098606 -0.89242
-0.044413 -0.14671 0.472 0.45132 -0.1336 -0.88231
-0.044413 -0.14584 0.472 0.46346 -0.17352 -0.86896
-0.044319 -0.14465 0.471 0.47108 -0.20273 -0.85848
-0.044319 -0.14378 0.471 0.48836 -0.22993 -0.84181
-0.044225 -0.14261 0.47 0.507 -0.25866 -0.82222
-0.044225 -0.14174 0.47 0.5174 -0.27385 -0.81074
-0.044131 -0.14057 0.469 0.54002 -0.29998 -0.78638
-0.044131 -0.1397 0.469 0.54664 -0.31189 -0.77711
-0.044037 -0.13854 0.468 0.55599 -0.3244 -0.76528
-0.043943 -0.13738 0.467 0.54204 -0.3254 -0.77479
-0.043943 -0.13651 0.467 0.51867 -0.36151 -0.77479
-0.043849 -0.13536 0.466 0.49332 -0.36232 -0.7908
-0.043849 -0.1345 0.466 0.4613 -0.39578 -0.79408
-0.043755 -0.13335 0.465 0.42243 -0.37512 -0.82513
-0.043755 -0.13249 0.465 0.38295 -0.41699 -0.8243
-0.043661 -0.13135 0.464 0.37305 -0.38307 -0.84504
-0.043661 -0.13049 0.464 0.35687 -0.41318 -0.83781
-0.043661 -0.12963 0.464 0.32271 -0.44849 -0.83349
-0.043566 -0.12849 0.463 0.39945 -0.37079 -0.83842
-0.043566 -0.12764 0.463 0.35842 -0.41788 -0.83482
-0.043566 -0.12678 0.463 0.29775 -0.46605 -0.83315
-0.043472 -0.1248 0.462 0.35522 -0.38094 -0.85364
-0.040932 -0.10945 0.435 0.13638 0.49347 -0.85901
-0.041026 -0.1089 0.436 0.27425 0.60271 -0.74935
-0.041026 -0.10809 0.436 0.2213 0.60862 -0.76198
-0.040838 -0.10679 0.434 -0.056199 0.42053 -0.90554
-0.040838 -0.10599 0.434 -0.048716 0.42508 -0.90385
-0.040838 -0.10519 0.434 -0.076507 0.40141 -0.9127
-0.040838 -0.10438 0.434 -0.073607 0.37317 -0.92484
-0.040838 -0.10358 0.434 -0.069985 0.33276 -0.94041
-0.040838 -0.10278 0.434 -0.078659 0.29502 -0.95225
-0.040838 -0.10198 0.434 -0.10334 0.24804 -0.96322
-0.040932 -0.10141 0.435 -0.11741 0.22921 -0.96627
-0.040932 -0.1006 0.435 -0.14534 0.17693 -0.97343
-0.040932 -0.099796 0.435 -0.16364 0.11966 -0.97924
-0.040932 -0.098992 0.435 -0.18758 0.069897 -0.97976
-0.040932 -0.098187 0.435 -0.18903 0.046431 -0.98087
-0.041026 -0.097606 0.436 -0.22978 -0.030033 -0.97278
-0.041026 -0.096799 0.436 -0.23822 -0.038438 -0.97045
-0.041026 -0.095993 0.436 -0.21505 -0.025202 -0.97628
-0.04112 -0.095404 0.437 -0.3393 -0.15215 -0.92829
-0.04112 -0.094596 0.437 -0.30064 -0.14105 -0.94325
-0.041685 -0.077863 0.443 0.17749 -0.71756 -0.6735
-0.041685 -0.077043 0.443 0.20453 -0.72321 -0.65965
-0.04159 -0.076052 0.442 0.15293 -0.63858 -0.7542
-0.04159 -0.075234 0.442 0.17611 -0.64648 -0.74232
-0.04159 -0.074416 0.442 0.19667 -0.64839 -0.73547
-0.041496 -0.073432 0.441 0.13595 -0.58666 -0.79834
-0.041496 -0.072616 0.441 0.14439 -0.5927 -0.79238
-0.041496 -0.0718 0.441 0.14884 -0.58943 -0.79399
-0.041496 -0.070984 0.441 0.1429 -0.583 -0.79981
-0.041496 -0.070168 0.441 0.13372 -0.57384 -0.80798
-0.041496 -0.069352 0.441 0.1253 -0.55324 -0.82354
-0.041496 -0.068537 0.441 0.11695 -0.52419 -0.84353
-0.041496 -0.067721 0.441 0.10191 -0.49148 -0.86491
-0.041496 -0.066905 0.441 0.099103 -0.45102 -0.88699
-0.041496 -0.066089 0.441 0.10465 -0.39713 -0.91178
-0.041496 -0.065273 0.441 0.11837 -0.34184 -0.93227
-0.041496 -0.064457 0.441 0.13058 -0.27587 -0.95228
-0.041496 -0.063641 0.441 0.13026 -0.1978 -0.97155
-0.041496 -0.062825 0.441 0.13871 -0.1244 -0.98249
-0.041402 -0.061869 0.44 0.14491 -0.043152 -0.9885
-0.041402 -0.061055 0.44 0.15573 0.042081 -0.9869
-0.041402 -0.060241 0.44 0.16651 0.11434 -0.97939
-0.041402 -0.059426 0.44 0.16702 0.17247 -0.97075
-0.041402 -0.058612 0.44 0.16604 0.22792 -0.95942
-0.041308 -0.057667 0.439 0.16433 0.27473 -0.94737
-0.041308 -0.056855 0.439 0.16749 0.30351 -0.93799
-0.041308 -0.056043 0.439 0.16593 0.33 -0.92928
-0.041308 -0.05523 0.439 0.16612 0.34167 -0.92502
-0.041214 -0.054294 0.438 0.15235 0.34727 -0.92531
-0.041214 -0.053484 0.438 0.1337 0.34988 -0.92721
-0.041214 -0.052673 0.438 0.11711 0.34562 -0.93104
-0.041214 -0.051863 0.438 0.10995 0.33752 -0.93488
-0.041214 -0.051053 0.438 0.097098 0.32692 -0.94005
-0.041214 -0.050242 0.438 0.079278 0.31623 -0.94536
-0.041214 -0.049432 0.438 0.069007 0.30337 -0.95037
-0.041214 -0.048622 0.438 0.061545 0.28934 -0.95525
-0.041214 -0.047811 0.438 0.057922 0.27412 -0.95995
-0.041214 -0.047001 0.438 0.048381 0.256 -0.96546
-0.041214 -0.046191 0.438 0.044593 0.2431 -0.96898
-0.041214 -0.04538 0.438 0.031845 0.22825 -0.97308
-0.041214 -0.04457 0.438 0.011979 0.21701 -0.9761
-0.041214 -0.043759 0.438 -0.0030006 0.20846 -0.97803
-0.041214 -0.042949 0.438 -0.028029 0.20265 -0.97885
-0.041214 -0.042139 0.438 -0.053999 0.20243 -0.97781
-0.041214 -0.041328 0.438 -0.084799 0.20295 -0.97551
-0.041214 -0.040518 0.438 -0.10357 0.20259 -0.97377
-0.041214 -0.039708 0.438 -0.10939 0.20627 -0.97236
-0.041214 -0.038897 0.438 -0.12182 0.21729 -0.96847
-0.041214 -0.038087 0.438 -0.13282 0.23842 -0.96204
-0.041308 -0.037362 0.439 -0.13084 0.25902 -0.95697
-0.041308 -0.036549 0.439 -0.13168 0.28677 -0.94891
-0.041308 -0.035737 0.439 -0.14461 0.31325 -0.93859
-0.041308 -0.034925 0.439 -0.1423 0.33962 -0.92973
-0.041308 -0.034113 0.439 -0.1545 0.36604 -0.91769
-0.041308 -0.033301 0.439 -0.18424 0.38858 -0.90281
-0.041308 -0.032488 0.439 -0.21372 0.40819 -0.88753
-0.041402 -0.031748 0.44 -0.24794 0.42652 -0.86983
-0.041402 -0.030934 0.44 -0.27278 0.45452 -0.84794
-0.041402 -0.03012 0.44 -0.30132 0.47506 -0.82676
-0.041402 -0.029306 0.44 -0.3357 0.48288 -0.80879
-0.041402 -0.028492 0.44 -0.35538 0.48614 -0.79836
-0.041496 -0.027741 0.441 -0.39152 0.50412 -0.76979
-0.041496 -0.026925 0.441 -0.41108 0.50285 -0.76037
-0.04159 -0.026168 0.442 -0.44929 0.5042 -0.73751
-0.041685 -0.025408 0.443 -0.46473 0.48307 -0.74207
-0.041685 -0.024588 0.443 -0.48988 0.49049 -0.72072
-0.041685 -0.023769 0.443 -0.49446 0.48534 -0.72108
-0.041779 -0.023001 0.444 -0.51008 0.47595 -0.71644
-0.041873 -0.022229 0.445 -0.51321 0.44543 -0.73362
-0.041873 -0.021406 0.445 -0.52726 0.447 -0.72263
-0.041967 -0.020629 0.446 -0.54053 0.42179 -0.72796
-0.041967 -0.019804 0.446 -0.54979 0.41327 -0.72591
-0.042061 -0.019021 0.447 -0.56798 0.40173 -0.71834
-0.042155 -0.018235 0.448 -0.58941 0.39307 -0.70576
-0.042249 -0.017445 0.449 -0.60372 0.38634 -0.69732
-0.042343 -0.016651 0.45 -0.6174 0.39221 -0.68191
-0.042343 -0.015819 0.45 -0.61599 0.37211 -0.69432
-0.042437 -0.015019 0.451 -0.63348 0.38179 -0.67301
-0.042531 -0.014216 0.452 -0.65045 0.39253 -0.65026
-0.042531 -0.01338 0.452 -0.58759 0.32956 -0.73901
-0.044601 0.0035079 0.474 0.25087 0.53207 -0.80868
-0.044601 0.0043848 0.474 0.26721 0.49702 -0.82557
-0.044601 0.0052618 0.474 0.25808 0.47069 -0.84371
-0.044507 0.0061258 0.473 0.08743 0.51044 -0.85545
-0.044507 0.0070009 0.473 0.12828 0.47326 -0.87153
-0.044507 0.007876 0.473 0.11399 0.43201 -0.89464
-0.044507 0.0087512 0.473 0.087032 0.38448 -0.91902
-0.044507 0.0096263 0.473 0.085584 0.32628 -0.94139
-0.044413 0.010479 0.472 0.058137 0.28354 -0.9572
-0.044413 0.011352 0.472 0.024835 0.24491 -0.96923
-0.044413 0.012226 0.472 -0.014875 0.20026 -0.97963
-0.044413 0.013099 0.472 -0.0717 0.17922 -0.98119
-0.044413 0.013972 0.472 -0.12088 0.15949 -0.97977
-0.044507 0.014877 0.473 -0.17828 0.13277 -0.97498
-0.044507 0.015752 0.473 -0.20215 0.12399 -0.97147
-0.044507 0.016627 0.473 -0.20336 0.11231 -0.97264
-0.044507 0.017502 0.473 -0.17335 0.10519 -0.97923
-0.044601 0.018416 0.474 -0.38074 0.11172 -0.91791
-0.044601 0.019293 0.474 -0.33312 0.10045 -0.93752
-0.043727 -0.15172 0.474 0.29092 -0.13607 -0.94702
-0.043727 -0.15084 0.474 0.35327 -0.12675 -0.92689
-0.043635 -0.14964 0.473 0.34567 -0.16143 -0.92437
-0.043635 -0.14877 0.473 0.3874 -0.16082 -0.90777
-0.043635 -0.14789 0.473 0.40588 -0.17697 -0.89663
-0.043542 -0.14671 0.472 0.4186 -0.2083 -0.88396
-0.043542 -0.14584 0.472 0.43206 -0.24174 -0.86884
-0.043542 -0.14496 0.472 0.44288 -0.2658 -0.85628
-0.04345 -0.14378 0.471 0.45971 -0.2905 -0.83921
-0.04345 -0.14291 0.471 0.4657 -0.30653 -0.83016
-0.043358 -0.14174 0.47 0.49411 -0.329 -0.80475
-0.043358 -0.14087 0.47 0.49736 -0.33981 -0.79823
-0.043266 -0.1397 0.469 0.53214 -0.35139 -0.7703
-0.043173 -0.13854 0.468 0.54317 -0.34273 -0.76649
-0.043173 -0.13767 0.468 0.52809 -0.37321 -0.76278
-0.043081 -0.13651 0.467 0.51337 -0.36674 -0.77586
-0.042989 -0.13536 0.466 0.49008 -0.32487 -0.80888
-0.042989 -0.1345 0.466 0.4585 -0.38564 -0.80066
-0.042897 -0.13335 0.465 0.42653 -0.32451 -0.84425
-0.042897 -0.13249 0.465 0.392 -0.38669 -0.83475
-0.042897 -0.13163 0.465 0.35474 -0.44251 -0.82362
-0.042897 -0.13077 0.465 0.3085 -0.49312 -0.81343
-0.042804 -0.12963 0.464 0.36312 -0.40629 -0.83849
-0.042804 -0.12877 0.464 0.32374 -0.46068 -0.82642
-0.042712 -0.12764 0.463 0.41875 -0.35144 -0.83734
-0.042712 -0.12678 0.463 0.36059 -0.40111 -0.84207
-0.040221 -0.11051 0.436 0.37052 0.58584 -0.72077
-0.040221 -0.10971 0.436 0.34409 0.59995 -0.72226
-0.040037 -0.1084 0.434 0.024495 0.44554 -0.89493
-0.040037 -0.1076 0.434 -0.0012948 0.45085 -0.8926
-0.040037 -0.10679 0.434 -0.032746 0.44396 -0.89545
-0.040037 -0.10599 0.434 -0.052527 0.42529 -0.90353
-0.040037 -0.10519 0.434 -0.09463 0.39117 -0.91544
-0.040037 -0.10438 0.434 -0.10047 0.35546 -0.92928
-0.040037 -0.10358 0.434 -0.1091 0.30675 -0.94552
-0.040037 -0.10278 0.434 -0.11971 0.25849 -0.95857
-0.040037 -0.10198 0.434 -0.14977 0.20412 -0.96742
-0.040129 -0.10141 0.435 -0.18506 0.14863 -0.97142
-0.040129 -0.1006 0.435 -0.2056 0.10181 -0.97333
-0.040129 -0.099796 0.435 -0.20689 0.057096 -0.9767
-0.040129 -0.098992 0.435 -0.21134 0.029096 -0.97698
-0.040221 -0.098413 0.436 -0.26787 -0.044922 -0.96241
-0.040221 -0.097606 0.436 -0.25647 -0.05793 -0.96481
-0.040221 -0.096799 0.436 -0.25724 -0.052719 -0.96491
-0.040221 -0.095993 0.436 -0.21446 -0.026978 -0.97636
-0.040314 -0.095404 0.437 -0.35944 -0.15257 -0.92061
-0.040314 -0.094596 0.437 -0.30967 -0.12278 -0.94288
-0.040867 -0.077043 0.443 0.1508 -0.65708 -0.73859
-0.040867 -0.076224 0.443 0.18513 -0.66767 -0.72107
-0.040867 -0.075404 0.443 0.219 -0.67188 -0.70754
-0.040867 -0.074585 0.443 0.24656 -0.67199 -0.69831
-0.040775 -0.073599 0.442 0.17739 -0.60173 -0.77875
-0.040775 -0.072781 0.442 0.1886 -0.60172 -0.77612
-0.040775 -0.071963 0.442 0.20067 -0.59182 -0.7807
-0.040775 -0.071145 0.442 0.19722 -0.57652 -0.79292
-0.040775 -0.070327 0.442 0.19048 -0.55493 -0.8098
-0.040775 -0.06951 0.442 0.1781 -0.5273 -0.83081
-0.040775 -0.068692 0.442 0.16943 -0.48489 -0.85801
-0.040683 -0.067721 0.441 0.15355 -0.44146 -0.88404
-0.040683 -0.066905 0.441 0.15258 -0.38454 -0.91041
-0.040683 -0.066089 0.441 0.16395 -0.32037 -0.933
-0.040683 -0.065273 0.441 0.18252 -0.2504 -0.95078
-0.040683 -0.064457 0.441 0.19793 -0.17393 -0.96466
-0.040683 -0.063641 0.441 0.19919 -0.091906 -0.97564
-0.040683 -0.062825 0.441 0.20762 -0.019813 -0.97801
-0.04059 -0.061869 0.44 0.21249 0.059412 -0.97536
-0.04059 -0.061055 0.44 0.22034 0.13341 -0.96626
-0.04059 -0.060241 0.44 0.2226 0.19678 -0.95484
-0.04059 -0.059426 0.44 0.21587 0.2393 -0.94664
-0.040498 -0.058479 0.439 0.2039 0.27971 -0.93818
-0.040498 -0.057667 0.439 0.19205 0.30813 -0.93176
-0.040498 -0.056855 0.439 0.18725 0.32537 -0.92686
-0.040498 -0.056043 0.439 0.18092 0.33828 -0.92349
-0.040406 -0.055105 0.438 0.17012 0.34212 -0.92413
-0.040406 -0.054294 0.438 0.1489 0.34331 -0.92735
-0.040406 -0.053484 0.438 0.1229 0.34204 -0.93161
-0.040406 -0.052673 0.438 0.10451 0.33179 -0.93755
-0.040406 -0.051863 0.438 0.10103 0.32337 -0.94087
-0.040406 -0.051053 0.438 0.091887 0.31155 -0.94578
-0.040406 -0.050242 0.438 0.077727 0.3023 -0.95004
-0.040406 -0.049432 0.438 0.071208 0.29183 -0.95382
-0.040406 -0.048622 0.438 0.067569 0.28027 -0.95754
-0.040314 -0.047702 0.437 0.06793 0.26999 -0.96046
-0.040314 -0.046894 0.437 0.057274 0.26194 -0.96338
-0.040406 -0.046191 0.438 0.047408 0.2551 -0.96575
-0.040314 -0.045277 0.437 0.028781 0.24842 -0.96823
-0.040314 -0.044468 0.437 0.0079562 0.24199 -0.97025
-0.040314 -0.04366 0.437 -0.0089613 0.23731 -0.97139
-0.040406 -0.042949 0.438 -0.030808 0.23389 -0.97177
-0.040406 -0.042139 0.438 -0.053539 0.23927 -0.96948
-0.040406 -0.041328 0.438 -0.081013 0.24532 -0.96605
-0.040406 -0.040518 0.438 -0.096519 0.25143 -0.96305
-0.040406 -0.039708 0.438 -0.099145 0.26235 -0.95987
-0.040406 -0.038897 0.438 -0.10354 0.27761 -0.9551
-0.040406 -0.038087 0.438 -0.11339 0.29862 -0.94761
-0.040406 -0.037277 0.438 -0.11258 0.31953 -0.94087
