-0.021956 -0.031452 0.425 -0.22803 -0.12284 -0.96587
-0.021956 -0.030666 0.425 -0.19868 -0.12766 -0.97171
-0.022007 -0.02995 0.426 -0.1578 -0.11416 -0.98085
-0.022007 -0.029162 0.426 -0.078225 -0.09985 -0.99192
-0.022007 -0.028374 0.426 0.0020952 -0.085667 -0.99632
-0.022007 -0.027586 0.426 0.065932 -0.070968 -0.9953
-0.022007 -0.026797 0.426 0.13529 -0.045665 -0.98975
-0.022007 -0.026009 0.426 0.18795 -0.0092686 -0.98213
-0.021956 -0.025162 0.425 0.23066 0.02658 -0.97267
-0.021956 -0.024376 0.425 0.25909 0.059779 -0.964
-0.021956 -0.023589 0.425 0.26693 0.091756 -0.95934
-0.021956 -0.022803 0.425 0.25862 0.11989 -0.95851
-0.021904 -0.021965 0.424 0.23345 0.1498 -0.96076
-0.021904 -0.02118 0.424 0.19099 0.17009 -0.96674
-0.021904 -0.020396 0.424 0.16861 0.18955 -0.96729
-0.021904 -0.019611 0.424 0.13204 0.20926 -0.9689
-0.021904 -0.018827 0.424 0.088184 0.22394 -0.97061
-0.021904 -0.018043 0.424 0.041055 0.23336 -0.97152
-0.021904 -0.017258 0.424 -0.020569 0.22769 -0.97352
-0.021904 -0.016474 0.424 -0.073965 0.22128 -0.9724
-0.021904 -0.015689 0.424 -0.11971 0.21835 -0.9685
-0.021904 -0.014905 0.424 -0.18956 0.20824 -0.95953
-0.021904 -0.01412 0.424 -0.23881 0.20213 -0.9498
-0.021904 -0.013336 0.424 -0.29491 0.1885 -0.93675
-0.021956 -0.012581 0.425 -0.34121 0.18128 -0.92234
-0.021956 -0.011795 0.425 -0.37797 0.16933 -0.9102
-0.021956 -0.011008 0.425 -0.40967 0.16228 -0.89768
-0.022007 -0.010246 0.426 -0.42852 0.15675 -0.88983
-0.022007 -0.0094579 0.426 -0.44337 0.14831 -0.88398
-0.022007 -0.0086698 0.426 -0.4592 0.15234 -0.87517
-0.022059 -0.0079001 0.427 -0.46628 0.16106 -0.86985
-0.022059 -0.0071101 0.427 -0.46879 0.16521 -0.86772
-0.022111 -0.0063349 0.428 -0.47964 0.17499 -0.85984
-0.022111 -0.005543 0.428 -0.48855 0.1817 -0.85341
-0.022162 -0.0047623 0.429 -0.50263 0.19137 -0.84306
-0.022162 -0.0039685 0.429 -0.50721 0.19077 -0.84044
-0.022162 -0.0031748 0.429 -0.50291 0.20131 -0.84057
-0.022214 -0.0023867 0.43 -0.50526 0.20137 -0.83915
-0.022266 -0.0015948 0.431 -0.50733 0.19157 -0.84019
-0.022266 -0.00079741 0.431 -0.5075 0.18989 -0.84047
-0.022317 0 0.432 -0.5124 0.17641 -0.84043
-0.022317 0.00079926 0.432 -0.5252 0.15236 -0.83723
-0.022317 0.0015985 0.432 -0.54525 0.13015 -0.82811
-0.022369 0.0024033 0.433 -0.55724 0.10536 -0.82364
-0.022421 0.0032118 0.434 -0.58579 0.082978 -0.8062
-0.022421 0.0040148 0.434 -0.61306 0.072068 -0.78674
-0.022472 0.0048289 0.435 -0.63095 0.069823 -0.77268
-0.022524 0.0056466 0.436 -0.64326 0.056325 -0.76357
-0.022576 0.0064681 0.437 -0.65511 0.040791 -0.75443
-0.022576 0.0072766 0.437 -0.67597 0.036865 -0.73601
-0.022627 0.0081036 0.438 -0.67917 0.014968 -0.73382
-0.022627 0.008914 0.438 -0.67636 0.011267 -0.73648
-0.022679 0.0097465 0.439 -0.66681 0.0090988 -0.74517
-0.022731 0.010583 0.44 -0.65432 0.009212 -0.75616
-0.022782 0.011423 0.441 -0.64314 0.012408 -0.76564
-0.022782 0.012239 0.441 -0.62965 0.010229 -0.77682
-0.022834 0.013084 0.442 -0.6211 0.0023761 -0.78373
-0.022886 0.013933 0.443 -0.62023 -0.0063275 -0.7844
-0.022886 0.014753 0.443 -0.60681 -0.0084618 -0.7948
-0.022937 0.015608 0.444 -0.64008 -0.023779 -0.76794
-0.022937 0.016429 0.444 -0.60525 -0.031757 -0.7954
-0.022989 0.01729 0.445 -0.65793 -0.031395 -0.75242
-0.023041 0.018154 0.446 -0.69193 -0.034851 -0.72113
-0.023144 0.019064 0.448 -0.83068 0.04833 -0.55465
-0.023196 0.019937 0.449 -0.85417 0.03832 -0.51858
-0.023299 0.02086 0.451 -0.80018 -0.0035521 -0.59975
-0.023402 0.021791 0.453 -0.70097 -0.032185 -0.71246
-0.022268 -0.076912 0.447 0.94646 0.063537 -0.31651
-0.022168 -0.075745 0.445 0.91852 -0.069956 -0.38913
-0.022068 -0.074585 0.443 0.88418 -0.13957 -0.4458
-0.021969 -0.073432 0.441 0.86536 -0.11591 -0.48756
-0.021919 -0.072451 0.44 0.86355 -0.16989 -0.47479
-0.021869 -0.071475 0.439 0.83041 -0.23888 -0.50335
-0.021819 -0.070501 0.438 0.8218 -0.24241 -0.51564
-0.02167 -0.069214 0.435 0.7576 -0.060824 -0.64988
-0.02162 -0.068252 0.434 0.73459 -0.049608 -0.6767
-0.02157 -0.067293 0.433 0.70022 -0.051747 -0.71205
-0.02152 -0.066339 0.432 0.66627 -0.044666 -0.74437
-0.02147 -0.065388 0.431 0.62433 -0.056194 -0.77914
-0.02147 -0.06459 0.431 0.65665 -0.074495 -0.75051
-0.021421 -0.063645 0.43 0.61905 -0.083429 -0.78091
-0.021421 -0.062849 0.43 0.59884 -0.095814 -0.79511
-0.021371 -0.061909 0.429 0.5661 -0.093804 -0.81898
-0.021371 -0.061116 0.429 0.52774 -0.097524 -0.84379
-0.021321 -0.060181 0.428 0.49764 -0.10159 -0.86141
-0.021321 -0.059389 0.428 0.47515 -0.10935 -0.87308
-0.021271 -0.058461 0.427 0.45017 -0.12033 -0.8848
-0.021271 -0.057671 0.427 0.42035 -0.12688 -0.89845
-0.021271 -0.056881 0.427 0.3962 -0.15065 -0.90572
-0.021221 -0.055959 0.426 0.37299 -0.15818 -0.91425
-0.021221 -0.055171 0.426 0.35985 -0.16933 -0.91751
-0.021221 -0.054383 0.426 0.3383 -0.17547 -0.92453
-0.021172 -0.053469 0.425 0.32832 -0.19431 -0.92436
-0.021172 -0.052683 0.425 0.32695 -0.20184 -0.92324
-0.021172 -0.051896 0.425 0.32003 -0.20141 -0.92575
-0.021122 -0.05099 0.424 0.30862 -0.19799 -0.93035
-0.021122 -0.050205 0.424 0.29936 -0.18917 -0.9352
-0.021122 -0.049421 0.424 0.28438 -0.18245 -0.94119
-0.021122 -0.048636 0.424 0.27291 -0.17346 -0.94627
-0.021072 -0.047739 0.423 0.26106 -0.16082 -0.95183
-0.021072 -0.046957 0.423 0.24537 -0.15167 -0.95749
-0.021072 -0.046174 0.423 0.21859 -0.1477 -0.96458
-0.021072 -0.045391 0.423 0.18242 -0.13977 -0.97324
-0.021072 -0.044609 0.423 0.13936 -0.12653 -0.98212
-0.021022 -0.043722 0.422 0.078857 -0.11219 -0.99055
-0.021022 -0.042942 0.422 0.024265 -0.10731 -0.99393
-0.021022 -0.042161 0.422 -0.031644 -0.10729 -0.99372
-0.021022 -0.04138 0.422 -0.091365 -0.11311 -0.98937
-0.021072 -0.040696 0.423 -0.14458 -0.11929 -0.98228
-0.021072 -0.039913 0.423 -0.18614 -0.10828 -0.97654
-0.021072 -0.03913 0.423 -0.21584 -0.1066 -0.97059
-0.021072 -0.038348 0.423 -0.24192 -0.11095 -0.96393
-0.021072 -0.037565 0.423 -0.25708 -0.11451 -0.95958
-0.021122 -0.03687 0.424 -0.25457 -0.11631 -0.96003
-0.021122 -0.036085 0.424 -0.25475 -0.11032 -0.96069
-0.021122 -0.035301 0.424 -0.26681 -0.11691 -0.95663
-0.021122 -0.034516 0.424 -0.27596 -0.12253 -0.95333
-0.021172 -0.033811 0.425 -0.27537 -0.12227 -0.95353
-0.021172 -0.033025 0.425 -0.26623 -0.11666 -0.95682
-0.021172 -0.032239 0.425 -0.24855 -0.10825 -0.96255
-0.021172 -0.031452 0.425 -0.22924 -0.1138 -0.96669
-0.021221 -0.030738 0.426 -0.20062 -0.11024 -0.97345
-0.021221 -0.02995 0.426 -0.15619 -0.088711 -0.98373
-0.021221 -0.029162 0.426 -0.073198 -0.075081 -0.99449
-0.021221 -0.028374 0.426 0.014695 -0.05757 -0.99823
-0.021221 -0.027586 0.426 0.089986 -0.040695 -0.99511
-0.021221 -0.026797 0.426 0.16287 -0.012414 -0.98657
-0.021221 -0.026009 0.426 0.2214 0.026577 -0.97482
-0.021172 -0.025162 0.425 0.26664 0.059652 -0.96195
-0.021172 -0.024376 0.425 0.29486 0.087013 -0.95157
-0.021172 -0.023589 0.425 0.3005 0.11151 -0.94724
-0.021122 -0.022749 0.424 0.28854 0.13188 -0.94834
-0.021122 -0.021965 0.424 0.25612 0.15285 -0.95448
-0.021122 -0.02118 0.424 0.20982 0.16252 -0.96414
-0.021122 -0.020396 0.424 0.18086 0.17832 -0.96721
-0.021122 -0.019611 0.424 0.14165 0.18937 -0.97163
-0.021122 -0.018827 0.424 0.093794 0.19837 -0.97563
-0.021072 -0.018 0.423 0.041399 0.20746 -0.97737
-0.021122 -0.017258 0.424 -0.025889 0.19621 -0.98022
-0.021122 -0.016474 0.424 -0.083714 0.18964 -0.97828
-0.021122 -0.015689 0.424 -0.12765 0.18479 -0.97445
-0.021122 -0.014905 0.424 -0.20055 0.17665 -0.96363
-0.021122 -0.01412 0.424 -0.25144 0.17452 -0.95201
-0.021122 -0.013336 0.424 -0.30328 0.16703 -0.93815
-0.021122 -0.012551 0.424 -0.35071 0.16321 -0.92215
-0.021172 -0.011795 0.425 -0.38606 0.15763 -0.90891
-0.021172 -0.011008 0.425 -0.41656 0.1526 -0.89621
-0.021172 -0.010222 0.425 -0.43076 0.14693 -0.89043
-0.021221 -0.0094579 0.426 -0.4394 0.14048 -0.88724
-0.021221 -0.0086698 0.426 -0.45483 0.14197 -0.87919
-0.021271 -0.0079001 0.427 -0.46205 0.15085 -0.87393
-0.021271 -0.0071101 0.427 -0.46107 0.15449 -0.87381
-0.021321 -0.0063349 0.428 -0.47291 0.16443 -0.86563
-0.021321 -0.005543 0.428 -0.48369 0.16766 -0.85903
-0.021321 -0.0047512 0.428 -0.49689 0.17817 -0.84933
-0.021371 -0.0039685 0.429 -0.50222 0.1822 -0.84533
-0.021371 -0.0031748 0.429 -0.50099 0.18823 -0.84474
-0.021421 -0.0023867 0.43 -0.50979 0.18835 -0.83942
-0.021421 -0.0015911 0.43 -0.51175 0.18145 -0.83976
-0.02147 -0.00079741 0.431 -0.5138 0.17746 -0.83935
-0.02147 0 0.431 -0.52133 0.16404 -0.83744
-0.02152 0.00079926 0.432 -0.53745 0.13765 -0.83199
-0.02152 0.0015985 0.432 -0.55983 0.11539 -0.82054
-0.02157 0.0024033 0.433 -0.57289 0.092418 -0.8144
-0.02157 0.0032044 0.433 -0.60152 0.073853 -0.79544
-0.02162 0.0040148 0.434 -0.62384 0.064136 -0.77891
-0.02162 0.0048178 0.434 -0.62807 0.042407 -0.777
-0.02172 0.0056466 0.436 -0.64648 0.041366 -0.76181
-0.02172 0.0064533 0.436 -0.66269 0.029899 -0.7483
-0.021769 0.0072766 0.437 -0.67746 0.024047 -0.73517
-0.021819 0.0081036 0.438 -0.68206 0.0029832 -0.73129
-0.021819 0.008914 0.438 -0.67803 0.0029985 -0.73503
-0.021869 0.0097465 0.439 -0.66935 0.0060475 -0.74292
-0.021919 0.010583 0.44 -0.65782 0.0099394 -0.75311
-0.021969 0.011423 0.441 -0.64768 0.011575 -0.76183
-0.022018 0.012266 0.442 -0.61931 -0.012429 -0.78505
-0.022018 0.013084 0.442 -0.62929 -0.0047125 -0.77716
-0.022068 0.013933 0.443 -0.62259 -0.015778 -0.78239
-0.022068 0.014753 0.443 -0.60577 -0.012902 -0.79554
-0.022118 0.015608 0.444 -0.64096 -0.027165 -0.76709
-0.022068 0.016392 0.443 -0.41337 0.0036441 -0.91056
-0.022168 0.01729 0.445 -0.65966 -0.022848 -0.75121
-0.022218 0.018154 0.446 -0.69427 -0.037057 -0.71876
-0.022317 0.019064 0.448 -0.82729 0.014664 -0.56159
-0.022367 0.019937 0.449 -0.85194 0.004841 -0.52363
-0.022467 0.02086 0.451 -0.80859 -0.075708 -0.58348
-0.022566 0.021791 0.453 -0.70944 -0.12609 -0.69339
-0.021347 -0.075745 0.445 0.91771 -0.045815 -0.3946
-0.021251 -0.074585 0.443 0.8783 -0.13143 -0.45968
-0.021155 -0.073432 0.441 0.85826 -0.08771 -0.50566
-0.021107 -0.072451 0.44 0.86137 -0.15462 -0.48387
-0.021059 -0.071475 0.439 0.83814 -0.22804 -0.4955
-0.021011 -0.070501 0.438 0.8323 -0.24691 -0.49629
-0.020915 -0.069373 0.436 0.81669 -0.16159 -0.55399
-0.020867 -0.068409 0.435 0.80007 -0.15951 -0.57831
-0.020771 -0.067293 0.433 0.68235 -0.072616 -0.72741
-0.020723 -0.066339 0.432 0.65348 -0.064882 -0.75416
-0.020723 -0.065539 0.432 0.68704 -0.10091 -0.71958
-0.020675 -0.06459 0.431 0.65809 -0.092468 -0.74724
-0.020627 -0.063645 0.43 0.61818 -0.091773 -0.78066
-0.020627 -0.062849 0.43 0.60374 -0.10903 -0.78969
-0.020579 -0.061909 0.429 0.56885 -0.097921 -0.81659
-0.020579 -0.061116 0.429 0.5331 -0.10318 -0.83974
-0.020531 -0.060181 0.428 0.49633 -0.10079 -0.86226
-0.020531 -0.059389 0.428 0.46592 -0.10906 -0.87808
-0.020483 -0.058461 0.427 0.44076 -0.11547 -0.89017
-0.020483 -0.057671 0.427 0.40671 -0.11845 -0.90585
-0.020483 -0.056881 0.427 0.38386 -0.14128 -0.91252
-0.020435 -0.055959 0.426 0.35828 -0.15354 -0.9209
-0.020435 -0.055171 0.426 0.34898 -0.16821 -0.92191
-0.020435 -0.054383 0.426 0.32813 -0.17238 -0.92877
-0.020435 -0.053595 0.426 0.31947 -0.18609 -0.92914
-0.020387 -0.052683 0.425 0.32103 -0.19948 -0.92582
-0.020387 -0.051896 0.425 0.31715 -0.20533 -0.92588
-0.020387 -0.05111 0.425 0.30833 -0.20596 -0.92871
-0.020339 -0.050205 0.424 0.30238 -0.19841 -0.93231
-0.020339 -0.049421 0.424 0.2944 -0.19704 -0.93515
-0.020339 -0.048636 0.424 0.28421 -0.20146 -0.93736
-0.020292 -0.047739 0.423 0.27304 -0.19974 -0.94104
-0.020292 -0.046957 0.423 0.26233 -0.19271 -0.94554
-0.020292 -0.046174 0.423 0.23903 -0.18909 -0.95242
-0.020292 -0.045391 0.423 0.19929 -0.1957 -0.9602
-0.020292 -0.044609 0.423 0.15191 -0.19345 -0.96928
-0.020292 -0.043826 0.423 0.086108 -0.18105 -0.9797
-0.020292 -0.043043 0.423 0.025021 -0.17362 -0.98449
-0.020292 -0.042261 0.423 -0.032312 -0.17358 -0.98429
-0.020292 -0.041478 0.423 -0.093395 -0.17593 -0.97996
-0.020292 -0.040696 0.423 -0.14843 -0.17474 -0.97336
-0.020292 -0.039913 0.423 -0.18697 -0.15469 -0.97011
-0.020292 -0.03913 0.423 -0.21962 -0.14567 -0.96465
-0.020292 -0.038348 0.423 -0.24276 -0.14485 -0.95921
-0.020339 -0.037654 0.424 -0.25374 -0.14114 -0.95692
-0.020339 -0.03687 0.424 -0.25318 -0.13028 -0.95861
-0.020339 -0.036085 0.424 -0.25448 -0.1193 -0.95969
-0.020339 -0.035301 0.424 -0.26752 -0.12383 -0.95556
-0.020387 -0.034598 0.425 -0.27712 -0.12516 -0.95265
-0.020387 -0.033811 0.425 -0.27822 -0.12019 -0.95297
-0.020387 -0.033025 0.425 -0.27016 -0.11058 -0.95644
-0.020387 -0.032239 0.425 -0.25354 -0.099112 -0.96223
-0.020387 -0.031452 0.425 -0.22959 -0.099723 -0.96816
-0.020435 -0.030738 0.426 -0.20107 -0.087979 -0.97562
-0.020435 -0.02995 0.426 -0.15148 -0.058974 -0.9867
-0.020435 -0.029162 0.426 -0.063938 -0.047037 -0.99684
-0.020435 -0.028374 0.426 0.032566 -0.028285 -0.99907
-0.020435 -0.027586 0.426 0.11387 -0.0052087 -0.99348
-0.020435 -0.026797 0.426 0.1899 0.023672 -0.98152
-0.020435 -0.026009 0.426 0.25375 0.061744 -0.9653
-0.020387 -0.025162 0.425 0.3012 0.088811 -0.94942
-0.020387 -0.024376 0.425 0.32925 0.10747 -0.93811
-0.020387 -0.023589 0.425 0.33308 0.12186 -0.93499
-0.020339 -0.022749 0.424 0.317 0.14226 -0.9377
-0.020339 -0.021965 0.424 0.27804 0.16257 -0.94671
-0.020339 -0.02118 0.424 0.22325 0.16596 -0.96053
-0.020339 -0.020396 0.424 0.18369 0.18216 -0.96596
-0.020292 -0.019565 0.423 0.13894 0.18988 -0.97193
-0.020292 -0.018783 0.423 0.090034 0.19195 -0.97727
-0.020292 -0.018 0.423 0.035264 0.19859 -0.97945
-0.020292 -0.017217 0.423 -0.03433 0.18362 -0.9824
-0.020292 -0.016435 0.423 -0.093361 0.17793 -0.9796
-0.020292 -0.015652 0.423 -0.13726 0.17702 -0.97459
-0.020292 -0.01487 0.423 -0.20899 0.17181 -0.96271
-0.020339 -0.01412 0.424 -0.25756 0.16354 -0.95232
-0.020339 -0.013336 0.424 -0.30224 0.15169 -0.94108
-0.020339 -0.012551 0.424 -0.35252 0.14607 -0.92433
-0.020339 -0.011767 0.424 -0.39096 0.14273 -0.90927
-0.020387 -0.011008 0.425 -0.41892 0.13957 -0.89723
-0.020387 -0.010222 0.425 -0.43128 0.13868 -0.8915
-0.020435 -0.0094579 0.426 -0.43374 0.13453 -0.89094
-0.020435 -0.0086698 0.426 -0.45145 0.13774 -0.8816
-0.020483 -0.0079001 0.427 -0.45736 0.14591 -0.87723
-0.020483 -0.0071101 0.427 -0.45212 0.14814 -0.87957
-0.020483 -0.0063201 0.427 -0.46584 0.15758 -0.87072
-0.020531 -0.005543 0.428 -0.47389 0.16084 -0.86577
-0.020531 -0.0047512 0.428 -0.48606 0.17171 -0.85689
-0.020579 -0.0039685 0.429 -0.49762 0.17514 -0.84953
-0.020579 -0.0031748 0.429 -0.49954 0.17577 -0.84827
-0.020579 -0.0023811 0.429 -0.51217 0.17259 -0.84137
-0.020627 -0.0015911 0.43 -0.51878 0.16722 -0.8384
-0.020675 -0.00079741 0.431 -0.52275 0.1622 -0.83691
-0.020675 0 0.431 -0.53806 0.14876 -0.82968
-0.020723 0.00079926 0.432 -0.55703 0.12231 -0.82143
-0.020723 0.0015985 0.432 -0.57739 0.098061 -0.81056
-0.020771 0.0024033 0.433 -0.59013 0.078743 -0.80346
-0.020771 0.0032044 0.433 -0.61386 0.061703 -0.787
-0.020819 0.0040148 0.434 -0.631 0.054164 -0.77389
-0.020867 0.0048289 0.435 -0.64308 0.046312 -0.7644
-0.020867 0.0056337 0.435 -0.64978 0.03431 -0.75935
-0.020915 0.0064533 0.436 -0.6645 0.024486 -0.74688
-0.020963 0.0072766 0.437 -0.67837 0.016518 -0.73453
-0.021011 0.0081036 0.438 -0.68366 -0.0022329 -0.7298
-0.021011 0.008914 0.438 -0.68006 -0.0022431 -0.73316
-0.021059 0.0097465 0.439 -0.67393 0.0022552 -0.7388
-0.021107 0.010583 0.44 -0.66256 0.0098843 -0.74894
-0.021155 0.011423 0.441 -0.65259 0.0099766 -0.75765
-0.021203 0.012266 0.442 -0.62294 -0.015969 -0.78211
-0.021203 0.013084 0.442 -0.63585 -0.010139 -0.77174
-0.021251 0.013933 0.443 -0.62497 -0.018886 -0.78042
-0.021251 0.014753 0.443 -0.60655 -0.014692 -0.79491
-0.021299 0.015608 0.444 -0.63905 -0.034015 -0.76841
-0.021299 0.016429 0.444 -0.60009 -0.039297 -0.79896
-0.021347 0.01729 0.445 -0.65637 -0.020818 -0.75416
-0.021395 0.018154 0.446 -0.69213 -0.041972 -0.72055
-0.021491 0.019064 0.448 -0.82121 -0.0071277 -0.57058
-0.021539 0.019937 0.449 -0.84862 -0.018677 -0.52868
-0.021635 0.02086 0.451 -0.81897 -0.11632 -0.56192
-0.021731 0.021791 0.453 -0.72666 -0.17544 -0.66422
-0.020341 -0.072616 0.441 0.8415 -0.25849 -0.4744
-0.020249 -0.071475 0.439 0.84434 -0.19105 -0.5006
-0.020018 -0.067449 0.434 0.75865 -0.13202 -0.63798
-0.019972 -0.066492 0.433 0.72149 -0.11505 -0.6828
-0.019926 -0.065539 0.432 0.67991 -0.10014 -0.72643
-0.01988 -0.06459 0.431 0.64897 -0.087495 -0.75576
-0.019834 -0.063645 0.43 0.6098 -0.082201 -0.78828
-0.019834 -0.062849 0.43 0.60613 -0.10708 -0.78812
-0.019788 -0.061909 0.429 0.5693 -0.096647 -0.81643
-0.019788 -0.061116 0.429 0.53809 -0.10279 -0.8366
-0.019742 -0.060181 0.428 0.49981 -0.098787 -0.86048
-0.019742 -0.059389 0.428 0.46313 -0.10743 -0.87976
-0.019696 -0.058461 0.427 0.43556 -0.11396 -0.89292
-0.019696 -0.057671 0.427 0.40357 -0.1177 -0.90734
-0.019696 -0.056881 0.427 0.37939 -0.13314 -0.91561
-0.019649 -0.055959 0.426 0.35261 -0.14918 -0.9238
-0.019649 -0.055171 0.426 0.33795 -0.16705 -0.92622
-0.019649 -0.054383 0.426 0.32108 -0.17376 -0.93097
-0.019649 -0.053595 0.426 0.31271 -0.18183 -0.93228
-0.019603 -0.052683 0.425 0.31489 -0.19992 -0.92784
-0.019603 -0.051896 0.425 0.31237 -0.21124 -0.92618
-0.019603 -0.05111 0.425 0.30586 -0.21634 -0.92717
-0.019603 -0.050324 0.425 0.30187 -0.21013 -0.9299
-0.019557 -0.049421 0.424 0.29628 -0.21006 -0.93172
-0.019557 -0.048636 0.424 0.28774 -0.21717 -0.93276
-0.019557 -0.047852 0.424 0.273 -0.22096 -0.93629
-0.019511 -0.046957 0.423 0.26002 -0.21757 -0.94077
-0.019511 -0.046174 0.423 0.23393 -0.21526 -0.94812
-0.019511 -0.045391 0.423 0.19706 -0.22473 -0.95429
-0.019511 -0.044609 0.423 0.14778 -0.22767 -0.96246
-0.019511 -0.043826 0.423 0.085456 -0.21767 -0.97227
-0.019511 -0.043043 0.423 0.026917 -0.20855 -0.97764
-0.019511 -0.042261 0.423 -0.029017 -0.20359 -0.97863
-0.019511 -0.041478 0.423 -0.083682 -0.20296 -0.9756
-0.019511 -0.040696 0.423 -0.13275 -0.19498 -0.97178
-0.019511 -0.039913 0.423 -0.17136 -0.17805 -0.96899
-0.019511 -0.03913 0.423 -0.20523 -0.168 -0.96419
-0.019511 -0.038348 0.423 -0.23063 -0.16211 -0.95944
-0.019557 -0.037654 0.424 -0.24484 -0.15134 -0.95768
-0.019557 -0.03687 0.424 -0.24833 -0.13342 -0.95944
-0.019557 -0.036085 0.424 -0.25435 -0.12329 -0.95922
-0.019557 -0.035301 0.424 -0.26745 -0.12581 -0.95532
-0.019603 -0.034598 0.425 -0.27719 -0.12319 -0.95289
-0.019603 -0.033811 0.425 -0.27844 -0.11327 -0.95375
-0.019603 -0.033025 0.425 -0.27047 -0.099637 -0.95756
-0.019603 -0.032239 0.425 -0.24898 -0.091208 -0.9642
-0.019603 -0.031452 0.425 -0.22114 -0.086781 -0.97137
-0.019649 -0.030738 0.426 -0.18945 -0.072899 -0.97918
-0.019649 -0.02995 0.426 -0.13224 -0.043611 -0.99026
-0.019649 -0.029162 0.426 -0.044093 -0.034549 -0.99843
-0.019649 -0.028374 0.426 0.056681 -0.016748 -0.99825
-0.019649 -0.027586 0.426 0.13951 0.010383 -0.99017
-0.019649 -0.026797 0.426 0.21933 0.042926 -0.97471
-0.019649 -0.026009 0.426 0.28344 0.077178 -0.95588
-0.019603 -0.025162 0.425 0.32876 0.095788 -0.93954
-0.019603 -0.024376 0.425 0.34832 0.10959 -0.93095
-0.019603 -0.023589 0.425 0.34777 0.12309 -0.92947
-0.019557 -0.022749 0.424 0.33092 0.14634 -0.93224
-0.019557 -0.021965 0.424 0.28964 0.16874 -0.94214
-0.019557 -0.02118 0.424 0.23627 0.1752 -0.95576
-0.019511 -0.020348 0.423 0.18673 0.19131 -0.9636
-0.019511 -0.019565 0.423 0.13578 0.1949 -0.97138
-0.019511 -0.018783 0.423 0.080736 0.19509 -0.97746
-0.019511 -0.018 0.423 0.025989 0.18868 -0.9817
-0.019511 -0.017217 0.423 -0.042741 0.17049 -0.98443
-0.019511 -0.016435 0.423 -0.099721 0.16678 -0.98094
-0.019511 -0.015652 0.423 -0.14667 0.1648 -0.97536
-0.019511 -0.01487 0.423 -0.22116 0.15753 -0.96243
-0.019511 -0.014087 0.423 -0.26733 0.14487 -0.95265
-0.019557 -0.013336 0.424 -0.30753 0.13399 -0.94206
-0.019557 -0.012551 0.424 -0.35368 0.12212 -0.92736
-0.019557 -0.011767 0.424 -0.3921 0.12105 -0.91192
-0.019603 -0.011008 0.425 -0.41613 0.11938 -0.90143
-0.019603 -0.010222 0.425 -0.42935 0.11857 -0.89532
-0.019649 -0.0094579 0.426 -0.43193 0.12641 -0.893
-0.019649 -0.0086698 0.426 -0.45036 0.13149 -0.88311
-0.019696 -0.0079001 0.427 -0.45351 0.13816 -0.88048
-0.019696 -0.0071101 0.427 -0.44589 0.14237 -0.88369
-0.019696 -0.0063201 0.427 -0.4585 0.15027 -0.8759
-0.019742 -0.005543 0.428 -0.46573 0.15724 -0.87085
-0.019742 -0.0047512 0.428 -0.47857 0.16299 -0.86279
-0.019742 -0.0039593 0.428 -0.49151 0.17111 -0.85389
-0.019788 -0.0031748 0.429 -0.49741 0.17007 -0.85068
-0.019788 -0.0023811 0.429 -0.51097 0.16429 -0.84375
-0.019834 -0.0015911 0.43 -0.52121 0.16107 -0.83809
-0.01988 -0.00079741 0.431 -0.52933 0.15057 -0.83495
-0.01988 0 0.431 -0.55088 0.13819 -0.82306
-0.01988 0.00079741 0.431 -0.57227 0.11363 -0.81215
-0.019926 0.0015985 0.432 -0.59478 0.089218 -0.79892
-0.019926 0.0023978 0.432 -0.60261 0.071265 -0.79485
-0.019972 0.0032044 0.433 -0.62743 0.056882 -0.77659
-0.020018 0.0040148 0.434 -0.63912 0.052126 -0.76734
-0.020065 0.0048289 0.435 -0.64601 0.039922 -0.76228
-0.020111 0.0056466 0.436 -0.6513 0.027969 -0.75831
-0.020111 0.0064533 0.436 -0.66584 0.020631 -0.74581
-0.020157 0.0072766 0.437 -0.67842 0.011263 -0.73459
-0.020157 0.0080851 0.437 -0.66046 0.010049 -0.7508
-0.020203 0.008914 0.438 -0.68046 -0.0037366 -0.73278
-0.020249 0.0097465 0.439 -0.67638 0.0029978 -0.73655
-0.020295 0.010583 0.44 -0.66935 0.0060338 -0.74293
-0.020341 0.011423 0.441 -0.65917 0.0045702 -0.75198
-0.020387 0.012266 0.442 -0.62524 -0.026403 -0.77999
-0.020387 0.013084 0.442 -0.64127 -0.021704 -0.767
-0.020434 0.013933 0.443 -0.62875 -0.022729 -0.77728
-0.020434 0.014753 0.443 -0.60801 -0.025346 -0.79352
-0.02048 0.015608 0.444 -0.6379 -0.032358 -0.76944
-0.02048 0.016429 0.444 -0.59434 -0.037537 -0.80334
-0.020526 0.01729 0.445 -0.6521 -0.0091662 -0.75808
-0.020572 0.018154 0.446 -0.68907 -0.03489 -0.72386
-0.020664 0.019064 0.448 -0.81116 -0.021481 -0.58443
-0.02071 0.019937 0.449 -0.8436 -0.01737 -0.53669
-0.020849 0.020907 0.452 -0.76798 -0.20268 -0.60756
-0.020895 0.021791 0.453 -0.74212 -0.21889 -0.63351
-0.019528 -0.072616 0.441 0.84663 -0.20694 -0.4903
-0.019218 -0.067449 0.434 0.74679 -0.11956 -0.65423
-0.019173 -0.066492 0.433 0.70899 -0.11891 -0.69512
-0.019129 -0.065539 0.432 0.66705 -0.098244 -0.7385
-0.019085 -0.06459 0.431 0.63753 -0.085965 -0.76561
-0.019041 -0.063645 0.43 0.59864 -0.076102 -0.7974
-0.019041 -0.062849 0.43 0.60692 -0.10677 -0.78756
-0.018996 -0.061909 0.429 0.57132 -0.093236 -0.81541
-0.018996 -0.061116 0.429 0.54501 -0.099684 -0.83249
-0.018952 -0.060181 0.428 0.50536 -0.094885 -0.85768
-0.018952 -0.059389 0.428 0.46258 -0.10384 -0.88047
-0.018908 -0.058461 0.427 0.43274 -0.10952 -0.89484
-0.018908 -0.057671 0.427 0.39836 -0.10956 -0.91066
-0.018908 -0.056881 0.427 0.37193 -0.11657 -0.92091
-0.018908 -0.056091 0.427 0.34236 -0.1352 -0.92979
-0.018863 -0.055171 0.426 0.32758 -0.15062 -0.93274
-0.018863 -0.054383 0.426 0.31011 -0.16494 -0.93628
-0.018863 -0.053595 0.426 0.30292 -0.16629 -0.9384
-0.018863 -0.052807 0.426 0.30617 -0.18789 -0.93325
-0.018819 -0.051896 0.425 0.30668 -0.20421 -0.92965
-0.018819 -0.05111 0.425 0.30346 -0.21281 -0.92878
-0.018819 -0.050324 0.425 0.29805 -0.21412 -0.93023
-0.018819 -0.049537 0.425 0.29051 -0.22021 -0.93119
-0.018775 -0.048636 0.424 0.28692 -0.22929 -0.93011
-0.018775 -0.047852 0.424 0.27183 -0.23867 -0.93228
-0.018775 -0.047068 0.424 0.25819 -0.23775 -0.93638
-0.018731 -0.046174 0.423 0.23272 -0.23706 -0.94321
-0.018731 -0.045391 0.423 0.19613 -0.24373 -0.9498
-0.018731 -0.044609 0.423 0.14689 -0.25154 -0.95663
-0.018731 -0.043826 0.423 0.089965 -0.24468 -0.96542
-0.018731 -0.043043 0.423 0.036001 -0.2349 -0.97135
-0.018731 -0.042261 0.423 -0.016501 -0.22627 -0.97393
-0.018731 -0.041478 0.423 -0.06907 -0.21795 -0.97351
-0.018731 -0.040696 0.423 -0.11747 -0.19832 -0.97307
-0.018731 -0.039913 0.423 -0.15616 -0.18544 -0.97017
-0.018731 -0.03913 0.423 -0.19124 -0.17541 -0.96574
-0.018775 -0.038438 0.424 -0.21845 -0.16516 -0.96177
-0.018775 -0.037654 0.424 -0.23636 -0.14871 -0.96022
-0.018775 -0.03687 0.424 -0.24385 -0.12463 -0.96177
-0.018775 -0.036085 0.424 -0.25457 -0.11631 -0.96003
-0.018775 -0.035301 0.424 -0.26775 -0.11688 -0.95637
-0.018819 -0.034598 0.425 -0.27761 -0.11034 -0.95434
-0.018819 -0.033811 0.425 -0.27897 -0.095411 -0.95555
-0.018819 -0.033025 0.425 -0.26618 -0.083771 -0.96028
-0.018819 -0.032239 0.425 -0.24062 -0.079307 -0.96737
-0.018863 -0.031526 0.426 -0.20921 -0.070566 -0.97532
-0.018863 -0.030738 0.426 -0.17072 -0.050559 -0.98402
-0.018863 -0.02995 0.426 -0.10765 -0.022929 -0.99392
-0.018863 -0.029162 0.426 -0.015769 -0.01258 -0.9998
-0.018863 -0.028374 0.426 0.085903 0.0020894 -0.9963
-0.018863 -0.027586 0.426 0.16683 0.031001 -0.9855
-0.018863 -0.026797 0.426 0.24705 0.063873 -0.96689
-0.018819 -0.025948 0.425 0.30927 0.091529 -0.94656
-0.018819 -0.025162 0.425 0.34505 0.10489 -0.93271
-0.018819 -0.024376 0.425 0.35995 0.1177 -0.92552
-0.018775 -0.023534 0.424 0.35504 0.12972 -0.92581
-0.018775 -0.022749 0.424 0.33577 0.15371 -0.92932
-0.018775 -0.021965 0.424 0.29676 0.17123 -0.93948
-0.018731 -0.02113 0.423 0.24513 0.18007 -0.95262
-0.018731 -0.020348 0.423 0.19074 0.1892 -0.96323
-0.018731 -0.019565 0.423 0.13493 0.189 -0.97266
-0.018731 -0.018783 0.423 0.074679 0.18722 -0.97948
-0.018731 -0.018 0.423 0.02083 0.17968 -0.98351
-0.018731 -0.017217 0.423 -0.045949 0.15933 -0.98615
-0.018731 -0.016435 0.423 -0.10613 0.15253 -0.98258
-0.018731 -0.015652 0.423 -0.15612 0.1495 -0.97636
-0.018731 -0.01487 0.423 -0.23334 0.14023 -0.96223
-0.018731 -0.014087 0.423 -0.27652 0.12379 -0.953
-0.018775 -0.013336 0.424 -0.31276 0.11522 -0.94282
-0.018775 -0.012551 0.424 -0.35463 0.097963 -0.92986
-0.018775 -0.011767 0.424 -0.39306 0.099197 -0.91415
-0.018819 -0.011008 0.425 -0.41318 0.098012 -0.90536
-0.018819 -0.010222 0.425 -0.42727 0.09731 -0.89887
-0.018863 -0.0094579 0.426 -0.42703 0.10175 -0.89849
-0.018863 -0.0086698 0.426 -0.44715 0.10892 -0.8878
-0.018863 -0.0078816 0.426 -0.44916 0.11337 -0.88623
-0.018908 -0.0071101 0.427 -0.44311 0.11349 -0.88926
-0.018908 -0.0063201 0.427 -0.45464 0.11912 -0.88267
-0.018952 -0.005543 0.428 -0.4612 0.12918 -0.87784
-0.018952 -0.0047512 0.428 -0.47472 0.12903 -0.87063
-0.018952 -0.0039593 0.428 -0.48846 0.1411 -0.86111
-0.018996 -0.0031748 0.429 -0.4992 0.13893 -0.85528
-0.018996 -0.0023811 0.429 -0.51351 0.13155 -0.84794
-0.019041 -0.0015911 0.43 -0.52734 0.13082 -0.83952
-0.019041 -0.00079556 0.43 -0.53612 0.12064 -0.83548
-0.019085 0 0.431 -0.56219 0.11043 -0.8196
-0.019085 0.00079741 0.431 -0.58677 0.09419 -0.80426
-0.019129 0.0015985 0.432 -0.61087 0.080626 -0.78762
-0.019173 0.0024033 0.433 -0.62088 0.073269 -0.78047
-0.019173 0.0032044 0.433 -0.63988 0.05535 -0.76648
-0.019218 0.0040148 0.434 -0.64645 0.054048 -0.76104
-0.019262 0.0048289 0.435 -0.64833 0.038261 -0.7604
-0.019262 0.0056337 0.435 -0.65396 0.027173 -0.75604
-0.019306 0.0064533 0.436 -0.66666 0.022898 -0.74501
-0.019351 0.0072766 0.437 -0.678 0.012771 -0.73495
-0.019351 0.0080851 0.437 -0.6565 0.014239 -0.75419
-0.019395 0.008914 0.438 -0.68046 0.0029893 -0.73278
-0.019439 0.0097465 0.439 -0.67881 0.0037358 -0.7343
-0.019483 0.010583 0.44 -0.67226 0.0022547 -0.74031
-0.019528 0.011423 0.441 -0.66473 -0.0045403 -0.74707
-0.019572 0.012266 0.442 -0.62693 -0.039579 -0.77807
-0.019572 0.013084 0.442 -0.64409 -0.040144 -0.76389
-0.019572 0.013902 0.442 -0.62443 -0.044802 -0.7798
-0.019616 0.014753 0.443 -0.60865 -0.041822 -0.79234
-0.019616 0.015573 0.443 -0.53559 -0.053254 -0.84279
-0.019705 0.016466 0.445 -0.68126 -0.024551 -0.73163
-0.019705 0.01729 0.445 -0.65213 -0.0056943 -0.75809
-0.019749 0.018154 0.446 -0.68442 -0.037911 -0.7281
-0.019838 0.019064 0.448 -0.80594 -0.028764 -0.5913
-0.019882 0.019937 0.449 -0.83401 -0.020251 -0.55138
-0.020059 0.020953 0.453 -0.65146 -0.29083 -0.70072
-0.020103 0.021839 0.454 -0.63492 -0.24273 -0.73345
-0.018417 -0.067449 0.434 0.73276 -0.10807 -0.67185
-0.018375 -0.066492 0.433 0.69662 -0.11597 -0.70801
-0.018332 -0.065539 0.432 0.65095 -0.092804 -0.75343
-0.01829 -0.06459 0.431 0.62281 -0.079953 -0.77828
-0.018247 -0.063645 0.43 0.58389 -0.065156 -0.80921
-0.018247 -0.062849 0.43 0.60593 -0.099452 -0.78928
-0.018205 -0.061909 0.429 0.57118 -0.093154 -0.81552
-0.018205 -0.061116 0.429 0.54926 -0.099354 -0.82972
-0.018162 -0.060181 0.428 0.50736 -0.094755 -0.85651
-0.018162 -0.059389 0.428 0.46212 -0.098422 -0.88134
-0.01812 -0.058461 0.427 0.43003 -0.10228 -0.897
-0.01812 -0.057671 0.427 0.38889 -0.10438 -0.91535
-0.01812 -0.056881 0.427 0.3648 -0.1074 -0.92487
-0.01812 -0.056091 0.427 0.33318 -0.12802 -0.93413
-0.018077 -0.055171 0.426 0.31755 -0.13965 -0.9379
-0.018077 -0.054383 0.426 0.29962 -0.16074 -0.94042
-0.018077 -0.053595 0.426 0.29786 -0.15987 -0.94113
-0.018077 -0.052807 0.426 0.30252 -0.17393 -0.93714
-0.018035 -0.051896 0.425 0.30467 -0.19406 -0.93248
-0.018035 -0.05111 0.425 0.30395 -0.20533 -0.9303
-0.018035 -0.050324 0.425 0.29626 -0.21424 -0.93077
-0.018035 -0.049537 0.425 0.28233 -0.2217 -0.93335
-0.017993 -0.048636 0.424 0.27319 -0.23211 -0.93354
-0.017993 -0.047852 0.424 0.26347 -0.24109 -0.93405
-0.017993 -0.047068 0.424 0.25048 -0.24288 -0.93716
-0.017993 -0.046283 0.424 0.22529 -0.24256 -0.94361
-0.01795 -0.045391 0.423 0.19018 -0.24685 -0.95021
-0.01795 -0.044609 0.423 0.1478 -0.2534 -0.956
-0.01795 -0.043826 0.423 0.09792 -0.25023 -0.96322
-0.01795 -0.043043 0.423 0.050297 -0.24055 -0.96933
-0.01795 -0.042261 0.423 0.0030922 -0.22922 -0.97337
-0.01795 -0.041478 0.423 -0.045462 -0.21431 -0.97571
-0.01795 -0.040696 0.423 -0.09725 -0.18984 -0.97699
-0.01795 -0.039913 0.423 -0.14131 -0.17692 -0.97403
-0.017993 -0.039223 0.424 -0.17725 -0.16756 -0.9698
-0.017993 -0.038438 0.424 -0.20717 -0.15469 -0.966
-0.017993 -0.037654 0.424 -0.22823 -0.13311 -0.96446
-0.017993 -0.03687 0.424 -0.23468 -0.10989 -0.96584
-0.017993 -0.036085 0.424 -0.25111 -0.10442 -0.96231
-0.018035 -0.035384 0.425 -0.26477 -0.10279 -0.95882
-0.018035 -0.034598 0.425 -0.27626 -0.092502 -0.95662
-0.018035 -0.033811 0.425 -0.27379 -0.078585 -0.95857
-0.018035 -0.033025 0.425 -0.25797 -0.069884 -0.96362
-0.018077 -0.032315 0.426 -0.22966 -0.070234 -0.97073
-0.018077 -0.031526 0.426 -0.19755 -0.058487 -0.97855
-0.018077 -0.030738 0.426 -0.15368 -0.034172 -0.98753
-0.018077 -0.02995 0.426 -0.086938 -0.010446 -0.99616
-0.018077 -0.029162 0.426 0.0063088 -0.0010486 -0.99998
-0.018077 -0.028374 0.426 0.11282 0.014585 -0.99351
-0.018077 -0.027586 0.426 0.19077 0.04319 -0.98068
-0.018077 -0.026797 0.426 0.2705 0.073478 -0.95991
-0.018035 -0.025948 0.425 0.32977 0.091842 -0.93958
-0.018035 -0.025162 0.425 0.36134 0.10421 -0.92659
-0.018035 -0.024376 0.425 0.37183 0.11521 -0.92112
-0.017993 -0.023534 0.424 0.36207 0.12457 -0.92379
-0.017993 -0.022749 0.424 0.34128 0.14767 -0.92829
-0.01795 -0.021913 0.423 0.30521 0.15962 -0.93881
-0.01795 -0.02113 0.423 0.25413 0.16895 -0.9523
-0.01795 -0.020348 0.423 0.19531 0.17132 -0.96566
-0.01795 -0.019565 0.423 0.13446 0.16709 -0.97673
-0.01795 -0.018783 0.423 0.068786 0.16317 -0.9842
-0.01795 -0.018 0.423 0.015689 0.15541 -0.98772
-0.01795 -0.017217 0.423 -0.054441 0.1399 -0.98867
-0.01795 -0.016435 0.423 -0.11678 0.12997 -0.98462
-0.01795 -0.015652 0.423 -0.16874 0.12595 -0.97758
-0.01795 -0.01487 0.423 -0.24756 0.1148 -0.96205
-0.01795 -0.014087 0.423 -0.28668 0.095631 -0.95324
-0.017993 -0.013336 0.424 -0.31805 0.090478 -0.94375
-0.017993 -0.012551 0.424 -0.3502 0.073781 -0.93377
-0.017993 -0.011767 0.424 -0.38891 0.077373 -0.91802
-0.018035 -0.011008 0.425 -0.40904 0.0812 -0.9089
-0.018035 -0.010222 0.425 -0.42325 0.080621 -0.90242
-0.018077 -0.0094579 0.426 -0.42302 0.086072 -0.90202
-0.018077 -0.0086698 0.426 -0.44802 0.089543 -0.88953
-0.018077 -0.0078816 0.426 -0.45073 0.095853 -0.8875
-0.01812 -0.0071101 0.427 -0.44163 0.097039 -0.89193
-0.01812 -0.0063201 0.427 -0.45466 0.10456 -0.88451
-0.01812 -0.0055301 0.427 -0.45986 0.11695 -0.88026
-0.018162 -0.0047512 0.428 -0.47486 0.11474 -0.87255
-0.018162 -0.0039593 0.428 -0.48329 0.12569 -0.86639
-0.018205 -0.0031748 0.429 -0.49626 0.1226 -0.85947
-0.018205 -0.0023811 0.429 -0.51297 0.10905 -0.85145
-0.018247 -0.0015911 0.43 -0.52863 0.11103 -0.84156
-0.018247 -0.00079556 0.43 -0.5422 0.10138 -0.83411
-0.01829 0 0.431 -0.57172 0.094601 -0.81498
-0.01829 0.00079741 0.431 -0.59883 0.079292 -0.79694
-0.018332 0.0015985 0.432 -0.62391 0.069221 -0.77842
-0.018375 0.0024033 0.433 -0.63432 0.065164 -0.77032
-0.018375 0.0032044 0.433 -0.6502 0.049275 -0.75817
-0.018417 0.0040148 0.434 -0.65388 0.047409 -0.75511
-0.018459 0.0048289 0.435 -0.6525 0.033429 -0.75705
-0.018502 0.0056466 0.436 -0.65581 0.023965 -0.75454
-0.018502 0.0064533 0.436 -0.6675 0.023637 -0.74423
-0.018544 0.0072766 0.437 -0.67677 0.013543 -0.73607
-0.018544 0.0080851 0.437 -0.65528 0.010561 -0.75531
-0.018587 0.008914 0.438 -0.67922 0.0097297 -0.73387
-0.018629 0.0097465 0.439 -0.67957 0.012688 -0.7335
-0.018672 0.010583 0.44 -0.6751 0.010484 -0.73765
-0.018714 0.011423 0.441 -0.66768 0.0030162 -0.74444
-0.018756 0.012266 0.442 -0.62977 -0.028316 -0.77627
-0.018756 0.013084 0.442 -0.64878 -0.031504 -0.76032
-0.018756 0.013902 0.442 -0.63039 -0.032138 -0.77561
-0.018799 0.014753 0.443 -0.60751 -0.043282 -0.79313
-0.018841 0.015608 0.444 -0.63685 -0.024731 -0.77059
-0.018884 0.016466 0.445 -0.67647 -0.012201 -0.73637
-0.018884 0.01729 0.445 -0.64303 -2.1233e-05 -0.76584
-0.018926 0.018154 0.446 -0.67678 -0.022982 -0.73583
-0.019011 0.019064 0.448 -0.80171 -0.01889 -0.59741
-0.019096 0.019981 0.45 -0.86961 -0.079384 -0.48731
-0.019223 0.020953 0.453 -0.67151 -0.28944 -0.68213
-0.019266 0.021839 0.454 -0.64973 -0.24166 -0.72073
-0.017616 -0.067449 0.434 0.70806 -0.11915 -0.69603
-0.017576 -0.066492 0.433 0.67352 -0.13368 -0.72698
-0.017535 -0.065539 0.432 0.64014 -0.10673 -0.76081
-0.017494 -0.06459 0.431 0.61507 -0.10345 -0.78166
-0.017494 -0.063793 0.431 0.647 -0.11583 -0.75364
-0.017454 -0.062849 0.43 0.61408 -0.1101 -0.78153
-0.017413 -0.061909 0.429 0.57314 -0.096141 -0.8138
-0.017413 -0.061116 0.429 0.55612 -0.10289 -0.82471
-0.017373 -0.060181 0.428 0.50799 -0.093725 -0.85625
-0.017373 -0.059389 0.428 0.467 -0.10176 -0.87838
-0.017373 -0.058598 0.428 0.42631 -0.098539 -0.8992
-0.017332 -0.057671 0.427 0.37664 -0.10305 -0.92061
-0.017332 -0.056881 0.427 0.34784 -0.10718 -0.93141
-0.017332 -0.056091 0.427 0.31759 -0.12295 -0.94022
-0.017332 -0.055301 0.427 0.29947 -0.12954 -0.94527
-0.017292 -0.054383 0.426 0.28652 -0.1508 -0.94613
-0.017292 -0.053595 0.426 0.28552 -0.15278 -0.94612
-0.017292 -0.052807 0.426 0.29253 -0.15822 -0.94308
-0.017292 -0.052019 0.426 0.29677 -0.18091 -0.93766
-0.017251 -0.05111 0.425 0.3002 -0.19434 -0.93387
-0.017251 -0.050324 0.425 0.29687 -0.20488 -0.93268
-0.017251 -0.049537 0.425 0.28257 -0.21797 -0.93415
-0.017251 -0.048751 0.425 0.2683 -0.22821 -0.93591
-0.01721 -0.047852 0.424 0.25548 -0.237 -0.93732
-0.01721 -0.047068 0.424 0.23913 -0.24638 -0.93921
-0.01721 -0.046283 0.424 0.21654 -0.24679 -0.94457
-0.01721 -0.045499 0.424 0.18391 -0.24754 -0.95126
-0.01717 -0.044609 0.423 0.14505 -0.24783 -0.95788
-0.01717 -0.043826 0.423 0.10299 -0.24914 -0.96297
-0.01717 -0.043043 0.423 0.062571 -0.24039 -0.96866
-0.01717 -0.042261 0.423 0.021651 -0.22722 -0.9736
-0.01717 -0.041478 0.423 -0.021753 -0.2066 -0.97818
-0.01717 -0.040696 0.423 -0.064451 -0.17934 -0.98167
-0.01721 -0.040007 0.424 -0.11277 -0.16817 -0.97929
-0.01721 -0.039223 0.424 -0.1556 -0.1562 -0.97539
-0.01721 -0.038438 0.424 -0.19398 -0.13613 -0.97151
-0.01721 -0.037654 0.424 -0.21414 -0.11648 -0.96983
-0.01721 -0.03687 0.424 -0.22144 -0.096103 -0.97043
-0.01721 -0.036085 0.424 -0.24563 -0.094524 -0.96474
-0.017251 -0.035384 0.425 -0.26225 -0.090878 -0.96071
-0.017251 -0.034598 0.425 -0.27663 -0.076518 -0.95792
-0.017251 -0.033811 0.425 -0.2722 -0.064581 -0.96007
-0.017251 -0.033025 0.425 -0.25529 -0.059842 -0.96501
-0.017251 -0.032239 0.425 -0.22157 -0.060354 -0.97327
-0.017292 -0.031526 0.426 -0.18875 -0.046286 -0.98093
-0.017292 -0.030738 0.426 -0.14051 -0.019721 -0.98988
-0.017292 -0.02995 0.426 -0.071319 -0.0020918 -0.99745
-0.017292 -0.029162 0.426 0.028377 0.010481 -0.99954
-0.017292 -0.028374 0.426 0.13947 0.025949 -0.98989
-0.017292 -0.027586 0.426 0.21917 0.057194 -0.97401
-0.017292 -0.026797 0.426 0.2971 0.081799 -0.95134
-0.017251 -0.025948 0.425 0.34801 0.094115 -0.93275
-0.017251 -0.025162 0.425 0.37561 0.10453 -0.92087
-0.01721 -0.024318 0.424 0.38264 0.11303 -0.91696
-0.01721 -0.023534 0.424 0.37139 0.12313 -0.92028
-0.01721 -0.022749 0.424 0.34838 0.14346 -0.92631
-0.01717 -0.021913 0.423 0.31381 0.14855 -0.93779
-0.01717 -0.02113 0.423 0.26306 0.1578 -0.95179
-0.01717 -0.020348 0.423 0.19885 0.15333 -0.96796
-0.01717 -0.019565 0.423 0.13188 0.14497 -0.98061
-0.01717 -0.018783 0.423 0.065968 0.13366 -0.98883
-0.01717 -0.018 0.423 0.013654 0.12674 -0.99184
-0.01717 -0.017217 0.423 -0.066147 0.11203 -0.9915
-0.01717 -0.016435 0.423 -0.13161 0.098952 -0.98635
-0.01717 -0.015652 0.423 -0.18641 0.09398 -0.97797
-0.01717 -0.01487 0.423 -0.2616 0.087296 -0.96122
-0.01717 -0.014087 0.423 -0.2966 0.0664 -0.95269
-0.01721 -0.013336 0.424 -0.32314 0.065644 -0.94407
-0.01721 -0.012551 0.424 -0.34975 0.055175 -0.93522
-0.01721 -0.011767 0.424 -0.3877 0.061046 -0.91976
-0.017251 -0.011008 0.425 -0.407 0.069879 -0.91075
-0.017251 -0.010222 0.425 -0.4164 0.074287 -0.90614
-0.017251 -0.0094357 0.425 -0.41697 0.08088 -0.90531
-0.017292 -0.0086698 0.426 -0.44223 0.084268 -0.89294
-0.017292 -0.0078816 0.426 -0.44641 0.092395 -0.89005
-0.017332 -0.0071101 0.427 -0.43853 0.099051 -0.89324
-0.017332 -0.0063201 0.427 -0.45348 0.098229 -0.88584
-0.017332 -0.0055301 0.427 -0.4565 0.11173 -0.88268
-0.017373 -0.0047512 0.428 -0.47383 0.10764 -0.87402
-0.017373 -0.0039593 0.428 -0.48133 0.11161 -0.8694
-0.017413 -0.0031748 0.429 -0.49713 0.10758 -0.86098
-0.017413 -0.0023811 0.429 -0.51966 0.092856 -0.84931
-0.017454 -0.0015911 0.43 -0.53669 0.088909 -0.83909
-0.017454 -0.00079556 0.43 -0.55071 0.075988 -0.83123
-0.017454 0 0.43 -0.58055 0.069945 -0.81122
-0.017494 0.00079741 0.431 -0.60814 0.056624 -0.79181
-0.017535 0.0015985 0.432 -0.63153 0.047214 -0.77391
-0.017535 0.0023978 0.432 -0.64162 0.042762 -0.76583
-0.017576 0.0032044 0.433 -0.65241 0.034365 -0.75709
-0.017616 0.0040148 0.434 -0.65473 0.031869 -0.75519
-0.017657 0.0048289 0.435 -0.65137 0.021029 -0.75847
-0.017697 0.0056466 0.436 -0.65461 0.013939 -0.75584
-0.017697 0.0064533 0.436 -0.66847 0.013713 -0.74361
-0.017738 0.0072766 0.437 -0.67966 0.0082473 -0.73348
-0.017738 0.0080851 0.437 -0.65869 0.0055162 -0.7524
-0.017779 0.008914 0.438 -0.68319 0.014892 -0.73009
-0.017819 0.0097465 0.439 -0.68511 0.016302 -0.72825
-0.01786 0.010583 0.44 -0.68197 0.0096518 -0.73132
-0.0179 0.011423 0.441 -0.67242 -0.0026951 -0.74017
-0.017941 0.012266 0.442 -0.63497 -0.027981 -0.77203
-0.017941 0.013084 0.442 -0.65493 -0.032809 -0.75497
-0.017941 0.013902 0.442 -0.63506 -0.033537 -0.77173
-0.017982 0.014753 0.443 -0.61315 -0.045459 -0.78866
-0.018022 0.015608 0.444 -0.63565 -0.024763 -0.77158
-0.018063 0.016466 0.445 -0.67112 -0.012615 -0.74124
-0.018103 0.017328 0.446 -0.72535 -0.031249 -0.68767
-0.018103 0.018154 0.446 -0.66624 -0.023565 -0.74536
-0.018185 0.019064 0.448 -0.78903 -0.017769 -0.6141
-0.018266 0.019981 0.45 -0.88184 -0.058011 -0.46797
-0.018428 0.020999 0.454 -0.55999 -0.27544 -0.78137
-0.018469 0.021887 0.455 -0.49273 -0.27672 -0.82501
-0.016854 -0.067604 0.435 0.79053 -0.16671 -0.5893
-0.016815 -0.066646 0.434 0.76423 -0.16073 -0.6246
-0.016777 -0.065691 0.433 0.72237 -0.14706 -0.67569
-0.016738 -0.06474 0.432 0.68831 -0.14319 -0.71115
-0.016699 -0.063793 0.431 0.65269 -0.12537 -0.74718
-0.016661 -0.062849 0.43 0.61866 -0.11394 -0.77735
-0.016622 -0.061909 0.429 0.57343 -0.099287 -0.81321
-0.016622 -0.061116 0.429 0.56142 -0.11517 -0.81948
-0.016583 -0.060181 0.428 0.50671 -0.10359 -0.85587
-0.016583 -0.059389 0.428 0.46988 -0.11509 -0.87519
-0.016583 -0.058598 0.428 0.42499 -0.11064 -0.89841
-0.016544 -0.057671 0.427 0.37047 -0.11189 -0.92208
-0.016544 -0.056881 0.427 0.33714 -0.1163 -0.93424
-0.016544 -0.056091 0.427 0.30768 -0.12628 -0.94307
-0.016544 -0.055301 0.427 0.28595 -0.12718 -0.94977
-0.016506 -0.054383 0.426 0.27571 -0.14644 -0.95002
-0.016506 -0.053595 0.426 0.2737 -0.15042 -0.94998
-0.016506 -0.052807 0.426 0.28077 -0.15687 -0.94687
-0.016506 -0.052019 0.426 0.28167 -0.17605 -0.94322
-0.016506 -0.05123 0.426 0.28726 -0.18999 -0.93882
-0.016467 -0.050324 0.425 0.2881 -0.2017 -0.93612
-0.016467 -0.049537 0.425 0.27827 -0.21452 -0.93624
-0.016467 -0.048751 0.425 0.26366 -0.22945 -0.93693
-0.016467 -0.047965 0.425 0.24573 -0.23616 -0.94013
-0.016428 -0.047068 0.424 0.23162 -0.24684 -0.94097
-0.016428 -0.046283 0.424 0.20669 -0.25292 -0.94515
-0.016428 -0.045499 0.424 0.17794 -0.25063 -0.95159
-0.016428 -0.044714 0.424 0.14763 -0.24907 -0.95717
-0.016428 -0.04393 0.424 0.11391 -0.24544 -0.9627
-0.016389 -0.043043 0.423 0.074926 -0.23439 -0.96925
-0.016389 -0.042261 0.423 0.03922 -0.22026 -0.97465
-0.016428 -0.040792 0.424 -0.034358 -0.16612 -0.98551
-0.016428 -0.040007 0.424 -0.082184 -0.15354 -0.98472
-0.016428 -0.039223 0.424 -0.13166 -0.1406 -0.98127
-0.016428 -0.038438 0.424 -0.17859 -0.1153 -0.97715
-0.016428 -0.037654 0.424 -0.20383 -0.094447 -0.97444
-0.016428 -0.03687 0.424 -0.21778 -0.084003 -0.97238
-0.016428 -0.036085 0.424 -0.24399 -0.081446 -0.96635
-0.016467 -0.035384 0.425 -0.26258 -0.075827 -0.96193
-0.016467 -0.034598 0.425 -0.27409 -0.063541 -0.9596
-0.016467 -0.033811 0.425 -0.26766 -0.054598 -0.96196
-0.016467 -0.033025 0.425 -0.24964 -0.054871 -0.96678
-0.016506 -0.032315 0.426 -0.20941 -0.055279 -0.97626
-0.016506 -0.031526 0.426 -0.17682 -0.040217 -0.98342
-0.016506 -0.030738 0.426 -0.12415 -0.013525 -0.99217
-0.016506 -0.02995 0.426 -0.052501 -0.0041885 -0.99861
-0.016506 -0.029162 0.426 0.053546 0.01047 -0.99851
-0.016506 -0.028374 0.426 0.16281 0.029989 -0.9862
-0.016506 -0.027586 0.426 0.24327 0.060904 -0.96804
-0.016506 -0.026797 0.426 0.31422 0.083297 -0.94569
-0.016467 -0.025948 0.425 0.36257 0.09356 -0.92725
-0.016467 -0.025162 0.425 0.3873 0.10113 -0.91639
-0.016428 -0.024318 0.424 0.39503 0.11049 -0.912
-0.016428 -0.023534 0.424 0.38317 0.11965 -0.9159
-0.016428 -0.022749 0.424 0.35817 0.13528 -0.9238
-0.016389 -0.021913 0.423 0.32051 0.13854 -0.93706
-0.016389 -0.02113 0.423 0.271 0.14668 -0.95134
-0.016389 -0.020348 0.423 0.20234 0.1352 -0.96994
-0.016389 -0.019565 0.423 0.13023 0.1226 -0.98387
-0.016351 -0.018738 0.422 0.065305 0.10504 -0.99232
-0.016351 -0.017957 0.422 0.0084539 0.093789 -0.99556
-0.016389 -0.017217 0.423 -0.075742 0.086023 -0.99341
-0.016389 -0.016435 0.423 -0.15031 0.075988 -0.98571
-0.016389 -0.015652 0.423 -0.2018 0.065016 -0.97727
-0.016389 -0.01487 0.423 -0.27246 0.063871 -0.96005
-0.016389 -0.014087 0.423 -0.30699 0.048179 -0.95049
-0.016428 -0.013336 0.424 -0.33238 0.046643 -0.94199
-0.016428 -0.012551 0.424 -0.35256 0.043332 -0.93479
-0.016428 -0.011767 0.424 -0.38874 0.051365 -0.91992
-0.016467 -0.011008 0.425 -0.40633 0.065139 -0.9114
-0.016467 -0.010222 0.425 -0.41008 0.073572 -0.90908
-0.016467 -0.0094357 0.425 -0.40984 0.081168 -0.90854
-0.016506 -0.0086698 0.426 -0.43466 0.083683 -0.8967
-0.016506 -0.0078816 0.426 -0.44284 0.087948 -0.89228
-0.016506 -0.0070934 0.426 -0.43551 0.10037 -0.89457
-0.016544 -0.0063201 0.427 -0.4501 0.091071 -0.88832
-0.016544 -0.0055301 0.427 -0.45759 0.10438 -0.88301
-0.016583 -0.0047512 0.428 -0.47569 0.098524 -0.87408
-0.016583 -0.0039593 0.428 -0.48403 0.099804 -0.86934
-0.016583 -0.0031674 0.428 -0.50133 0.095142 -0.86001
-0.016622 -0.0023811 0.429 -0.52665 0.080189 -0.84629
-0.016622 -0.0015874 0.429 -0.54386 0.072255 -0.83606
-0.016661 -0.00079556 0.43 -0.56154 0.056599 -0.82551
-0.016699 0 0.431 -0.59036 0.047599 -0.80573
-0.016699 0.00079741 0.431 -0.62028 0.042212 -0.78324
-0.016738 0.0015985 0.432 -0.64193 0.029314 -0.7662
-0.016738 0.0023978 0.432 -0.65022 0.029045 -0.75919
-0.016777 0.0032044 0.433 -0.65889 0.02017 -0.75197
-0.016815 0.0040148 0.434 -0.65674 0.017071 -0.75392
-0.016854 0.0048289 0.435 -0.65105 0.0062353 -0.75901
-0.016893 0.0056466 0.436 -0.65155 0.0023316 -0.7586
-0.016893 0.0064533 0.436 -0.66513 0.0022951 -0.74672
-0.016932 0.0072766 0.437 -0.67601 0.0015065 -0.73689
-0.016932 0.0080851 0.437 -0.65773 0.0010058 -0.75325
-0.01697 0.008914 0.438 -0.67999 0.014205 -0.73309
-0.017009 0.0097465 0.439 -0.68478 0.009639 -0.72869
-0.017048 0.010583 0.44 -0.68437 0.0037011 -0.72912
-0.017087 0.011423 0.441 -0.67732 -0.010584 -0.73562
-0.017125 0.012266 0.442 -0.64612 -0.028791 -0.76269
-0.017125 0.013084 0.442 -0.66476 -0.034692 -0.74625
-0.017164 0.013933 0.443 -0.64245 -0.035507 -0.76551
-0.017164 0.014753 0.443 -0.62245 -0.047171 -0.78124
-0.017203 0.015608 0.444 -0.63801 -0.026402 -0.76957
-0.017242 0.016466 0.445 -0.66859 -0.016012 -0.74346
-0.01728 0.017328 0.446 -0.71926 -0.031287 -0.69404
-0.01728 0.018154 0.446 -0.65181 -0.020922 -0.75809
-0.017358 0.019064 0.448 -0.77657 -0.023272 -0.62961
-0.017435 0.019981 0.45 -0.88975 -0.033573 -0.45521
-0.017552 0.020953 0.453 -0.72212 -0.245 -0.64693
-0.017629 0.021887 0.455 -0.52645 -0.23587 -0.81683
-0.015978 -0.065691 0.433 0.70655 -0.16916 -0.68714
-0.015941 -0.06474 0.432 0.67525 -0.16532 -0.71882
-0.015904 -0.063793 0.431 0.64643 -0.1462 -0.74883
-0.015867 -0.062849 0.43 0.61662 -0.13326 -0.7759
-0.015867 -0.062054 0.43 0.61104 -0.15465 -0.77635
-0.01583 -0.061116 0.429 0.55982 -0.13465 -0.8176
-0.01583 -0.060322 0.429 0.52005 -0.14431 -0.84186
-0.015793 -0.059389 0.428 0.46646 -0.13101 -0.87479
-0.015793 -0.058598 0.428 0.42465 -0.13181 -0.89571
-0.015756 -0.057671 0.427 0.37274 -0.13447 -0.91814
-0.015756 -0.056881 0.427 0.33292 -0.13378 -0.93342
-0.015756 -0.056091 0.427 0.3016 -0.14299 -0.94265
-0.015756 -0.055301 0.427 0.28351 -0.14285 -0.94827
-0.015756 -0.054511 0.427 0.27207 -0.15305 -0.95003
-0.01572 -0.053595 0.426 0.26523 -0.15371 -0.95185
-0.01572 -0.052807 0.426 0.27235 -0.16017 -0.94877
-0.01572 -0.052019 0.426 0.26987 -0.17379 -0.94708
-0.01572 -0.05123 0.426 0.26823 -0.18823 -0.94479
-0.015683 -0.050324 0.425 0.27277 -0.19981 -0.9411
-0.015683 -0.049537 0.425 0.26751 -0.21144 -0.94007
-0.015683 -0.048751 0.425 0.25842 -0.22512 -0.93943
-0.015683 -0.047965 0.425 0.24118 -0.23458 -0.9417
-0.015683 -0.047179 0.425 0.22749 -0.24469 -0.94254
-0.015646 -0.046283 0.424 0.21443 -0.25063 -0.94404
-0.015646 -0.045499 0.424 0.19147 -0.25092 -0.94888
-0.015646 -0.044714 0.424 0.1663 -0.24927 -0.95405
-0.015646 -0.04393 0.424 0.137 -0.24187 -0.96059
-0.015646 -0.043145 0.424 0.095167 -0.2296 -0.96862
-0.015646 -0.042361 0.424 0.054648 -0.21079 -0.976
-0.015646 -0.041576 0.424 0.019713 -0.18728 -0.98211
-0.015646 -0.040792 0.424 -0.012513 -0.16014 -0.98702
-0.015646 -0.040007 0.424 -0.065692 -0.14662 -0.98701
-0.015646 -0.039223 0.424 -0.12165 -0.12857 -0.98421
-0.015646 -0.038438 0.424 -0.17086 -0.10017 -0.98019
-0.015646 -0.037654 0.424 -0.19418 -0.08034 -0.97767
-0.015646 -0.03687 0.424 -0.21205 -0.074937 -0.97438
-0.015683 -0.03617 0.425 -0.24173 -0.071199 -0.96773
-0.015683 -0.035384 0.425 -0.26469 -0.063715 -0.96223
-0.015683 -0.034598 0.425 -0.27517 -0.054478 -0.95985
-0.015683 -0.033811 0.425 -0.26867 -0.049542 -0.96196
-0.015683 -0.033025 0.425 -0.24588 -0.049854 -0.96802
-0.01572 -0.032315 0.426 -0.20061 -0.05027 -0.97838
-0.01572 -0.031526 0.426 -0.16883 -0.035118 -0.98502
-0.01572 -0.030738 0.426 -0.11283 -0.010418 -0.99356
-0.01572 -0.02995 0.426 -0.033628 -0.0052399 -0.99942
-0.01572 -0.029162 0.426 0.078613 0.010453 -0.99685
-0.01572 -0.028374 0.426 0.18587 0.031923 -0.98206
-0.01572 -0.027586 0.426 0.267 0.059506 -0.96186
-0.01572 -0.026797 0.426 0.33123 0.077895 -0.94033
-0.015683 -0.025948 0.425 0.37713 0.085298 -0.92222
-0.015683 -0.025162 0.425 0.39914 0.089198 -0.91254
-0.015646 -0.024318 0.424 0.40764 0.097564 -0.90791
-0.015646 -0.023534 0.424 0.39099 0.10975 -0.91383
-0.015609 -0.022696 0.423 0.3611 0.12491 -0.92412
-0.015609 -0.021913 0.423 0.32106 0.12589 -0.93866
-0.015609 -0.02113 0.423 0.26947 0.13789 -0.95309
-0.015609 -0.020348 0.423 0.19853 0.13028 -0.9714
-0.015609 -0.019565 0.423 0.11899 0.1197 -0.98565
