0.029989 -0.048955 0.378 -0.516 -0.23318 -0.82424
0.029989 -0.048255 0.378 -0.50019 -0.19354 -0.84401
0.030068 -0.047682 0.379 -0.55869 -0.22914 -0.79709
0.030148 -0.047105 0.38 -0.57448 -0.26207 -0.77543
0.030227 -0.046524 0.381 -0.57388 -0.28935 -0.76612
0.030306 -0.045939 0.382 -0.55159 -0.30305 -0.77712
0.030306 -0.045232 0.382 -0.51119 -0.31614 -0.79921
0.030306 -0.044525 0.382 -0.44338 -0.34034 -0.8292
0.030386 -0.043933 0.383 -0.36219 -0.35313 -0.86262
0.030386 -0.043225 0.383 -0.29226 -0.35966 -0.88613
0.030386 -0.042516 0.383 -0.2177 -0.35795 -0.90801
0.030386 -0.041808 0.383 -0.18658 -0.35289 -0.91687
0.030386 -0.041099 0.383 -0.15157 -0.34657 -0.9257
0.030465 -0.040496 0.384 -0.13868 -0.34359 -0.92882
0.030465 -0.039785 0.384 -0.13376 -0.33618 -0.93225
0.030465 -0.039075 0.384 -0.14163 -0.32811 -0.93396
0.030465 -0.038364 0.384 -0.16763 -0.31805 -0.93314
0.030465 -0.037654 0.384 -0.19852 -0.3094 -0.92998
0.030465 -0.036944 0.384 -0.23109 -0.29937 -0.92573
0.030465 -0.036233 0.384 -0.2641 -0.28267 -0.92214
0.030544 -0.035615 0.385 -0.30275 -0.28501 -0.90946
0.030544 -0.034903 0.385 -0.3297 -0.27173 -0.90413
0.030544 -0.034191 0.385 -0.3446 -0.25319 -0.90396
0.030544 -0.033478 0.385 -0.33381 -0.22151 -0.91624
0.030624 -0.032851 0.386 -0.41497 -0.27313 -0.86787
0.030624 -0.032137 0.386 -0.40288 -0.23222 -0.8853
0.030624 -0.031423 0.386 -0.39357 -0.15679 -0.90582
0.030703 -0.030788 0.387 -0.47472 -0.25956 -0.84099
0.030703 -0.030072 0.387 -0.45599 -0.16661 -0.87425
0.030782 -0.029432 0.388 -0.51907 -0.29246 -0.80314
0.030782 -0.028714 0.388 -0.5222 -0.18938 -0.83153
0.030862 -0.028068 0.389 -0.51863 -0.33779 -0.78545
0.03102 -0.025319 0.391 -0.44634 -0.44758 -0.77489
0.03102 -0.024596 0.391 -0.40702 -0.37624 -0.83233
0.031972 -0.022368 0.403 -0.087003 -0.57988 -0.81004
0.031972 -0.021623 0.403 -0.088787 -0.56586 -0.81971
0.031972 -0.01864 0.403 -0.11652 -0.50522 -0.85509
0.031972 -0.017895 0.403 -0.13565 -0.47823 -0.8677
0.031972 -0.017149 0.403 -0.13955 -0.44592 -0.88413
0.031972 -0.016403 0.403 -0.14763 -0.40994 -0.90009
0.032052 -0.015697 0.404 -0.20239 -0.57241 -0.7946
0.032052 -0.014949 0.404 -0.23857 -0.53194 -0.81248
0.036574 0.0085291 0.461 0.55839 -0.11211 -0.82197
0.036494 0.0093617 0.46 0.47327 -0.13362 -0.87072
0.036415 0.01104 0.459 0.44272 -0.14576 -0.88474
0.036336 0.011863 0.458 0.38072 -0.16502 -0.90985
0.036336 0.01271 0.458 0.38975 -0.17048 -0.905
0.036336 0.013558 0.458 0.36962 -0.16775 -0.91391
0.036256 0.014374 0.457 0.31006 -0.20624 -0.92808
0.036256 0.015219 0.457 0.27563 -0.20169 -0.93987
0.036256 0.016065 0.457 0.20546 -0.20667 -0.95659
0.036256 0.01691 0.457 0.15098 -0.2141 -0.96507
0.036177 0.017717 0.456 0.12892 -0.23515 -0.96337
0.036177 0.018561 0.456 0.097066 -0.21211 -0.97241
0.036177 0.019404 0.456 0.12866 -0.20807 -0.96962
0.036256 0.020292 0.457 -0.051167 -0.23766 -0.97
0.036256 0.021138 0.457 -0.11732 -0.26387 -0.9574
0.036256 0.021983 0.457 -0.12493 -0.26989 -0.95475
0.036256 0.022829 0.457 -0.089844 -0.26671 -0.95958
0.030768 -0.062407 0.379 0.47768 -0.28716 -0.83028
0.030768 -0.061706 0.379 0.55945 -0.31523 -0.76658
0.030686 -0.060844 0.378 0.4702 -0.29314 -0.83245
0.030686 -0.060144 0.378 0.48131 -0.32375 -0.81457
0.030605 -0.059288 0.377 0.40171 -0.30822 -0.86234
0.030605 -0.05859 0.377 0.36681 -0.34397 -0.86437
0.030524 -0.057739 0.376 0.29341 -0.34542 -0.8914
0.030524 -0.057043 0.376 0.23135 -0.3717 -0.89906
0.030524 -0.056348 0.376 0.13548 -0.37482 -0.91715
0.030524 -0.055652 0.376 0.03852 -0.38084 -0.92384
0.030524 -0.054957 0.376 -0.046286 -0.37696 -0.92507
0.030524 -0.054261 0.376 -0.13694 -0.36818 -0.91961
0.030524 -0.053565 0.376 -0.22222 -0.35024 -0.90992
0.030605 -0.05301 0.377 -0.30325 -0.33413 -0.89241
0.030605 -0.052313 0.377 -0.36024 -0.33343 -0.87124
0.030605 -0.051615 0.377 -0.38254 -0.32792 -0.86379
0.030686 -0.051053 0.378 -0.42488 -0.32741 -0.84397
0.030686 -0.050353 0.378 -0.45572 -0.32579 -0.82836
0.030686 -0.049654 0.378 -0.47613 -0.31421 -0.82132
0.030768 -0.049084 0.379 -0.53125 -0.31866 -0.785
0.030768 -0.048383 0.379 -0.53813 -0.29672 -0.7889
0.030768 -0.047682 0.379 -0.53503 -0.2634 -0.80272
0.030849 -0.047105 0.38 -0.55663 -0.32482 -0.76462
0.03093 -0.046524 0.381 -0.55816 -0.36931 -0.74301
0.031011 -0.045939 0.382 -0.53478 -0.37576 -0.75684
0.031011 -0.045232 0.382 -0.49254 -0.38473 -0.78063
0.031092 -0.044642 0.383 -0.41147 -0.39467 -0.82154
0.031092 -0.043933 0.383 -0.34342 -0.39706 -0.85112
0.031092 -0.043225 0.383 -0.27218 -0.39331 -0.8782
0.031092 -0.042516 0.383 -0.19712 -0.38578 -0.90129
0.031173 -0.041917 0.384 -0.16723 -0.37178 -0.91314
0.031173 -0.041206 0.384 -0.14069 -0.36413 -0.92066
0.031173 -0.040496 0.384 -0.13155 -0.35807 -0.92438
0.031173 -0.039785 0.384 -0.13002 -0.34685 -0.92887
0.031173 -0.039075 0.384 -0.14133 -0.33391 -0.93195
0.031173 -0.038364 0.384 -0.17008 -0.3295 -0.92871
0.031173 -0.037654 0.384 -0.20365 -0.3245 -0.9237
0.031173 -0.036944 0.384 -0.23479 -0.31023 -0.92121
0.031255 -0.036327 0.385 -0.27429 -0.30739 -0.91119
0.031255 -0.035615 0.385 -0.30079 -0.30207 -0.90459
0.031255 -0.034903 0.385 -0.3104 -0.28423 -0.90712
0.031255 -0.034191 0.385 -0.30468 -0.25746 -0.917
0.031336 -0.033565 0.386 -0.38834 -0.31106 -0.86743
0.031336 -0.032851 0.386 -0.38048 -0.27126 -0.88411
0.031336 -0.032137 0.386 -0.35936 -0.21286 -0.9086
0.031336 -0.031423 0.386 -0.34358 -0.12338 -0.93098
0.032797 -0.018686 0.404 -0.083459 -0.60996 -0.78803
0.032797 -0.017939 0.404 -0.10443 -0.5909 -0.79996
0.032797 -0.017191 0.404 -0.12183 -0.56749 -0.81432
0.032797 -0.016444 0.404 -0.154 -0.53103 -0.83324
0.032797 -0.015697 0.404 -0.18644 -0.49008 -0.85151
0.032797 -0.014949 0.404 -0.21142 -0.44058 -0.87247
0.037506 0.0076929 0.462 0.61014 -0.16901 -0.77405
0.037343 0.0093617 0.46 0.43881 -0.18775 -0.87874
0.037262 0.01104 0.459 0.40923 -0.20181 -0.88983
0.037262 0.011889 0.459 0.42315 -0.18926 -0.88607
0.037181 0.013558 0.458 0.34594 -0.23216 -0.90908
0.037181 0.014405 0.458 0.32096 -0.23579 -0.91727
0.037181 0.015253 0.458 0.26325 -0.23898 -0.93466
0.0371 0.016065 0.457 0.18595 -0.26967 -0.94483
0.037018 0.016873 0.456 0.13983 -0.29478 -0.94528
0.037018 0.017717 0.456 0.12678 -0.28823 -0.94913
0.037018 0.018561 0.456 0.1094 -0.26251 -0.95871
0.0371 0.019447 0.457 0.034302 -0.28525 -0.95784
0.0371 0.020292 0.457 -0.020111 -0.2899 -0.95684
0.0371 0.021138 0.457 -0.059543 -0.3084 -0.94939
0.0371 0.021983 0.457 -0.050682 -0.30745 -0.95021
0.03155 -0.062572 0.38 0.5886 -0.3476 -0.72988
0.031467 -0.061706 0.379 0.50259 -0.33802 -0.7957
0.031467 -0.061005 0.379 0.53314 -0.35858 -0.76628
0.031384 -0.060144 0.378 0.44273 -0.34564 -0.82736
0.031384 -0.059445 0.378 0.43005 -0.37404 -0.82168
0.031301 -0.05859 0.377 0.34013 -0.37379 -0.8629
0.031301 -0.057893 0.377 0.29777 -0.39887 -0.86731
0.031301 -0.057195 0.377 0.221 -0.40824 -0.88572
0.031301 -0.056498 0.377 0.1297 -0.41152 -0.90212
0.031218 -0.055652 0.376 0.043236 -0.41823 -0.90731
0.031301 -0.055103 0.377 -0.043257 -0.41196 -0.91017
0.031218 -0.054261 0.376 -0.12396 -0.40739 -0.9048
0.031301 -0.053708 0.377 -0.20519 -0.39652 -0.8948
0.031301 -0.05301 0.377 -0.28454 -0.38666 -0.87723
0.031301 -0.052313 0.377 -0.33696 -0.38192 -0.86058
0.031301 -0.051615 0.377 -0.34754 -0.37842 -0.85791
0.031384 -0.051053 0.378 -0.40085 -0.3865 -0.83062
0.031384 -0.050353 0.378 -0.43321 -0.37309 -0.82045
0.031467 -0.049785 0.379 -0.48134 -0.38943 -0.78528
0.031467 -0.049084 0.379 -0.51258 -0.36546 -0.77698
0.031467 -0.048383 0.379 -0.51035 -0.32761 -0.79512
0.03155 -0.047808 0.38 -0.54986 -0.38363 -0.74194
0.031633 -0.047228 0.381 -0.55449 -0.41931 -0.71883
0.031716 -0.046646 0.382 -0.5403 -0.43001 -0.7233
0.031799 -0.046059 0.383 -0.47898 -0.41223 -0.77501
0.031799 -0.045351 0.383 -0.44825 -0.42863 -0.78444
0.031799 -0.044642 0.383 -0.39474 -0.43996 -0.80661
0.031799 -0.043933 0.383 -0.32555 -0.4371 -0.83843
0.031882 -0.043338 0.384 -0.25509 -0.43336 -0.86436
0.031882 -0.042627 0.384 -0.18429 -0.42227 -0.88754
0.031882 -0.041917 0.384 -0.15429 -0.4082 -0.89976
0.031882 -0.041206 0.384 -0.12803 -0.40097 -0.9071
0.031882 -0.040496 0.384 -0.11395 -0.39187 -0.91294
0.031882 -0.039785 0.384 -0.11387 -0.3728 -0.9209
0.031882 -0.039075 0.384 -0.12716 -0.36108 -0.92382
0.031882 -0.038364 0.384 -0.15888 -0.35756 -0.92028
0.031882 -0.037654 0.384 -0.19647 -0.35139 -0.91538
0.031965 -0.03704 0.385 -0.23209 -0.34239 -0.91044
0.031965 -0.036327 0.385 -0.26257 -0.33067 -0.90649
0.031965 -0.035615 0.385 -0.2833 -0.31544 -0.90567
0.031965 -0.034903 0.385 -0.27586 -0.28752 -0.91719
0.032048 -0.034279 0.386 -0.36468 -0.33908 -0.8672
0.032048 -0.033565 0.386 -0.35641 -0.30774 -0.8822
0.032048 -0.032851 0.386 -0.33471 -0.25831 -0.90623
0.032048 -0.032137 0.386 -0.3059 -0.18991 -0.93293
0.033625 -0.016485 0.405 -0.13536 -0.61799 -0.77444
0.038358 0.0076929 0.462 0.57923 -0.21935 -0.7851
0.038275 0.0085291 0.461 0.4966 -0.21641 -0.84057
0.038192 0.0093617 0.46 0.39105 -0.23484 -0.8899
0.038192 0.010213 0.46 0.46167 -0.22552 -0.8579
0.038109 0.011889 0.459 0.39724 -0.24237 -0.88513
0.038026 0.01271 0.458 0.34581 -0.28051 -0.89539
0.038026 0.013558 0.458 0.33457 -0.28646 -0.89778
0.038026 0.014405 0.458 0.30684 -0.28869 -0.90692
0.038026 0.015253 0.458 0.24828 -0.29041 -0.92413
0.037943 0.016065 0.457 0.18671 -0.3038 -0.93426
0.037943 0.01691 0.457 0.14149 -0.3057 -0.94156
0.037943 0.017756 0.457 0.11629 -0.3056 -0.94503
0.037943 0.018601 0.457 0.078382 -0.29907 -0.95101
0.037943 0.019447 0.457 0.069238 -0.301 -0.95111
0.037943 0.020292 0.457 0.03795 -0.30636 -0.95116
0.037943 0.021138 0.457 0.017233 -0.32094 -0.94694
0.032251 -0.061869 0.38 0.5872 -0.38608 -0.71144
0.032166 -0.061005 0.379 0.46838 -0.3996 -0.788
0.032081 -0.060144 0.378 0.38395 -0.38854 -0.83763
0.032081 -0.059445 0.378 0.39733 -0.41058 -0.8207
0.032081 -0.058746 0.378 0.36273 -0.43042 -0.82654
0.031996 -0.057893 0.377 0.28695 -0.43323 -0.85438
0.031996 -0.057195 0.377 0.22601 -0.44872 -0.86462
0.031996 -0.056498 0.377 0.13365 -0.45814 -0.87877
0.031996 -0.0558 0.377 0.04624 -0.46426 -0.88449
0.031996 -0.055103 0.377 -0.035781 -0.46282 -0.88573
0.031996 -0.054405 0.377 -0.11816 -0.45987 -0.88009
0.031996 -0.053708 0.377 -0.19683 -0.44836 -0.87191
0.031996 -0.05301 0.377 -0.27028 -0.43073 -0.86106
0.032081 -0.052451 0.378 -0.33662 -0.43905 -0.83302
0.032081 -0.051752 0.378 -0.36491 -0.44043 -0.82028
0.032081 -0.051053 0.378 -0.38943 -0.43484 -0.81195
0.032166 -0.050487 0.379 -0.44161 -0.44408 -0.7796
0.032166 -0.049785 0.379 -0.46188 -0.42965 -0.77593
0.032166 -0.049084 0.379 -0.48697 -0.38877 -0.78213
0.032251 -0.048511 0.38 -0.53609 -0.43119 -0.72573
0.032251 -0.047808 0.38 -0.52517 -0.40888 -0.74633
0.032336 -0.047228 0.381 -0.54015 -0.46008 -0.70467
0.032421 -0.046646 0.382 -0.52262 -0.47912 -0.70521
0.032506 -0.046059 0.383 -0.4725 -0.46932 -0.74598
0.032506 -0.045351 0.383 -0.42602 -0.48169 -0.76582
0.032506 -0.044642 0.383 -0.36599 -0.48422 -0.79472
0.03259 -0.044048 0.384 -0.29389 -0.47624 -0.82875
0.03259 -0.043338 0.384 -0.22547 -0.4666 -0.85525
0.03259 -0.042627 0.384 -0.15761 -0.45316 -0.87738
0.03259 -0.041917 0.384 -0.13302 -0.43424 -0.89092
0.03259 -0.041206 0.384 -0.11427 -0.4234 -0.89871
0.03259 -0.040496 0.384 -0.10877 -0.41069 -0.90526
0.03259 -0.039785 0.384 -0.1117 -0.39466 -0.91201
0.03259 -0.039075 0.384 -0.129 -0.38485 -0.91392
0.032675 -0.038464 0.385 -0.15924 -0.37689 -0.91247
0.032675 -0.037752 0.385 -0.19588 -0.36533 -0.91004
0.032675 -0.03704 0.385 -0.22841 -0.35754 -0.90554
0.032675 -0.036327 0.385 -0.25465 -0.34515 -0.90334
0.032675 -0.035615 0.385 -0.26655 -0.32359 -0.90788
0.032675 -0.034903 0.385 -0.23752 -0.29376 -0.9259
0.03276 -0.034279 0.386 -0.32871 -0.33549 -0.88283
0.03276 -0.033565 0.386 -0.30578 -0.30029 -0.90351
0.03276 -0.032851 0.386 -0.2735 -0.24925 -0.92902
0.032845 -0.03222 0.387 -0.41587 -0.32903 -0.84782
0.034373 -0.016485 0.405 -0.16221 -0.53407 -0.82973
0.039125 0.0085291 0.461 0.43425 -0.25862 -0.86287
0.039041 0.0093617 0.46 0.31813 -0.26137 -0.9113
0.039041 0.010213 0.46 0.40432 -0.27669 -0.87176
0.038871 0.01271 0.458 0.32621 -0.3094 -0.89323
0.038871 0.013558 0.458 0.31118 -0.3309 -0.89088
0.038871 0.014405 0.458 0.2857 -0.34342 -0.89467
0.038871 0.015253 0.458 0.23864 -0.35467 -0.90403
0.038871 0.0161 0.458 0.17794 -0.35426 -0.91806
0.038786 0.01691 0.457 0.16052 -0.33518 -0.92838
0.038786 0.017756 0.457 0.15138 -0.32133 -0.93479
0.038786 0.018601 0.457 0.12984 -0.31104 -0.94149
0.038871 0.019489 0.458 -0.042995 -0.39575 -0.91735
0.038871 0.020337 0.458 -0.095377 -0.41086 -0.9067
0.038871 0.021184 0.458 -0.13277 -0.41856 -0.89843
0.038871 0.022031 0.458 -0.13896 -0.41362 -0.89978
0.032865 -0.061005 0.379 0.37716 -0.43577 -0.81722
0.032865 -0.060303 0.379 0.43189 -0.44051 -0.78703
0.032779 -0.059445 0.378 0.35041 -0.44547 -0.82388
0.032779 -0.058746 0.378 0.34219 -0.4679 -0.81485
0.032779 -0.058046 0.378 0.29961 -0.48339 -0.82254
0.032779 -0.057347 0.378 0.23187 -0.49703 -0.83618
0.032692 -0.056498 0.377 0.12999 -0.50075 -0.85578
0.032692 -0.0558 0.377 0.053987 -0.51196 -0.85731
0.032692 -0.055103 0.377 -0.029524 -0.51473 -0.85684
0.032692 -0.054405 0.377 -0.11445 -0.51008 -0.85248
0.032692 -0.053708 0.377 -0.18066 -0.49446 -0.85022
0.032779 -0.053151 0.378 -0.26987 -0.49128 -0.82814
0.032779 -0.052451 0.378 -0.32542 -0.48559 -0.81136
0.032779 -0.051752 0.378 -0.351 -0.47807 -0.80514
0.032865 -0.051188 0.379 -0.40561 -0.49143 -0.7707
0.032865 -0.050487 0.379 -0.42582 -0.47535 -0.76989
0.032865 -0.049785 0.379 -0.43821 -0.4482 -0.77916
0.032952 -0.049214 0.38 -0.51537 -0.474 -0.71394
0.032952 -0.048511 0.38 -0.51347 -0.44691 -0.73254
0.033039 -0.047933 0.381 -0.54091 -0.48443 -0.68756
0.033125 -0.047352 0.382 -0.53069 -0.51012 -0.67687
0.033125 -0.046646 0.382 -0.50749 -0.51503 -0.6908
0.033212 -0.046059 0.383 -0.46129 -0.51949 -0.71926
0.033299 -0.045469 0.384 -0.37041 -0.51049 -0.77601
0.033299 -0.044759 0.384 -0.32181 -0.51977 -0.79137
0.033299 -0.044048 0.384 -0.26817 -0.51785 -0.81235
0.033299 -0.043338 0.384 -0.20461 -0.50376 -0.83926
0.033386 -0.042738 0.385 -0.13858 -0.48567 -0.86309
0.033386 -0.042026 0.385 -0.11717 -0.4684 -0.87571
0.033386 -0.041314 0.385 -0.096767 -0.45581 -0.8848
0.033386 -0.040601 0.385 -0.090371 -0.44128 -0.89281
0.033386 -0.039889 0.385 -0.094264 -0.4251 -0.90022
0.033386 -0.039177 0.385 -0.11453 -0.41389 -0.9031
0.033386 -0.038464 0.385 -0.14916 -0.40329 -0.90283
0.033386 -0.037752 0.385 -0.18454 -0.39211 -0.90122
0.033386 -0.03704 0.385 -0.21452 -0.38102 -0.89933
0.033386 -0.036327 0.385 -0.23831 -0.36468 -0.90012
0.033386 -0.035615 0.385 -0.23634 -0.3399 -0.91028
0.033472 -0.034994 0.386 -0.2888 -0.35776 -0.88803
0.033472 -0.034279 0.386 -0.27527 -0.34228 -0.89837
0.033472 -0.033565 0.386 -0.235 -0.31038 -0.92111
0.033472 -0.032851 0.386 -0.18245 -0.25835 -0.94867
0.040063 0.0085476 0.462 0.5454 -0.31736 -0.77577
0.039976 0.0093821 0.461 0.4418 -0.3173 -0.83913
0.039889 0.010213 0.46 0.32621 -0.32965 -0.88595
0.039889 0.011064 0.46 0.38964 -0.33235 -0.85891
0.039803 0.011889 0.459 0.32912 -0.33746 -0.88193
0.039803 0.012738 0.459 0.34185 -0.35644 -0.86954
0.039716 0.013558 0.458 0.26741 -0.38352 -0.88397
0.039716 0.014405 0.458 0.25168 -0.39496 -0.88355
0.039716 0.015253 0.458 0.22214 -0.39937 -0.88947
0.039716 0.0161 0.458 0.17769 -0.39961 -0.8993
0.039716 0.016947 0.458 0.13092 -0.40323 -0.90568
0.039716 0.017795 0.458 0.10061 -0.3999 -0.91102
0.039716 0.018642 0.458 0.06222 -0.40747 -0.9111
0.039716 0.019489 0.458 0.028829 -0.41248 -0.91051
0.039716 0.020337 0.458 0.00088852 -0.42315 -0.90606
0.039716 0.021184 0.458 -0.018093 -0.42445 -0.90527
0.033653 -0.061166 0.38 0.45457 -0.48095 -0.7497
0.033565 -0.060303 0.379 0.3376 -0.4882 -0.80479
0.033476 -0.059445 0.378 0.27061 -0.47363 -0.83812
0.033476 -0.058746 0.378 0.30986 -0.48905 -0.81536
0.033476 -0.058046 0.378 0.28859 -0.50765 -0.81179
0.033476 -0.057347 0.378 0.23293 -0.52533 -0.8184
0.033476 -0.056648 0.378 0.15253 -0.53582 -0.83044
0.033476 -0.055948 0.378 0.061651 -0.54043 -0.83913
0.033476 -0.055249 0.378 -0.02094 -0.53994 -0.84144
0.033387 -0.054405 0.377 -0.10003 -0.53135 -0.84123
0.033476 -0.05385 0.378 -0.18732 -0.52911 -0.82762
0.033476 -0.053151 0.378 -0.26637 -0.5142 -0.81526
0.033476 -0.052451 0.378 -0.31787 -0.50243 -0.80407
0.033565 -0.051889 0.379 -0.37183 -0.50898 -0.77632
0.033565 -0.051188 0.379 -0.40367 -0.49952 -0.7665
0.033565 -0.050487 0.379 -0.40743 -0.47461 -0.78022
0.033653 -0.049917 0.38 -0.48444 -0.49935 -0.71831
0.033742 -0.049343 0.381 -0.53884 -0.51122 -0.66956
0.033742 -0.048638 0.381 -0.53931 -0.49993 -0.67766
0.03383 -0.048059 0.382 -0.54219 -0.52307 -0.65759
0.03383 -0.047352 0.382 -0.52211 -0.52325 -0.6735
0.033919 -0.046768 0.383 -0.48877 -0.53528 -0.6889
0.034007 -0.046179 0.384 -0.40911 -0.52504 -0.7463
0.034007 -0.045469 0.384 -0.36065 -0.53919 -0.76106
0.034096 -0.044875 0.385 -0.25968 -0.51815 -0.81491
0.034096 -0.044163 0.385 -0.22583 -0.52293 -0.82192
0.034096 -0.043451 0.385 -0.18043 -0.51451 -0.83828
0.034096 -0.042738 0.385 -0.11891 -0.49824 -0.85885
0.034096 -0.042026 0.385 -0.099171 -0.48338 -0.86977
0.034096 -0.041314 0.385 -0.077772 -0.46942 -0.87954
0.034096 -0.040601 0.385 -0.072313 -0.45431 -0.8879
0.034096 -0.039889 0.385 -0.07913 -0.4392 -0.8949
0.034096 -0.039177 0.385 -0.10346 -0.42727 -0.89819
0.034096 -0.038464 0.385 -0.13683 -0.41873 -0.89775
0.034096 -0.037752 0.385 -0.17207 -0.40869 -0.89631
0.034096 -0.03704 0.385 -0.20467 -0.40011 -0.89332
0.034096 -0.036327 0.385 -0.21659 -0.38568 -0.89685
0.034185 -0.035708 0.386 -0.26871 -0.38368 -0.88351
0.034185 -0.034994 0.386 -0.25001 -0.37615 -0.89219
0.034185 -0.034279 0.386 -0.21065 -0.35673 -0.91015
0.034273 -0.033652 0.387 -0.37082 -0.38478 -0.84525
0.040915 0.0085476 0.462 0.46436 -0.38041 -0.79979
0.040827 0.0093821 0.461 0.34697 -0.3837 -0.8558
0.040827 0.010235 0.461 0.40912 -0.40151 -0.81939
0.040738 0.011064 0.46 0.31709 -0.38162 -0.86823
0.040738 0.011915 0.46 0.35532 -0.40124 -0.84425
0.040649 0.012738 0.459 0.28939 -0.41673 -0.86174
0.040649 0.013587 0.459 0.2693 -0.45526 -0.84865
0.040649 0.014437 0.459 0.24241 -0.47648 -0.84511
0.040561 0.015253 0.458 0.19767 -0.42759 -0.8821
0.040561 0.0161 0.458 0.16746 -0.42683 -0.88869
0.040561 0.016947 0.458 0.1283 -0.42937 -0.89397
0.040561 0.017795 0.458 0.13236 -0.41902 -0.89828
0.040561 0.018642 0.458 0.13634 -0.42319 -0.89572
0.040561 0.019489 0.458 0.12511 -0.42729 -0.89542
0.040649 0.020381 0.459 -0.10813 -0.52975 -0.84123
0.040649 0.02123 0.459 -0.12229 -0.52604 -0.84162
0.034535 -0.062901 0.382 0.5926 -0.47972 -0.64706
0.034445 -0.062031 0.381 0.4874 -0.50742 -0.71061
0.034354 -0.061166 0.38 0.33592 -0.53234 -0.77703
0.034354 -0.060463 0.38 0.4015 -0.52457 -0.75075
0.034264 -0.059602 0.379 0.2954 -0.53153 -0.79386
0.034264 -0.058901 0.379 0.31919 -0.53256 -0.7839
0.034173 -0.058046 0.378 0.24922 -0.53045 -0.81025
0.034264 -0.057499 0.379 0.23225 -0.56192 -0.79392
0.034173 -0.056648 0.378 0.14201 -0.56231 -0.81464
0.034173 -0.055948 0.378 0.063302 -0.5662 -0.82183
0.034173 -0.055249 0.378 -0.016596 -0.5666 -0.82383
0.034173 -0.054549 0.378 -0.10419 -0.56029 -0.82172
0.034173 -0.05385 0.378 -0.17612 -0.54552 -0.81938
0.034264 -0.053291 0.379 -0.26772 -0.54053 -0.79759
0.034264 -0.05259 0.379 -0.3266 -0.52933 -0.78303
0.034264 -0.051889 0.379 -0.36213 -0.51451 -0.77727
0.034264 -0.051188 0.379 -0.38287 -0.49541 -0.77973
0.034354 -0.05062 0.38 -0.46201 -0.50826 -0.72679
0.034445 -0.050048 0.381 -0.51052 -0.51983 -0.68495
0.034445 -0.049343 0.381 -0.53071 -0.50416 -0.6813
0.034535 -0.048766 0.382 -0.55049 -0.52641 -0.64796
0.034625 -0.048185 0.383 -0.5361 -0.52767 -0.6589
0.034716 -0.0476 0.384 -0.47427 -0.5024 -0.72295
0.034716 -0.04689 0.384 -0.45039 -0.52723 -0.72054
0.034806 -0.0463 0.385 -0.34387 -0.50454 -0.79196
0.034806 -0.045587 0.385 -0.29392 -0.52548 -0.79842
0.034806 -0.044875 0.385 -0.25175 -0.53178 -0.8086
0.034806 -0.044163 0.385 -0.20378 -0.53064 -0.82274
0.034806 -0.043451 0.385 -0.15406 -0.51472 -0.8434
0.034806 -0.042738 0.385 -0.095362 -0.49651 -0.86278
0.034806 -0.042026 0.385 -0.0762 -0.48127 -0.87326
0.034806 -0.041314 0.385 -0.06246 -0.47072 -0.88007
0.034806 -0.040601 0.385 -0.065926 -0.4602 -0.88536
0.034806 -0.039889 0.385 -0.076742 -0.44677 -0.89135
0.034806 -0.039177 0.385 -0.099722 -0.43922 -0.89283
0.034806 -0.038464 0.385 -0.13275 -0.43335 -0.8914
0.034897 -0.03785 0.386 -0.17294 -0.42806 -0.88705
0.034897 -0.037136 0.386 -0.21604 -0.42113 -0.88089
0.034897 -0.036422 0.386 -0.23485 -0.41359 -0.87965
0.034897 -0.035708 0.386 -0.23655 -0.40091 -0.88505
0.034987 -0.035084 0.387 -0.33653 -0.42053 -0.84255
0.034987 -0.034368 0.387 -0.32544 -0.41502 -0.84962
0.041768 0.0094024 0.462 0.429 -0.45903 -0.77797
0.041677 0.010235 0.461 0.29749 -0.45328 -0.84026
0.041677 0.011088 0.461 0.3666 -0.456 -0.81097
0.041587 0.011915 0.46 0.29577 -0.42857 -0.85373
0.041496 0.012738 0.459 0.23957 -0.3953 -0.88676
0.041496 0.013587 0.459 0.22491 -0.46182 -0.85798
0.041496 0.014437 0.459 0.19929 -0.50533 -0.8396
0.041496 0.015286 0.459 0.17376 -0.50815 -0.84356
0.041496 0.016135 0.459 0.13493 -0.50971 -0.8497
0.041496 0.016984 0.459 0.087804 -0.51891 -0.85031
0.041496 0.017833 0.459 0.07353 -0.51424 -0.85449
0.041496 0.018683 0.459 0.056874 -0.52167 -0.85125
0.041496 0.019532 0.459 0.029188 -0.53296 -0.84564
0.041496 0.020381 0.459 0.025192 -0.54981 -0.83491
0.041496 0.02123 0.459 0.030505 -0.55595 -0.83066
0.03524 -0.062901 0.382 0.49091 -0.5242 -0.69586
0.035148 -0.062031 0.381 0.36724 -0.54587 -0.7531
0.035148 -0.061327 0.381 0.42597 -0.54095 -0.72521
0.035055 -0.060463 0.38 0.2866 -0.54852 -0.78548
0.035055 -0.059759 0.38 0.33574 -0.55352 -0.76216
0.034963 -0.058901 0.379 0.25152 -0.54674 -0.79863
0.034963 -0.0582 0.379 0.25069 -0.56681 -0.78478
0.034963 -0.057499 0.379 0.21461 -0.5815 -0.78473
0.034963 -0.056797 0.379 0.14365 -0.59193 -0.79309
0.034963 -0.056096 0.379 0.070164 -0.59285 -0.80225
0.034963 -0.055395 0.379 -0.0047659 -0.59123 -0.80649
0.034963 -0.054694 0.379 -0.088595 -0.5852 -0.80603
0.034963 -0.053993 0.379 -0.16306 -0.5754 -0.80145
0.034963 -0.053291 0.379 -0.24655 -0.56319 -0.78869
0.034963 -0.05259 0.379 -0.29891 -0.54626 -0.78247
0.035055 -0.052026 0.38 -0.37985 -0.54974 -0.74397
0.035055 -0.051323 0.38 -0.42674 -0.53302 -0.7306
0.035148 -0.050753 0.381 -0.48807 -0.53332 -0.69091
0.035148 -0.050048 0.381 -0.50701 -0.51687 -0.68977
0.03524 -0.049473 0.382 -0.55323 -0.52702 -0.64512
0.035332 -0.048894 0.383 -0.55231 -0.53071 -0.64288
0.035424 -0.048311 0.384 -0.50516 -0.50795 -0.69771
0.035424 -0.0476 0.384 -0.48866 -0.5321 -0.69143
0.035517 -0.047012 0.385 -0.4128 -0.50792 -0.75605
0.035517 -0.0463 0.385 -0.36331 -0.53333 -0.76392
0.035517 -0.045587 0.385 -0.29745 -0.54683 -0.78263
0.035517 -0.044875 0.385 -0.24184 -0.54853 -0.80039
0.035609 -0.044278 0.386 -0.16239 -0.53399 -0.82975
0.035609 -0.043563 0.386 -0.1276 -0.5284 -0.83935
0.035609 -0.042849 0.386 -0.070384 -0.51505 -0.85426
0.035609 -0.042135 0.386 -0.055104 -0.50156 -0.86337
0.035609 -0.041421 0.386 -0.047414 -0.49195 -0.86933
0.035609 -0.040707 0.386 -0.052884 -0.4787 -0.87639
0.035609 -0.039993 0.386 -0.066309 -0.47203 -0.87908
0.035609 -0.039278 0.386 -0.092725 -0.46946 -0.87807
0.035609 -0.038564 0.386 -0.12994 -0.4667 -0.87482
0.035609 -0.03785 0.386 -0.16999 -0.45912 -0.87196
0.035609 -0.037136 0.386 -0.20116 -0.45015 -0.87
0.035609 -0.036422 0.386 -0.20422 -0.44076 -0.87408
0.035701 -0.0358 0.387 -0.28875 -0.44512 -0.84764
0.035701 -0.035084 0.387 -0.27883 -0.43971 -0.85376
0.035701 -0.034368 0.387 -0.2376 -0.4372 -0.86741
0.04262 0.0094024 0.462 0.34112 -0.47131 -0.81333
0.04262 0.010257 0.462 0.37909 -0.50738 -0.77386
0.042528 0.011088 0.461 0.30212 -0.45429 -0.83806
0.042435 0.011915 0.46 0.24515 -0.38096 -0.8915
0.042435 0.012766 0.46 0.26524 -0.44624 -0.85471
0.042435 0.013617 0.46 0.23468 -0.50849 -0.82847
0.042435 0.014468 0.46 0.2032 -0.54672 -0.81229
0.042343 0.015286 0.459 0.17159 -0.46403 -0.86904
0.042343 0.016135 0.459 0.15568 -0.46197 -0.87312
0.042343 0.016984 0.459 0.1276 -0.46403 -0.87658
0.042343 0.017833 0.459 0.13144 -0.46758 -0.87412
0.035945 -0.062194 0.382 0.45433 -0.56458 -0.68908
0.035851 -0.061327 0.381 0.29737 -0.5794 -0.75886
0.035851 -0.060622 0.381 0.35962 -0.5825 -0.72895
0.035756 -0.059759 0.38 0.21909 -0.58205 -0.78308
0.035756 -0.059056 0.38 0.26132 -0.58605 -0.76698
0.035756 -0.058353 0.38 0.24764 -0.6015 -0.75952
0.035756 -0.05765 0.38 0.20447 -0.61668 -0.7602
0.035662 -0.056797 0.379 0.12258 -0.61788 -0.77666
0.035662 -0.056096 0.379 0.058356 -0.62338 -0.77974
0.035662 -0.055395 0.379 -0.0046271 -0.622 -0.783
0.035662 -0.054694 0.379 -0.076503 -0.61416 -0.78547
0.035662 -0.053993 0.379 -0.14156 -0.59806 -0.78885
0.035756 -0.053432 0.38 -0.24225 -0.5994 -0.76291
0.035756 -0.052729 0.38 -0.30608 -0.58389 -0.75193
0.035756 -0.052026 0.38 -0.36174 -0.5609 -0.74467
0.035851 -0.051458 0.381 -0.4429 -0.56033 -0.69991
0.035851 -0.050753 0.381 -0.47217 -0.53596 -0.69986
0.035945 -0.050179 0.382 -0.52483 -0.54187 -0.65645
0.035945 -0.049473 0.382 -0.53703 -0.523 -0.66187
0.036133 -0.049021 0.384 -0.52585 -0.51228 -0.67901
0.036133 -0.048311 0.384 -0.51358 -0.5343 -0.67139
0.036227 -0.047724 0.385 -0.45908 -0.50958 -0.72772
0.036227 -0.047012 0.385 -0.419 -0.533 -0.73509
0.036321 -0.04642 0.386 -0.30529 -0.5107 -0.80373
0.036321 -0.045706 0.386 -0.25242 -0.52938 -0.80996
0.036321 -0.044992 0.386 -0.20244 -0.5375 -0.8186
0.036321 -0.044278 0.386 -0.15091 -0.53817 -0.82922
0.036321 -0.043563 0.386 -0.10842 -0.52892 -0.84172
0.036321 -0.042849 0.386 -0.061436 -0.51681 -0.85389
0.036321 -0.042135 0.386 -0.051976 -0.50536 -0.86134
0.036321 -0.041421 0.386 -0.050258 -0.49718 -0.86619
0.036321 -0.040707 0.386 -0.056523 -0.49019 -0.86978
0.036321 -0.039993 0.386 -0.071558 -0.49048 -0.86851
0.036321 -0.039278 0.386 -0.094604 -0.48877 -0.86727
0.036321 -0.038564 0.386 -0.13306 -0.48888 -0.86214
0.036321 -0.03785 0.386 -0.16809 -0.487 -0.85708
0.036415 -0.037232 0.387 -0.20724 -0.48361 -0.85039
0.036415 -0.036516 0.387 -0.23083 -0.48653 -0.84262
0.036415 -0.0358 0.387 -0.23689 -0.48236 -0.84333
0.036415 -0.035084 0.387 -0.19671 -0.48135 -0.85417
0.036415 -0.034368 0.387 -0.13045 -0.48453 -0.86499
0.036509 -0.033739 0.388 -0.34227 -0.47413 -0.81121
0.036509 -0.033021 0.388 -0.28186 -0.48199 -0.8296
0.043566 0.010279 0.463 0.4178 -0.58652 -0.69385
0.043472 0.011112 0.462 0.34153 -0.53694 -0.7714
0.043378 0.011941 0.461 0.27342 -0.4594 -0.8451
0.043378 0.012794 0.461 0.28127 -0.50725 -0.81461
0.043378 0.013647 0.461 0.24054 -0.56606 -0.78849
0.043378 0.0145 0.461 0.19663 -0.60653 -0.77036
0.043284 0.015319 0.46 0.17379 -0.5262 -0.83241
0.043284 0.01617 0.46 0.13773 -0.53956 -0.8306
0.043284 0.017021 0.46 0.11161 -0.54352 -0.83194
0.043284 0.017872 0.46 0.088353 -0.54528 -0.83358
0.036649 -0.061488 0.382 0.38649 -0.5909 -0.70814
0.036649 -0.060781 0.382 0.42735 -0.60325 -0.6734
0.036554 -0.059917 0.381 0.28539 -0.6009 -0.74664
0.036554 -0.059212 0.381 0.2987 -0.6119 -0.73237
0.036458 -0.058353 0.38 0.18972 -0.60077 -0.77658
0.036458 -0.05765 0.38 0.17353 -0.62081 -0.76452
0.036458 -0.056947 0.38 0.1117 -0.63503 -0.76437
0.036458 -0.056244 0.38 0.046475 -0.64396 -0.76365
0.036458 -0.055541 0.38 -0.014483 -0.64221 -0.76639
0.036458 -0.054838 0.38 -0.08484 -0.63642 -0.76666
0.036458 -0.054135 0.38 -0.15335 -0.63082 -0.76063
0.036458 -0.053432 0.38 -0.22532 -0.61874 -0.75259
0.036458 -0.052729 0.38 -0.28285 -0.59468 -0.75257
0.036554 -0.052163 0.381 -0.37675 -0.59269 -0.71188
0.036554 -0.051458 0.381 -0.42494 -0.56769 -0.70509
0.036649 -0.050886 0.382 -0.49297 -0.56009 -0.6658
0.036649 -0.050179 0.382 -0.51063 -0.5351 -0.673
0.036745 -0.049602 0.383 -0.55194 -0.53999 -0.63543
0.036841 -0.049021 0.384 -0.53545 -0.52299 -0.66315
0.036937 -0.048437 0.385 -0.49262 -0.50214 -0.71077
0.037033 -0.047848 0.386 -0.40806 -0.46408 -0.7862
0.037033 -0.047134 0.386 -0.38042 -0.49973 -0.77817
0.037033 -0.04642 0.386 -0.32514 -0.52371 -0.7874
0.037033 -0.045706 0.386 -0.26132 -0.53433 -0.80387
0.037129 -0.045108 0.387 -0.16537 -0.50307 -0.84828
0.037129 -0.044392 0.387 -0.11566 -0.51092 -0.85181
0.037129 -0.043676 0.387 -0.092551 -0.51292 -0.85343
0.037129 -0.04296 0.387 -0.061507 -0.51147 -0.8571
0.037129 -0.042244 0.387 -0.046829 -0.50674 -0.86083
0.037129 -0.041528 0.387 -0.040923 -0.50465 -0.86235
0.037129 -0.040812 0.387 -0.043912 -0.50459 -0.86224
0.037129 -0.040096 0.387 -0.061662 -0.5078 -0.85926
0.037033 -0.039278 0.386 -0.087519 -0.50779 -0.85702
0.037129 -0.038664 0.387 -0.1284 -0.50529 -0.85334
0.037129 -0.037948 0.387 -0.16533 -0.50826 -0.84518
0.037129 -0.037232 0.387 -0.19869 -0.50884 -0.83762
0.037129 -0.036516 0.387 -0.20708 -0.51353 -0.83271
0.037129 -0.0358 0.387 -0.17489 -0.52017 -0.83597
0.037225 -0.035175 0.388 -0.31232 -0.50809 -0.80269
0.037225 -0.034457 0.388 -0.27788 -0.51677 -0.80977
0.037225 -0.033739 0.388 -0.2188 -0.52988 -0.81936
0.037225 -0.033021 0.388 -0.13833 -0.54554 -0.82659
0.044421 0.011136 0.463 0.37514 -0.58838 -0.7163
0.044325 0.011967 0.462 0.31015 -0.5217 -0.79476
0.044325 0.012821 0.462 0.29243 -0.57038 -0.76756
0.044229 0.013647 0.461 0.22328 -0.47958 -0.84862
0.044229 0.0145 0.461 0.19498 -0.53441 -0.82243
0.044229 0.015352 0.461 0.16829 -0.57085 -0.80362
0.044229 0.016205 0.461 0.11744 -0.59573 -0.79455
0.044229 0.017058 0.461 0.081113 -0.60777 -0.78996
0.044229 0.017911 0.461 0.052511 -0.61771 -0.78465
0.037452 -0.061648 0.383 0.45099 -0.60476 -0.65641
0.037354 -0.060781 0.382 0.33382 -0.59727 -0.72927
0.037354 -0.060074 0.382 0.34252 -0.62572 -0.70082
0.037256 -0.059212 0.381 0.22045 -0.58537 -0.78022
0.037256 -0.058507 0.381 0.21592 -0.61768 -0.75621
0.037256 -0.057802 0.381 0.17946 -0.64258 -0.7449
0.037159 -0.056947 0.38 0.076095 -0.61095 -0.788
0.037159 -0.056244 0.38 0.022803 -0.63149 -0.77505
0.037159 -0.055541 0.38 -0.027698 -0.63136 -0.77499
0.037159 -0.054838 0.38 -0.084317 -0.62548 -0.77567
0.037159 -0.054135 0.38 -0.14025 -0.61606 -0.77511
0.037159 -0.053432 0.38 -0.20013 -0.59579 -0.77781
0.037256 -0.052868 0.381 -0.29336 -0.61552 -0.73149
0.037256 -0.052163 0.381 -0.36181 -0.57942 -0.73032
0.037354 -0.051593 0.382 -0.45072 -0.57168 -0.68559
0.037354 -0.050886 0.382 -0.48321 -0.54013 -0.68903
0.037452 -0.050311 0.383 -0.53705 -0.53237 -0.65434
0.03755 -0.049732 0.384 -0.54598 -0.50897 -0.66547
0.037648 -0.049149 0.385 -0.51831 -0.491 -0.7002
0.037648 -0.048437 0.385 -0.50556 -0.49903 -0.70383
0.037745 -0.047848 0.386 -0.44304 -0.47217 -0.76208
0.037745 -0.047134 0.386 -0.40155 -0.49449 -0.77086
0.037843 -0.04654 0.387 -0.28329 -0.47168 -0.83503
0.037843 -0.045824 0.387 -0.2322 -0.49669 -0.83629
0.037843 -0.045108 0.387 -0.17725 -0.50666 -0.84373
0.037843 -0.044392 0.387 -0.11644 -0.512 -0.85106
0.037843 -0.043676 0.387 -0.085082 -0.51204 -0.85474
0.037843 -0.04296 0.387 -0.046735 -0.50968 -0.85909
0.037843 -0.042244 0.387 -0.037647 -0.51571 -0.85593
0.037843 -0.041528 0.387 -0.037647 -0.51571 -0.85593
0.037843 -0.040812 0.387 -0.046451 -0.51841 -0.85387
0.037843 -0.040096 0.387 -0.069751 -0.52414 -0.84877
0.037843 -0.03938 0.387 -0.10087 -0.52344 -0.84607
0.037843 -0.038664 0.387 -0.14101 -0.52367 -0.84017
0.037843 -0.037948 0.387 -0.17612 -0.5269 -0.83148
0.037843 -0.037232 0.387 -0.19474 -0.5263 -0.8277
0.037843 -0.036516 0.387 -0.17794 -0.53303 -0.82717
0.037941 -0.035893 0.388 -0.26063 -0.53453 -0.80396
0.037941 -0.035175 0.388 -0.22319 -0.54417 -0.80875
0.037941 -0.034457 0.388 -0.15867 -0.55262 -0.81819
0.038039 -0.033826 0.389 -0.36276 -0.51464 -0.77689
0.045275 0.011993 0.463 0.30723 -0.58948 -0.74707
0.045275 0.012849 0.463 0.28349 -0.63694 -0.7169
0.045275 0.013706 0.463 0.24244 -0.68223 -0.68977
0.045177 0.014531 0.462 0.19355 -0.59463 -0.78036
0.045177 0.016241 0.462 0.10239 -0.65459 -0.74902
0.045177 0.017095 0.462 0.061634 -0.66451 -0.74473
0.045177 0.01795 0.462 0.031425 -0.67024 -0.74148
0.045177 0.018805 0.462 -0.010601 -0.66917 -0.74303
0.038159 -0.06094 0.383 0.3917 -0.61284 -0.68629
0.038059 -0.060074 0.382 0.26925 -0.57462 -0.77286
0.038059 -0.059367 0.382 0.27991 -0.60805 -0.74291
0.038059 -0.05866 0.382 0.25145 -0.64554 -0.72115
0.037959 -0.057802 0.381 0.13777 -0.58437 -0.79971
0.037959 -0.057097 0.381 0.095206 -0.60945 -0.78709
0.037959 -0.056392 0.381 0.035969 -0.63024 -0.77557
0.037959 -0.055687 0.381 -0.027502 -0.63683 -0.77051
0.037959 -0.054982 0.381 -0.098267 -0.63343 -0.76753
0.037959 -0.054278 0.381 -0.17103 -0.62067 -0.76519
0.037959 -0.053573 0.381 -0.2447 -0.6001 -0.76158
0.037959 -0.052868 0.381 -0.29261 -0.56538 -0.77118
0.038059 -0.0523 0.382 -0.39181 -0.57925 -0.71481
0.038059 -0.051593 0.382 -0.46039 -0.52134 -0.7185
0.038159 -0.051019 0.383 -0.51382 -0.52921 -0.67523
0.038159 -0.050311 0.383 -0.55193 -0.47948 -0.68225
0.038258 -0.049732 0.384 -0.56123 -0.48511 -0.67059
0.038358 -0.049149 0.385 -0.53321 -0.47849 -0.69766
0.038458 -0.048562 0.386 -0.47051 -0.45929 -0.75344
0.038557 -0.047972 0.387 -0.37367 -0.41816 -0.82796
0.038557 -0.047256 0.387 -0.35574 -0.44669 -0.82093
0.038557 -0.04654 0.387 -0.30378 -0.47548 -0.82561
0.038557 -0.045824 0.387 -0.24522 -0.49311 -0.83469
0.038557 -0.045108 0.387 -0.1848 -0.50217 -0.84479
0.038557 -0.044392 0.387 -0.12354 -0.5056 -0.85387
0.038557 -0.043676 0.387 -0.088249 -0.50825 -0.85668
0.038557 -0.04296 0.387 -0.052499 -0.51464 -0.8558
0.038557 -0.042244 0.387 -0.046284 -0.52343 -0.85081
0.038557 -0.041528 0.387 -0.049156 -0.52549 -0.84938
0.038557 -0.040812 0.387 -0.059718 -0.53012 -0.84582
0.038557 -0.040096 0.387 -0.08256 -0.53758 -0.83916
0.038557 -0.03938 0.387 -0.10621 -0.54114 -0.8342
0.038557 -0.038664 0.387 -0.13928 -0.53586 -0.83274
0.038657 -0.038046 0.388 -0.18431 -0.54385 -0.8187
0.038657 -0.037328 0.388 -0.21452 -0.54598 -0.80987
0.038657 -0.036611 0.388 -0.22779 -0.55158 -0.80242
0.038657 -0.035893 0.388 -0.19439 -0.5606 -0.80495
0.038657 -0.035175 0.388 -0.11592 -0.57031 -0.81321
0.038756 -0.034546 0.389 -0.28117 -0.54727 -0.78832
0.046229 0.012877 0.464 0.26287 -0.686 -0.67846
0.046229 0.013735 0.464 0.23657 -0.72094 -0.65137
0.046229 0.014594 0.464 0.20317 -0.75945 -0.61803
0.046129 0.017132 0.463 0.064881 -0.70581 -0.70542
0.046129 0.017989 0.463 0.033748 -0.7102 -0.7032
0.046129 0.018846 0.463 -0.010008 -0.70648 -0.70766
0.038865 -0.060231 0.383 0.30404 -0.62258 -0.72108
0.038865 -0.059523 0.383 0.30022 -0.65522 -0.69322
0.038764 -0.05866 0.382 0.19124 -0.57248 -0.7973
0.038764 -0.057954 0.382 0.1595 -0.61252 -0.77419
0.038764 -0.057247 0.382 0.11256 -0.64088 -0.75934
0.038764 -0.05654 0.382 0.05428 -0.66059 -0.74878
0.038764 -0.055833 0.382 -0.012943 -0.66477 -0.74694
0.038764 -0.055127 0.382 -0.089554 -0.65534 -0.75001
0.038764 -0.05442 0.382 -0.16774 -0.63562 -0.75356
0.038764 -0.053713 0.382 -0.24639 -0.61137 -0.75201
0.038764 -0.053006 0.382 -0.32417 -0.5702 -0.75484
0.038764 -0.0523 0.382 -0.41726 -0.49174 -0.76426
0.038865 -0.051728 0.383 -0.47366 -0.52955 -0.70372
0.038967 -0.051153 0.384 -0.49612 -0.53213 -0.68608
0.038967 -0.050442 0.384 -0.55461 -0.4771 -0.68175
0.039068 -0.049861 0.385 -0.5376 -0.47468 -0.6969
0.03917 -0.049277 0.386 -0.48611 -0.45988 -0.74311
0.03917 -0.048562 0.386 -0.48338 -0.46116 -0.74409
0.039271 -0.047972 0.387 -0.40514 -0.43617 -0.8035
0.039271 -0.047256 0.387 -0.37734 -0.4504 -0.80917
0.039373 -0.04666 0.388 -0.29351 -0.44855 -0.84419
0.039373 -0.045943 0.388 -0.24648 -0.47189 -0.8465
0.039373 -0.045225 0.388 -0.19336 -0.48206 -0.85453
0.039373 -0.044507 0.388 -0.13451 -0.48687 -0.86306
0.039373 -0.043789 0.388 -0.095847 -0.49285 -0.86482
0.039373 -0.043071 0.388 -0.061822 -0.50017 -0.86372
0.039373 -0.042353 0.388 -0.056428 -0.51138 -0.8575
0.039373 -0.041636 0.388 -0.053169 -0.51942 -0.85287
0.039373 -0.040918 0.388 -0.06269 -0.52553 -0.84846
0.039373 -0.0402 0.388 -0.084466 -0.53444 -0.84097
0.039373 -0.039482 0.388 -0.11162 -0.54118 -0.83346
0.039373 -0.038764 0.388 -0.15114 -0.54697 -0.8234
0.039373 -0.038046 0.388 -0.18164 -0.55069 -0.81471
0.039373 -0.037328 0.388 -0.19999 -0.55264 -0.80907
0.039474 -0.036705 0.389 -0.26079 -0.56055 -0.78598
0.039474 -0.035985 0.389 -0.26308 -0.56613 -0.78121
0.039474 -0.035265 0.389 -0.22142 -0.5756 -0.78718
0.039474 -0.034546 0.389 -0.16076 -0.58242 -0.79683
0.039572 -0.059523 0.383 0.23081 -0.59879 -0.76693
0.039572 -0.058814 0.383 0.22658 -0.62944 -0.74328
0.039572 -0.058105 0.383 0.18517 -0.66684 -0.72183
0.039572 -0.057397 0.383 0.13288 -0.69325 -0.70835
0.039572 -0.056688 0.383 0.068616 -0.71274 -0.69806
0.039469 -0.055833 0.382 -0.032301 -0.57504 -0.81749
0.039572 -0.055271 0.383 -0.077051 -0.70879 -0.7012
0.039572 -0.054562 0.383 -0.15408 -0.6884 -0.70878
0.039572 -0.053854 0.383 -0.23048 -0.65657 -0.71819
0.039572 -0.053145 0.383 -0.31513 -0.60797 -0.72874
0.039572 -0.052437 0.383 -0.42775 -0.52622 -0.73493
0.039675 -0.051863 0.384 -0.43982 -0.56008 -0.70204
0.039675 -0.051153 0.384 -0.52865 -0.48081 -0.69954
0.039779 -0.050574 0.385 -0.51675 -0.4869 -0.7042
0.039882 -0.049991 0.386 -0.47895 -0.46893 -0.7421
0.039882 -0.049277 0.386 -0.50754 -0.44898 -0.7354
0.039985 -0.048688 0.387 -0.42374 -0.42866 -0.79793
0.039985 -0.047972 0.387 -0.42501 -0.43241 -0.79523
0.040089 -0.047378 0.388 -0.34415 -0.41724 -0.84111
0.040089 -0.04666 0.388 -0.30635 -0.44339 -0.84235
0.040089 -0.045943 0.388 -0.2511 -0.45761 -0.85296
0.040089 -0.045225 0.388 -0.19518 -0.46674 -0.86259
0.040089 -0.044507 0.388 -0.13634 -0.47686 -0.86834
0.040089 -0.043789 0.388 -0.10297 -0.48948 -0.86591
0.040089 -0.043071 0.388 -0.068703 -0.50143 -0.86247
0.040089 -0.042353 0.388 -0.062062 -0.51771 -0.8533
0.040089 -0.041636 0.388 -0.067323 -0.53028 -0.84514
0.040089 -0.040918 0.388 -0.084073 -0.54062 -0.83705
0.040089 -0.0402 0.388 -0.10619 -0.54954 -0.82869
0.040192 -0.039584 0.389 -0.12658 -0.55768 -0.82035
0.040192 -0.038864 0.389 -0.16276 -0.56669 -0.80769
0.040192 -0.038144 0.389 -0.19548 -0.57662 -0.79328
0.040192 -0.037425 0.389 -0.22488 -0.57538 -0.78636
0.040192 -0.036705 0.389 -0.23765 -0.57629 -0.78193
0.040192 -0.035985 0.389 -0.20223 -0.58222 -0.78748
0.040295 -0.035356 0.39 -0.31484 -0.58379 -0.74838
0.040295 -0.034635 0.39 -0.27555 -0.59318 -0.75644
0.040295 -0.033913 0.39 -0.20978 -0.60354 -0.76924
0.040399 -0.033277 0.391 -0.38725 -0.57774 -0.71851
0.040279 -0.058105 0.383 0.14031 -0.55999 -0.81653
0.040279 -0.057397 0.383 0.10378 -0.59552 -0.79661
0.040279 -0.056688 0.383 0.046828 -0.62235 -0.78133
0.040279 -0.05598 0.383 -0.018583 -0.63008 -0.77631
0.040279 -0.055271 0.383 -0.096092 -0.62155 -0.77746
0.040384 -0.054705 0.384 -0.13785 -0.73752 -0.66111
0.040384 -0.053994 0.384 -0.19638 -0.70562 -0.68083
0.040384 -0.053284 0.384 -0.28259 -0.65248 -0.70314
0.040384 -0.052574 0.384 -0.39206 -0.57026 -0.72187
0.040489 -0.051998 0.385 -0.37339 -0.59818 -0.70905
0.040489 -0.051286 0.385 -0.47953 -0.5061 -0.71688
0.040489 -0.050574 0.385 -0.55829 -0.42495 -0.71255
0.040594 -0.049991 0.386 -0.50734 -0.44705 -0.73672
0.040699 -0.049404 0.387 -0.42073 -0.44452 -0.79081
0.040699 -0.048688 0.387 -0.44729 -0.42697 -0.78589
0.040804 -0.048096 0.388 -0.37222 -0.41854 -0.82842
0.040804 -0.047378 0.388 -0.35572 -0.41902 -0.83539
0.040804 -0.04666 0.388 -0.31511 -0.43385 -0.84409
0.040804 -0.045943 0.388 -0.25994 -0.44029 -0.8594
0.040804 -0.045225 0.388 -0.20459 -0.45106 -0.86872
0.04091 -0.044622 0.389 -0.15105 -0.46092 -0.87449
0.04091 -0.043902 0.389 -0.1174 -0.47631 -0.87141
0.04091 -0.043182 0.389 -0.086553 -0.49605 -0.86397
0.04091 -0.042463 0.389 -0.081701 -0.51241 -0.85484
0.04091 -0.041743 0.389 -0.086769 -0.52501 -0.84666
0.04091 -0.041023 0.389 -0.096302 -0.53972 -0.83632
0.04091 -0.040303 0.389 -0.1207 -0.55159 -0.82534
0.04091 -0.039584 0.389 -0.1367 -0.56583 -0.81311
0.04091 -0.038864 0.389 -0.17241 -0.57373 -0.80069
0.04091 -0.038144 0.389 -0.20415 -0.5809 -0.78796
0.04091 -0.037425 0.389 -0.21371 -0.58051 -0.78571
0.041015 -0.036799 0.39 -0.27279 -0.58765 -0.76174
0.041015 -0.036078 0.39 -0.26627 -0.59643 -0.75721
0.041015 -0.035356 0.39 -0.22003 -0.60693 -0.76369
0.04112 -0.034723 0.391 -0.37619 -0.57685 -0.72507
0.04112 -0.034 0.391 -0.32942 -0.59278 -0.73491
0.041225 -0.033362 0.392 -0.48337 -0.55212 -0.67935
0.041092 -0.056836 0.384 0.053453 -0.68073 -0.73058
0.041092 -0.056126 0.384 -0.0075137 -0.6888 -0.72491
0.041092 -0.054705 0.384 -0.15961 -0.65482 -0.73874
0.041092 -0.053284 0.384 -0.34415 -0.54633 -0.7636
0.041199 -0.05271 0.385 -0.33836 -0.61547 -0.71184
0.041199 -0.051286 0.385 -0.5325 -0.42267 -0.73335
0.041306 -0.050705 0.386 -0.47999 -0.46676 -0.74279
0.041306 -0.049991 0.386 -0.54487 -0.39598 -0.73913
0.041413 -0.049404 0.387 -0.45513 -0.42763 -0.78101
0.041413 -0.048688 0.387 -0.47257 -0.40652 -0.78194
0.04152 -0.048096 0.388 -0.38812 -0.42849 -0.81594
0.04152 -0.047378 0.388 -0.36184 -0.4259 -0.82926
0.04152 -0.04666 0.388 -0.31611 -0.43497 -0.84314
0.041627 -0.046061 0.389 -0.25771 -0.43888 -0.8608
0.041627 -0.045341 0.389 -0.20794 -0.45061 -0.86817
0.041627 -0.044622 0.389 -0.16034 -0.46571 -0.87029
0.041627 -0.043902 0.389 -0.12545 -0.4865 -0.86463
0.041627 -0.043182 0.389 -0.10274 -0.50341 -0.85791
0.041627 -0.042463 0.389 -0.098512 -0.52232 -0.84704
0.041627 -0.041743 0.389 -0.10313 -0.53731 -0.83705
0.041627 -0.041023 0.389 -0.11172 -0.54756 -0.82928
0.041627 -0.040303 0.389 -0.13856 -0.55742 -0.81859
0.041627 -0.039584 0.389 -0.15542 -0.56799 -0.80822
0.041734 -0.038964 0.39 -0.18509 -0.57384 -0.79778
0.041734 -0.038242 0.39 -0.21462 -0.58094 -0.78514
0.041734 -0.037521 0.39 -0.24327 -0.58482 -0.77382
0.041734 -0.036799 0.39 -0.25711 -0.58794 -0.76695
0.041734 -0.036078 0.39 -0.21435 -0.60147 -0.7696
0.041841 -0.035447 0.391 -0.32024 -0.5759 -0.75219
0.041841 -0.034723 0.391 -0.27565 -0.5901 -0.75882
0.041948 -0.034087 0.392 -0.44551 -0.53998 -0.7141
0.042018 -0.050705 0.386 -0.53891 -0.38817 -0.74759
0.042127 -0.05012 0.387 -0.44632 -0.43749 -0.78064
0.042127 -0.049404 0.387 -0.49576 -0.38809 -0.77692
0.042236 -0.048814 0.388 -0.38684 -0.43103 -0.81521
0.042236 -0.048096 0.388 -0.4075 -0.41418 -0.81388
0.042236 -0.047378 0.388 -0.37159 -0.4118 -0.83207
0.042345 -0.046781 0.389 -0.30017 -0.4272 -0.85288
0.042345 -0.046061 0.389 -0.26774 -0.43214 -0.86115
0.042345 -0.045341 0.389 -0.22176 -0.44528 -0.86749
0.042345 -0.044622 0.389 -0.17687 -0.46437 -0.8678
0.042345 -0.043902 0.389 -0.144 -0.48527 -0.86243
0.042454 -0.043293 0.39 -0.12194 -0.50209 -0.85618
0.042454 -0.042572 0.39 -0.11191 -0.5192 -0.84729
0.042454 -0.04185 0.39 -0.11939 -0.53194 -0.83832
0.042454 -0.041129 0.39 -0.12889 -0.54078 -0.83123
0.042454 -0.040407 0.39 -0.15484 -0.54798 -0.82204
0.042454 -0.039685 0.39 -0.16433 -0.55867 -0.81294
0.042454 -0.038964 0.39 -0.19632 -0.56344 -0.80249
0.042454 -0.038242 0.39 -0.22748 -0.56622 -0.79224
0.042563 -0.037617 0.391 -0.26243 -0.5632 -0.78354
0.042563 -0.036894 0.391 -0.29177 -0.55898 -0.77615
0.042563 -0.03617 0.391 -0.28231 -0.56578 -0.77472
0.042672 -0.035537 0.392 -0.40426 -0.52547 -0.74864
0.042672 -0.034812 0.392 -0.3835 -0.53983 -0.74934
0.042841 -0.050836 0.387 -0.41849 -0.45321 -0.78706
0.042841 -0.05012 0.387 -0.49808 -0.37879 -0.78002
0.042952 -0.049532 0.388 -0.37746 -0.44162 -0.81394
0.042952 -0.048814 0.388 -0.42682 -0.40194 -0.8101
0.042952 -0.048096 0.388 -0.43994 -0.38454 -0.81153
0.043063 -0.0475 0.389 -0.34638 -0.41655 -0.84054
0.043063 -0.046781 0.389 -0.32386 -0.41481 -0.85032
0.043063 -0.046061 0.389 -0.28677 -0.41857 -0.86172
0.043173 -0.045458 0.39 -0.2434 -0.43174 -0.86854
0.043173 -0.044736 0.39 -0.20138 -0.4456 -0.87229
0.043173 -0.044015 0.39 -0.16415 -0.46215 -0.87148
0.043173 -0.043293 0.39 -0.14024 -0.48005 -0.86596
0.043173 -0.042572 0.39 -0.13128 -0.49414 -0.85941
0.043173 -0.04185 0.39 -0.13288 -0.50861 -0.85068
0.043173 -0.041129 0.39 -0.13563 -0.51976 -0.84348
0.043173 -0.040407 0.39 -0.16044 -0.52405 -0.83644
0.043173 -0.039685 0.39 -0.17303 -0.53376 -0.82774
0.043284 -0.039064 0.391 -0.20733 -0.53515 -0.81892
0.043284 -0.03834 0.391 -0.23561 -0.53745 -0.80971
0.043284 -0.037617 0.391 -0.26294 -0.54026 -0.79936
0.043284 -0.036894 0.391 -0.28161 -0.54144 -0.79217
0.043395 -0.036263 0.392 -0.33232 -0.5219 -0.78561
0.043395 -0.035537 0.392 -0.32883 -0.52722 -0.78352
0.043506 -0.034901 0.393 -0.48195 -0.46958 -0.73975
0.043555 -0.050836 0.387 -0.48781 -0.38805 -0.78196
0.043668 -0.05025 0.388 -0.35364 -0.46636 -0.81083
0.043668 -0.049532 0.388 -0.42174 -0.40982 -0.80882
0.043668 -0.048814 0.388 -0.46111 -0.37684 -0.80335
0.04378 -0.04822 0.389 -0.35636 -0.43189 -0.82854
0.04378 -0.0475 0.389 -0.3549 -0.41896 -0.83577
0.04378 -0.046781 0.389 -0.32729 -0.41653 -0.84816
0.043893 -0.046179 0.39 -0.28618 -0.42414 -0.85919
0.043893 -0.045458 0.39 -0.25003 -0.43733 -0.86385
0.043893 -0.044736 0.39 -0.21372 -0.45303 -0.8655
0.043893 -0.044015 0.39 -0.1819 -0.46687 -0.86542
0.043893 -0.043293 0.39 -0.16217 -0.48219 -0.86093
0.043893 -0.042572 0.39 -0.15075 -0.49128 -0.85786
0.044006 -0.041957 0.391 -0.14754 -0.50082 -0.85288
0.044006 -0.041234 0.391 -0.14996 -0.50497 -0.85001
0.044006 -0.040511 0.391 -0.17286 -0.50944 -0.84296
0.044006 -0.039787 0.391 -0.1829 -0.51757 -0.83586
0.044006 -0.039064 0.391 -0.21456 -0.51692 -0.82871
0.044118 -0.038438 0.392 -0.24301 -0.51648 -0.82109
0.044118 -0.037713 0.392 -0.27702 -0.51332 -0.81226
0.044118 -0.036988 0.392 -0.30551 -0.50509 -0.80718
0.044118 -0.036263 0.392 -0.30104 -0.50648 -0.80799
0.044231 -0.035628 0.393 -0.41262 -0.47065 -0.77989
0.044231 -0.034901 0.393 -0.4017 -0.47608 -0.78229
0.044343 -0.034261 0.394 -0.54963 -0.39702 -0.73504
0.044343 -0.033532 0.394 -0.50418 -0.43038 -0.74871
0.044384 -0.049532 0.388 -0.47291 -0.37373 -0.79792
0.044498 -0.04894 0.389 -0.33561 -0.44651 -0.82946
0.044498 -0.04822 0.389 -0.38799 -0.41505 -0.82292
0.044498 -0.0475 0.389 -0.3775 -0.40836 -0.8311
0.044613 -0.046901 0.39 -0.31445 -0.4304 -0.84609
0.044613 -0.046179 0.39 -0.29841 -0.42485 -0.85467
0.044613 -0.045458 0.39 -0.2725 -0.43223 -0.85961
0.044727 -0.044851 0.391 -0.23472 -0.44444 -0.86451
0.044613 -0.044015 0.39 -0.20584 -0.45615 -0.86577
0.044727 -0.043404 0.391 -0.1765 -0.46871 -0.86554
0.044727 -0.042681 0.391 -0.15912 -0.47999 -0.86272
0.044727 -0.041957 0.391 -0.15438 -0.48932 -0.85833
0.044727 -0.041234 0.391 -0.15394 -0.49377 -0.85586
0.044727 -0.040511 0.391 -0.17327 -0.49798 -0.8497
0.044841 -0.039889 0.392 -0.18481 -0.49885 -0.84675
0.044841 -0.039164 0.392 -0.21769 -0.49826 -0.83925
0.044841 -0.038438 0.392 -0.24818 -0.49593 -0.83214
0.044841 -0.037713 0.392 -0.28053 -0.49032 -0.82516
0.044956 -0.037082 0.393 -0.32466 -0.4686 -0.82159
0.044956 -0.036355 0.393 -0.35339 -0.46245 -0.81318
0.044956 -0.035628 0.393 -0.35953 -0.46552 -0.80872
0.044956 -0.034901 0.393 -0.32758 -0.47785 -0.81508
0.04507 -0.034261 0.394 -0.48123 -0.40405 -0.77792
0.04507 -0.033532 0.394 -0.42085 -0.43594 -0.79552
0.045216 -0.04966 0.389 -0.31771 -0.4554 -0.83167
0.045216 -0.04894 0.389 -0.39441 -0.41333 -0.82073
0.045216 -0.04822 0.389 -0.43193 -0.39117 -0.81266
0.045332 -0.047623 0.39 -0.32078 -0.44665 -0.83522
0.045332 -0.046901 0.39 -0.32503 -0.43333 -0.84058
0.045332 -0.046179 0.39 -0.30154 -0.43361 -0.84915
0.045448 -0.045574 0.391 -0.27469 -0.43731 -0.85634
0.045448 -0.044851 0.391 -0.23908 -0.44629 -0.86236
0.045448 -0.044128 0.391 -0.20563 -0.4537 -0.86711
0.045448 -0.043404 0.391 -0.18188 -0.46286 -0.86757
0.045448 -0.042681 0.391 -0.16872 -0.47012 -0.86633
0.045448 -0.041957 0.391 -0.16705 -0.47709 -0.86283
0.045565 -0.04134 0.392 -0.16826 -0.47982 -0.86108
0.045565 -0.040614 0.392 -0.18435 -0.47916 -0.85815
0.045565 -0.039889 0.392 -0.19694 -0.47743 -0.85632
0.045565 -0.039164 0.392 -0.2306 -0.47215 -0.85082
0.045565 -0.038438 0.392 -0.25624 -0.46704 -0.84629
0.045565 -0.037713 0.392 -0.28512 -0.46279 -0.83936
0.045681 -0.037082 0.393 -0.31939 -0.44798 -0.83505
0.045681 -0.036355 0.393 -0.31905 -0.45021 -0.83398
0.045681 -0.035628 0.393 -0.30909 -0.46142 -0.8316
0.045797 -0.03499 0.394 -0.4363 -0.39769 -0.80715
0.045797 -0.034261 0.394 -0.4055 -0.41517 -0.81437
0.045797 -0.033532 0.394 -0.32489 -0.45097 -0.83131
0.045934 -0.04966 0.389 -0.40062 -0.41138 -0.8187
