0.005450 -0.025765 0.422000 -0.472984 -0.220923 -0.852924 
0.005437 -0.024925 0.421000 -0.316217 -0.421854 -0.849733 
0.005437 -0.024146 0.421000 -0.165780 -0.245251 -0.955180 
0.005437 -0.023367 0.421000 -0.000000 -0.000000 -1.000000 
0.005437 -0.022588 0.421000 0.114701 -0.252874 -0.960676 
0.005437 -0.021809 0.421000 0.200270 -0.556237 -0.806531 
0.005424 -0.020981 0.420000 0.080186 -0.465123 -0.881607 
0.005424 -0.020204 0.420000 -0.000000 -0.000000 -1.000000 
0.005424 -0.019426 0.420000 0.000000 -0.000000 -1.000000 
0.005424 -0.018649 0.420000 -0.000000 -0.000000 -1.000000 
0.005424 -0.017872 0.420000 0.000000 -0.000000 -1.000000 
0.005424 -0.017095 0.420000 0.000000 0.000000 -1.000000 
0.005424 -0.016318 0.420000 -0.000000 0.000000 -1.000000 
0.005424 -0.015541 0.420000 0.000000 0.000000 -1.000000 
0.005424 -0.014764 0.420000 0.000000 0.000000 -1.000000 
0.005424 -0.013987 0.420000 -0.000000 0.000000 -1.000000 
0.005424 -0.013210 0.420000 0.000000 -0.000000 -1.000000 
0.005424 -0.012433 0.420000 -0.028090 0.252593 -0.967165 
0.005437 -0.011684 0.421000 -0.119022 0.613133 -0.780962 
0.005437 -0.010905 0.421000 -0.053422 0.476061 -0.877788 
0.005437 -0.010126 0.421000 -0.000000 -0.000000 -1.000000 
0.005437 -0.009347 0.421000 -0.000000 -0.000000 -1.000000 
0.005437 -0.008568 0.421000 0.071180 0.585718 -0.807383 
0.005450 -0.007808 0.422000 0.071288 0.585099 -0.807822 
0.005450 -0.007027 0.422000 -0.000000 -0.000000 -1.000000 
0.005450 -0.006246 0.422000 0.055992 0.472534 -0.879532 
0.005450 -0.005465 0.422000 0.119201 0.604963 -0.787281 
0.005463 -0.004696 0.423000 -0.040788 0.705116 -0.707918 
0.005476 -0.003922 0.424000 -0.000232 0.790321 -0.612693 
0.005489 -0.003145 0.425000 0.000228 0.788922 -0.614493 
0.005502 -0.002364 0.426000 0.070305 0.577637 -0.813261 
0.005502 -0.001576 0.426000 0.069942 0.576254 -0.814272 
0.005515 -0.000790 0.427000 0.070038 0.575680 -0.814670 
0.005515 0.000000 0.427000 -0.179605 0.440791 -0.879457 
0.005528 0.000792 0.428000 -0.202815 0.563634 -0.800739 
0.005528 0.001584 0.428000 -0.112034 0.243959 -0.963292 
0.005528 0.002376 0.428000 -0.049591 0.430179 -0.901381 
0.005541 0.003175 0.429000 -0.178263 0.765873 -0.617787 
0.005553 0.003978 0.430000 -0.318587 0.418317 -0.850596 
0.005553 0.004773 0.430000 -0.060710 0.688810 -0.722395 
0.005566 0.005582 0.431000 0.000224 0.776930 -0.629587 
0.005579 0.006394 0.432000 0.000227 0.775524 -0.631318 
0.005592 0.007210 0.433000 -0.067328 0.566045 -0.821620 
0.005592 0.008011 0.433000 -0.066987 0.564706 -0.822569 
0.005605 0.008833 0.434000 0.068383 0.563169 -0.823508 
0.005605 0.009635 0.434000 -0.026616 0.248048 -0.968382 
0.005618 0.010463 0.435000 -0.002700 0.573978 -0.818866 
0.005618 0.011267 0.435000 -0.017197 0.739963 -0.672428 
0.005631 0.012100 0.436000 0.071444 0.733688 -0.675720 
0.005644 0.012936 0.437000 0.136762 0.569677 -0.810410 
0.005644 0.013745 0.437000 0.119540 0.734518 -0.667977 
0.005670 0.014620 0.439000 0.049390 0.911136 -0.409136 
0.005696 0.015502 0.441000 0.016252 0.665329 -0.746373 
0.005708 0.016355 0.442000 0.002018 0.446966 -0.894549 
0.005708 0.017173 0.442000 0.000000 -0.000000 -1.000000 
0.005708 0.017991 0.442000 -0.107079 0.237742 -0.965408 
0.005708 0.018809 0.442000 -0.177499 0.401502 -0.898493 
0.005876 0.020204 0.455000 -0.000000 0.000000 -1.000000 
0.005876 0.021045 0.455000 -0.000000 -0.000000 -1.000000 
0.005876 0.021887 0.455000 0.074634 0.427654 -0.900856 
0.005889 0.022779 0.456000 0.195621 0.438704 -0.877081 
0.005889 0.023623 0.456000 0.105123 0.228764 -0.967789 
0.005889 0.024466 0.456000 -0.000000 -0.000000 -1.000000 
0.006347 -0.069214 0.430000 -0.100704 -0.637005 -0.764254 
0.006332 -0.068259 0.429000 -0.198284 -0.667826 -0.717420 
0.006317 -0.067308 0.428000 -0.197121 -0.688763 -0.697673 
0.006303 -0.066361 0.427000 -0.244269 -0.662717 -0.707911 
0.006303 -0.065571 0.427000 -0.244185 -0.663456 -0.707248 
0.006288 -0.064629 0.426000 -0.243164 -0.713207 -0.657425 
0.006273 -0.063691 0.425000 -0.198480 -0.693562 -0.692516 
0.006258 -0.062757 0.424000 -0.040242 -0.347525 -0.936807 
0.006258 -0.061972 0.424000 -0.063658 -0.544219 -0.836525 
0.006243 -0.061043 0.423000 -0.017023 -0.524156 -0.851452 
0.006243 -0.060261 0.423000 -0.063819 -0.546424 -0.835073 
0.006229 -0.059338 0.422000 -0.017112 -0.525705 -0.850495 
0.006229 -0.058557 0.422000 -0.169247 -0.433159 -0.885284 
0.006214 -0.057639 0.421000 -0.262385 -0.400575 -0.877892 
0.006214 -0.056860 0.421000 -0.000000 -0.000000 -1.000000 
0.006214 -0.056081 0.421000 -0.170081 -0.434810 -0.884315 
0.006199 -0.055171 0.420000 -0.263584 -0.402022 -0.876871 
0.006199 -0.054394 0.420000 -0.000000 0.000000 -1.000000 
0.006199 -0.053617 0.420000 -0.000000 0.000008 -1.000000 
0.006199 -0.052840 0.420000 -0.162348 -0.250669 -0.954363 
0.006199 -0.052063 0.420000 -0.307802 -0.418757 -0.854342 
0.006185 -0.051164 0.419000 -0.308224 -0.419083 -0.854030 
0.006185 -0.050389 0.419000 -0.163109 -0.250892 -0.954175 
0.006185 -0.049613 0.419000 0.000000 -0.000000 -1.000000 
0.006185 -0.048838 0.419000 -0.000000 -0.000000 -1.000000 
0.006185 -0.048063 0.419000 0.000000 0.000000 -1.000000 
0.006185 -0.047288 0.419000 -0.000000 -0.000000 -1.000000 
0.006185 -0.046512 0.419000 0.000000 0.000000 -1.000000 
0.006185 -0.045737 0.419000 -0.000000 -0.000000 -1.000000 
0.006185 -0.044962 0.419000 -0.000000 0.000000 -1.000000 
0.006185 -0.043412 0.419000 0.000000 0.000000 -1.000000 
0.006185 -0.042636 0.419000 0.000000 0.000000 -1.000000 
0.006185 -0.041861 0.419000 -0.000000 0.000000 -1.000000 
0.006185 -0.041086 0.419000 0.000000 -0.000000 -1.000000 
0.006185 -0.040311 0.419000 -0.000000 0.000000 -1.000000 
0.006185 -0.039536 0.419000 0.121625 0.238203 -0.963570 
0.006185 -0.038760 0.419000 0.340084 0.429849 -0.836405 
0.006199 -0.038076 0.420000 0.339530 0.429795 -0.836657 
0.006199 -0.037299 0.420000 0.175611 0.231566 -0.956837 
0.006199 -0.036522 0.420000 -0.000000 0.000008 -1.000000 
0.006199 -0.035745 0.420000 -0.072388 0.605005 -0.792924 
0.006214 -0.035051 0.421000 0.074172 0.603021 -0.794269 
0.006214 -0.034272 0.421000 -0.000000 -0.000000 -1.000000 
0.006214 -0.033493 0.421000 0.073721 0.601145 -0.795732 
0.006229 -0.032792 0.422000 -0.072180 0.601743 -0.795422 
0.006229 -0.032011 0.422000 -0.000000 -0.000000 -1.000000 
0.006229 -0.031230 0.422000 -0.000000 -0.000000 -1.000000 
0.006229 -0.030450 0.422000 -0.000000 -0.000000 -1.000000 
0.006229 -0.029669 0.422000 -0.000000 -0.000000 -1.000000 
0.006229 -0.028888 0.422000 -0.243922 -0.121926 -0.962100 
0.006229 -0.028107 0.422000 -0.441117 -0.187150 -0.877719 
0.006229 -0.027327 0.422000 -0.472775 -0.221571 -0.852872 
0.006214 -0.026483 0.421000 -0.473355 -0.221195 -0.852648 
0.006214 -0.025704 0.421000 -0.327418 -0.251076 -0.910911 
0.006214 -0.024925 0.421000 -0.165560 -0.245496 -0.955155 
0.006214 -0.024146 0.421000 -0.000000 -0.000000 -1.000000 
0.006214 -0.023367 0.421000 -0.000000 -0.000000 -1.000000 
0.006214 -0.022588 0.421000 -0.000000 -0.000000 -1.000000 
0.006214 -0.021809 0.421000 0.068802 -0.568694 -0.819667 
0.006199 -0.020981 0.420000 0.068690 -0.569304 -0.819252 
0.006199 -0.020204 0.420000 -0.000000 0.000000 -1.000000 
0.006199 -0.019426 0.420000 0.000000 -0.000001 -1.000000 
0.006199 -0.018649 0.420000 -0.000000 -0.000000 -1.000000 
0.006199 -0.017872 0.420000 0.000000 -0.000000 -1.000000 
0.006199 -0.017095 0.420000 0.000000 0.000000 -1.000000 
0.006199 -0.016318 0.420000 -0.000000 0.000000 -1.000000 
0.006199 -0.015541 0.420000 0.000000 0.000000 -1.000000 
0.006199 -0.014764 0.420000 0.000000 -0.000000 -1.000000 
0.006199 -0.013987 0.420000 -0.000000 -0.000000 -1.000000 
0.006199 -0.013210 0.420000 0.000000 -0.000000 -1.000000 
0.006199 -0.012433 0.420000 0.057000 0.476420 -0.877368 
0.006199 -0.011656 0.420000 0.120819 0.611009 -0.782350 
0.006214 -0.010905 0.421000 -0.027780 0.251741 -0.967396 
0.006214 -0.010126 0.421000 -0.000000 -0.000000 -1.000000 
0.006214 -0.009347 0.421000 -0.000000 -0.000000 -1.000000 
0.006214 -0.008568 0.421000 0.071278 0.585642 -0.807430 
0.006229 -0.007808 0.422000 -0.069801 0.586234 -0.807129 
0.006229 -0.007027 0.422000 -0.000000 -0.000000 -1.000000 
0.006229 -0.006246 0.422000 0.184555 0.444596 -0.876512 
0.006243 -0.005478 0.423000 0.024940 0.610708 -0.791463 
0.006243 -0.004696 0.423000 0.144793 0.685360 -0.713664 
0.006258 -0.003922 0.424000 0.000232 0.790318 -0.612697 
0.006273 -0.003145 0.425000 0.000228 0.788922 -0.614494 
0.006288 -0.002364 0.426000 -0.068845 0.578742 -0.812600 
0.006288 -0.001576 0.426000 0.070037 0.576179 -0.814317 
0.006303 -0.000790 0.427000 0.070137 0.575604 -0.814715 
0.006303 0.000000 0.427000 -0.166150 0.236850 -0.957234 
0.006303 0.000790 0.427000 -0.202772 0.563873 -0.800581 
0.006317 0.001584 0.428000 -0.179117 0.440087 -0.879909 
0.006317 0.002376 0.428000 0.069452 0.571846 -0.817416 
0.006332 0.003175 0.429000 -0.060346 0.691733 -0.719628 
0.006332 0.003969 0.429000 -0.201336 0.560218 -0.803504 
0.006347 0.004773 0.430000 -0.107733 0.739937 -0.663994 
0.006362 0.005582 0.431000 0.000224 0.776930 -0.629588 
0.006376 0.006394 0.432000 -0.071272 0.742855 -0.665647 
0.006391 0.007210 0.433000 -0.199633 0.555647 -0.807095 
0.006391 0.008011 0.433000 -0.060112 0.683524 -0.727449 
0.006406 0.008833 0.434000 0.068482 0.563095 -0.823550 
0.006406 0.009635 0.434000 -0.162154 0.234157 -0.958581 
0.006406 0.010438 0.434000 -0.198080 0.552268 -0.809793 
0.006421 0.011267 0.435000 -0.106211 0.730543 -0.674556 
0.006435 0.012100 0.436000 -0.106322 0.729243 -0.675944 
0.006450 0.012936 0.437000 0.062078 0.702307 -0.709163 
0.006450 0.013745 0.437000 0.148930 0.744006 -0.651364 
0.006480 0.014620 0.439000 0.125811 0.902566 -0.411761 
0.006509 0.015502 0.441000 -0.092293 0.626280 -0.774116 
0.006524 0.016355 0.442000 -0.194790 0.542670 -0.817047 
0.006524 0.017173 0.442000 -0.158259 0.229979 -0.960242 
0.006524 0.017991 0.442000 -0.000000 -0.000000 -1.000000 
0.006524 0.018809 0.442000 0.000000 -0.000000 -1.000000 
0.006716 0.020204 0.455000 -0.000000 0.000000 -1.000000 
0.006716 0.021045 0.455000 -0.000000 -0.000000 -1.000000 
0.006716 0.021887 0.455000 -0.165776 0.409932 -0.896925 
0.006731 0.022779 0.456000 -0.193308 0.441353 -0.876265 
0.006731 0.023623 0.456000 -0.152558 0.222638 -0.962891 
0.006731 0.024466 0.456000 -0.000000 -0.000000 -1.000000 
0.007140 -0.069214 0.430000 0.000000 -0.723197 -0.690642 
0.007124 -0.068259 0.429000 -0.057089 -0.740566 -0.669554 
0.007107 -0.067308 0.428000 -0.066172 -0.695122 -0.715840 
0.007090 -0.066361 0.427000 -0.198960 -0.670753 -0.714497 
0.007074 -0.065417 0.426000 -0.197752 -0.691505 -0.694777 
0.007057 -0.064477 0.425000 -0.243888 -0.714107 -0.656178 
0.007041 -0.063541 0.424000 -0.243335 -0.470195 -0.848355 
0.007041 -0.062757 0.424000 -0.113629 -0.316268 -0.941840 
0.007041 -0.061972 0.424000 -0.260125 -0.398184 -0.879650 
0.007024 -0.061043 0.423000 -0.130627 -0.556694 -0.820383 
0.007024 -0.060261 0.423000 -0.189820 -0.537480 -0.821635 
0.007007 -0.059338 0.422000 -0.040382 -0.349588 -0.936033 
0.007007 -0.058557 0.422000 -0.063994 -0.547900 -0.834092 
0.006991 -0.057639 0.421000 -0.128109 -0.394759 -0.909809 
0.006991 -0.056860 0.421000 -0.000000 -0.000000 -1.000000 
0.006991 -0.056081 0.421000 -0.128580 -0.395574 -0.909389 
0.006974 -0.055171 0.420000 -0.128761 -0.396242 -0.909073 
0.006974 -0.054394 0.420000 -0.000000 0.000000 -1.000000 
0.006974 -0.053617 0.420000 -0.162129 -0.250896 -0.954340 
0.006974 -0.052840 0.420000 -0.307559 -0.418864 -0.854377 
0.006958 -0.051939 0.419000 -0.307973 -0.419188 -0.854069 
0.006958 -0.051164 0.419000 -0.162855 -0.251344 -0.954099 
0.006958 -0.050389 0.419000 -0.000000 -0.000000 -1.000000 
0.006958 -0.049613 0.419000 0.000000 0.000000 -1.000000 
0.006958 -0.048838 0.419000 -0.000000 -0.000000 -1.000000 
0.006958 -0.048063 0.419000 0.000000 0.000000 -1.000000 
0.006958 -0.047288 0.419000 -0.000000 0.000000 -1.000000 
0.006958 -0.046512 0.419000 -0.000000 -0.000000 -1.000000 
0.006958 -0.045737 0.419000 -0.000000 0.000000 -1.000000 
0.006958 -0.044187 0.419000 0.000000 0.000000 -1.000000 
0.006958 -0.043412 0.419000 -0.000000 0.000000 -1.000000 
0.006958 -0.042636 0.419000 0.000000 0.000000 -1.000000 
0.006958 -0.041861 0.419000 -0.000000 0.000000 -1.000000 
0.006958 -0.041086 0.419000 0.000000 -0.000000 -1.000000 
0.006958 -0.040311 0.419000 -0.000000 0.000000 -1.000000 
0.006958 -0.039536 0.419000 0.088118 0.479914 -0.872879 
0.006974 -0.038853 0.420000 0.216631 0.590753 -0.777227 
0.006974 -0.038076 0.420000 0.175829 0.231260 -0.956871 
0.006974 -0.037299 0.420000 0.000000 0.000000 -1.000000 
0.006974 -0.036522 0.420000 0.000000 -0.000000 -1.000000 
0.006974 -0.035745 0.420000 0.074155 0.603631 -0.793808 
0.006991 -0.035051 0.421000 0.074275 0.602939 -0.794322 
0.006991 -0.034272 0.421000 -0.000000 -0.000000 -1.000000 
0.006991 -0.033493 0.421000 -0.071957 0.602509 -0.794861 
0.007007 -0.032792 0.422000 0.073944 0.600373 -0.796294 
0.007007 -0.032011 0.422000 -0.000000 -0.000000 -1.000000 
0.007007 -0.031230 0.422000 -0.000000 -0.000000 -1.000000 
0.007007 -0.030450 0.422000 -0.164291 -0.245911 -0.955268 
0.007007 -0.029669 0.422000 -0.325874 -0.251989 -0.911212 
0.007007 -0.028888 0.422000 -0.472688 -0.221975 -0.852815 
0.006991 -0.028041 0.421000 -0.473218 -0.221792 -0.852569 
0.006991 -0.027262 0.421000 -0.327029 -0.251757 -0.910863 
0.006991 -0.026483 0.421000 -0.165230 -0.245889 -0.955112 
0.006991 -0.025704 0.421000 -0.000000 -0.000000 -1.000000 
0.006991 -0.024925 0.421000 -0.000000 -0.000000 -1.000000 
0.006991 -0.024146 0.421000 -0.000000 -0.000000 -1.000000 
0.006991 -0.023367 0.421000 -0.000000 -0.000000 -1.000000 
0.006991 -0.022588 0.421000 -0.000000 -0.000000 -1.000000 
0.006991 -0.021809 0.421000 0.179124 -0.439992 -0.879956 
0.006974 -0.020981 0.420000 0.200396 -0.556364 -0.806413 
0.006974 -0.020204 0.420000 0.168534 -0.243475 -0.955153 
0.006974 -0.019426 0.420000 0.000000 -0.000000 -1.000000 
0.006974 -0.018649 0.420000 0.000000 -0.000000 -1.000000 
0.006974 -0.017872 0.420000 0.000000 0.000000 -1.000000 
0.006974 -0.017095 0.420000 -0.000000 0.000000 -1.000000 
0.006974 -0.016318 0.420000 -0.000000 0.000000 -1.000000 
0.006974 -0.015541 0.420000 0.000000 0.000000 -1.000000 
0.006974 -0.014764 0.420000 -0.000000 0.000000 -1.000000 
0.006974 -0.013987 0.420000 -0.000000 -0.000000 -1.000000 
0.006974 -0.013210 0.420000 0.172778 0.237152 -0.955985 
0.006974 -0.012433 0.420000 0.329523 0.424663 -0.843253 
0.006991 -0.011684 0.421000 0.329061 0.424333 -0.843600 
0.006991 -0.010905 0.421000 0.171996 0.236802 -0.956212 
0.006991 -0.010126 0.421000 -0.000000 -0.000000 -1.000000 
0.006991 -0.009347 0.421000 -0.000000 -0.000000 -1.000000 
0.006991 -0.008568 0.421000 -0.069593 0.586926 -0.806644 
0.007007 -0.007808 0.422000 0.071486 0.584944 -0.807917 
0.007007 -0.007027 0.422000 -0.000000 -0.000000 -1.000000 
0.007007 -0.006246 0.422000 0.071030 0.583121 -0.809274 
0.007024 -0.005478 0.423000 0.145188 0.686334 -0.712647 
0.007024 -0.004696 0.423000 0.205972 0.567240 -0.797379 
0.007041 -0.003922 0.424000 0.110272 0.750368 -0.651757 
0.007057 -0.003145 0.425000 0.000228 0.788922 -0.614494 
0.007074 -0.002364 0.426000 0.070497 0.577486 -0.813352 
0.007074 -0.001576 0.426000 -0.068395 0.577425 -0.813574 
0.007090 -0.000790 0.427000 -0.068492 0.576851 -0.813973 
0.007090 0.000000 0.427000 -0.000000 -0.000000 -1.000000 
0.007090 0.000790 0.427000 -0.068075 0.575032 -0.815294 
0.007107 0.001584 0.428000 -0.068173 0.574438 -0.815704 
0.007107 0.002376 0.428000 0.069542 0.571773 -0.817459 
0.007124 0.003175 0.429000 -0.067922 0.572509 -0.817080 
0.007124 0.003969 0.429000 -0.067572 0.571132 -0.818072 
0.007140 0.004773 0.430000 0.000222 0.778317 -0.627871 
0.007157 0.005582 0.431000 0.000224 0.776929 -0.629588 
0.007173 0.006394 0.432000 -0.140183 0.671692 -0.727447 
0.007173 0.007193 0.432000 -0.199565 0.555883 -0.806950 
0.007190 0.008011 0.433000 -0.071660 0.740469 -0.668260 
0.007207 0.008833 0.434000 -0.066886 0.564291 -0.822862 
0.007207 0.009635 0.434000 -0.000000 -0.000000 -1.000000 
0.007207 0.010438 0.434000 0.002673 0.456001 -0.889975 
0.007223 0.011267 0.435000 -0.000241 0.769106 -0.639122 
0.007240 0.012100 0.436000 0.018630 0.738407 -0.674098 
0.007240 0.012907 0.436000 -0.013149 0.652800 -0.757416 
0.007273 0.013776 0.438000 0.300834 0.775242 -0.555426 
0.007290 0.014620 0.439000 0.187374 0.867807 -0.460219 
0.007323 0.015502 0.441000 -0.011668 0.658811 -0.752218 
0.007323 0.016318 0.441000 0.004475 0.563922 -0.825816 
0.007339 0.017173 0.442000 -0.025563 0.243263 -0.969624 
0.007339 0.017991 0.442000 -0.000000 -0.000000 -1.000000 
0.007339 0.018809 0.442000 -0.000000 0.000000 -1.000000 
0.007555 0.020204 0.455000 0.000000 -0.000000 -1.000000 
0.007555 0.021045 0.455000 -0.000000 0.000000 -1.000000 
0.007555 0.021887 0.455000 -0.153046 0.222995 -0.962731 
0.007555 0.022729 0.455000 -0.189298 0.527576 -0.828148 
0.007572 0.023623 0.456000 -0.165270 0.409546 -0.897194 
0.007572 0.024466 0.456000 -0.000000 -0.000000 -1.000000 
0.007934 -0.069214 0.430000 -0.060278 -0.802203 -0.594000 
0.007897 -0.068100 0.428000 0.000304 -0.730703 -0.682695 
0.007897 -0.067308 0.428000 0.000136 -0.699336 -0.714793 
0.007878 -0.066361 0.427000 -0.089797 -0.745107 -0.660873 
0.007860 -0.065417 0.426000 -0.066347 -0.697849 -0.713166 
0.007841 -0.064477 0.425000 0.000235 -0.729354 -0.684136 
0.007823 -0.063541 0.424000 -0.063051 -0.543049 -0.837331 
0.007823 -0.062757 0.424000 -0.071930 -0.452337 -0.888942 
0.007804 -0.061826 0.423000 -0.189289 -0.535580 -0.822997 
0.007804 -0.061043 0.423000 -0.112415 -0.508052 -0.853959 
0.007786 -0.060118 0.422000 -0.261146 -0.399927 -0.878557 
0.007786 -0.059338 0.422000 -0.114299 -0.318049 -0.941159 
0.007786 -0.058557 0.422000 -0.261882 -0.400786 -0.877946 
0.007767 -0.057639 0.421000 -0.040402 -0.350444 -0.935712 
0.007767 -0.056860 0.421000 -0.161263 -0.250652 -0.954551 
0.007767 -0.056081 0.421000 -0.263126 -0.402111 -0.876967 
0.007749 -0.055171 0.420000 -0.040549 -0.351475 -0.935319 
0.007749 -0.054394 0.420000 0.000000 -0.000000 -1.000000 
0.007749 -0.053617 0.420000 -0.073261 -0.458762 -0.885534 
0.007731 -0.052714 0.419000 -0.264636 -0.403821 -0.875726 
0.007731 -0.051939 0.419000 -0.162627 -0.251570 -0.954078 
0.007731 -0.051164 0.419000 0.000000 0.000000 -1.000000 
0.007731 -0.050389 0.419000 0.000000 -0.000000 -1.000000 
0.007731 -0.049613 0.419000 -0.000000 0.000000 -1.000000 
0.007731 -0.048838 0.419000 0.000000 -0.000000 -1.000000 
0.007731 -0.048063 0.419000 -0.000000 0.000000 -1.000000 
0.007731 -0.047288 0.419000 0.000000 -0.000000 -1.000000 
0.007731 -0.046512 0.419000 -0.000000 -0.000000 -1.000000 
0.007731 -0.044187 0.419000 0.000000 -0.000000 -1.000000 
0.007731 -0.043412 0.419000 0.000000 0.000000 -1.000000 
0.007731 -0.042636 0.419000 -0.000000 0.000000 -1.000000 
0.007731 -0.041861 0.419000 0.000000 0.000000 -1.000000 
0.007731 -0.041086 0.419000 -0.000000 -0.000000 -1.000000 
0.007731 -0.040311 0.419000 0.000000 0.000000 -1.000000 
0.007731 -0.039536 0.419000 0.074766 0.607188 -0.791032 
0.007749 -0.038853 0.420000 0.074888 0.606487 -0.791559 
0.007749 -0.038076 0.420000 0.000000 -0.000000 -1.000000 
0.007749 -0.037299 0.420000 0.000000 0.000000 -1.000000 
0.007749 -0.036522 0.420000 0.121334 0.238433 -0.963549 
0.007749 -0.035745 0.420000 0.215351 0.587766 -0.779843 
0.007767 -0.035051 0.421000 0.087283 0.476710 -0.874717 
0.007767 -0.034272 0.421000 -0.000000 -0.000000 -1.000000 
0.007767 -0.033493 0.421000 0.073928 0.600980 -0.795838 
0.007786 -0.032792 0.422000 -0.071971 0.601900 -0.795322 
0.007786 -0.032011 0.422000 -0.000000 -0.000000 -1.000000 
0.007786 -0.031230 0.422000 -0.164068 -0.246164 -0.955241 
0.007786 -0.030450 0.422000 -0.314096 -0.421849 -0.850522 
0.007767 -0.029599 0.421000 -0.473015 -0.222358 -0.852534 
0.007767 -0.028820 0.421000 -0.326655 -0.252315 -0.910842 
0.007767 -0.028041 0.421000 -0.244566 -0.122399 -0.961876 
0.007767 -0.027262 0.421000 -0.000000 -0.000000 -1.000000 
0.007767 -0.026483 0.421000 -0.000000 -0.000000 -1.000000 
0.007767 -0.025704 0.421000 -0.000000 -0.000000 -1.000000 
0.007767 -0.024925 0.421000 -0.000000 -0.000000 -1.000000 
0.007767 -0.024146 0.421000 -0.000000 -0.000000 -1.000000 
0.007767 -0.023367 0.421000 -0.000000 -0.000000 -1.000000 
0.007767 -0.022588 0.421000 -0.000000 -0.000000 -1.000000 
0.007767 -0.021809 0.421000 -0.050406 -0.468636 -0.881952 
0.007767 -0.021031 0.421000 0.003192 -0.505594 -0.862765 
0.007749 -0.020204 0.420000 -0.026663 -0.261585 -0.964812 
0.007749 -0.019426 0.420000 0.000000 -0.000000 -1.000000 
0.007749 -0.018649 0.420000 -0.000000 -0.000000 -1.000000 
0.007749 -0.017872 0.420000 -0.000000 -0.000000 -1.000000 
0.007749 -0.017095 0.420000 0.000000 0.000000 -1.000000 
0.007749 -0.016318 0.420000 -0.000000 -0.000000 -1.000000 
0.007749 -0.015541 0.420000 -0.000000 -0.000000 -1.000000 
0.007749 -0.014764 0.420000 0.000000 0.000000 -1.000000 
0.007749 -0.013987 0.420000 0.119201 0.244929 -0.962186 
0.007749 -0.013210 0.420000 0.329688 0.424565 -0.843238 
0.007767 -0.012463 0.421000 0.329234 0.424335 -0.843531 
0.007767 -0.011684 0.421000 0.172217 0.236519 -0.956243 
0.007767 -0.010905 0.421000 -0.000000 -0.000000 -1.000000 
0.007767 -0.010126 0.421000 -0.000000 -0.000000 -1.000000 
0.007767 -0.009347 0.421000 -0.000000 -0.000000 -1.000000 
0.007767 -0.008568 0.421000 0.071476 0.585486 -0.807525 
0.007786 -0.007808 0.422000 -0.069601 0.586383 -0.807038 
0.007786 -0.007027 0.422000 0.171203 0.237010 -0.956303 
0.007786 -0.006246 0.422000 0.206736 0.568922 -0.795982 
0.007804 -0.005478 0.423000 0.205242 0.687147 -0.696926 
0.007823 -0.004707 0.424000 0.261044 0.664768 -0.699957 
0.007823 -0.003922 0.424000 0.260584 0.663801 -0.701046 
0.007841 -0.003145 0.425000 0.110087 0.748793 -0.653598 
0.007860 -0.002364 0.426000 0.070592 0.577409 -0.813397 
0.007860 -0.001576 0.426000 -0.068295 0.577497 -0.813531 
0.007878 -0.000790 0.427000 -0.068392 0.576923 -0.813930 
0.007878 0.000000 0.427000 -0.000000 -0.000000 -1.000000 
0.007878 0.000790 0.427000 0.069893 0.573650 -0.816113 
0.007897 0.001584 0.428000 0.069998 0.573054 -0.816523 
0.007897 0.002376 0.428000 -0.178402 0.439782 -0.880207 
0.007915 0.003175 0.429000 -0.201815 0.561995 -0.802142 
0.007915 0.003969 0.429000 -0.060523 0.690596 -0.720704 
0.007934 0.004773 0.430000 0.000222 0.778317 -0.627872 
0.007952 0.005582 0.431000 0.000224 0.776929 -0.629588 
0.007970 0.006394 0.432000 -0.067217 0.567736 -0.820462 
0.007970 0.007193 0.432000 -0.040185 0.550105 -0.834128 
0.007989 0.008011 0.433000 -0.000224 0.773398 -0.633920 
0.008007 0.008833 0.434000 -0.066793 0.564360 -0.822822 
0.008007 0.009635 0.434000 0.164108 0.232452 -0.958663 
0.008007 0.010438 0.434000 0.198599 0.548729 -0.812068 
0.008026 0.011267 0.435000 0.106934 0.728607 -0.676533 
0.008044 0.012100 0.436000 0.186688 0.754816 -0.628808 
0.008063 0.012936 0.437000 0.258719 0.799199 -0.542536 
0.008081 0.013776 0.438000 0.305609 0.804946 -0.508591 
0.008118 0.014653 0.440000 0.183007 0.819550 -0.542998 
0.008136 0.015502 0.441000 0.065268 0.733785 -0.676239 
0.008155 0.016355 0.442000 0.195309 0.539229 -0.819199 
0.008155 0.017173 0.442000 0.160163 0.228355 -0.960313 
0.008155 0.017991 0.442000 0.109852 0.236593 -0.965379 
0.008155 0.018809 0.442000 0.123073 0.307880 -0.943431 
0.008395 0.020204 0.455000 -0.000000 -0.000000 -1.000000 
0.008395 0.021045 0.455000 0.000000 -0.000000 -1.000000 
0.008395 0.021887 0.455000 -0.000000 -0.000000 -1.000000 
0.008395 0.022729 0.455000 -0.165407 0.410091 -0.896920 
0.008413 0.023623 0.456000 -0.189024 0.527570 -0.828215 
0.008413 0.024466 0.456000 -0.118982 0.509301 -0.852324 
0.008727 -0.069214 0.430000 -0.094249 -0.798880 -0.594060 
0.008707 -0.068259 0.429000 -0.032200 -0.721441 -0.691727 
0.008686 -0.067308 0.428000 -0.072908 -0.714500 -0.695826 
0.008646 -0.066205 0.426000 -0.179806 -0.639342 -0.747604 
0.008646 -0.065417 0.426000 -0.155893 -0.663033 -0.732178 
0.008625 -0.064477 0.425000 0.000091 -0.729438 -0.684047 
0.008605 -0.063541 0.424000 -0.016713 -0.522201 -0.852659 
0.008605 -0.062757 0.424000 -0.016691 -0.523209 -0.852041 
0.008585 -0.061826 0.423000 -0.063223 -0.544507 -0.836370 
0.008585 -0.061043 0.423000 -0.016778 -0.524753 -0.851089 
0.008565 -0.060118 0.422000 -0.063384 -0.546713 -0.834918 
0.008565 -0.059338 0.422000 -0.168673 -0.433757 -0.885101 
0.008544 -0.058418 0.421000 -0.262107 -0.401043 -0.877761 
0.008544 -0.057639 0.421000 -0.000000 -0.000000 -1.000000 
0.008544 -0.056860 0.421000 -0.169593 -0.435104 -0.884264 
0.008524 -0.055948 0.420000 -0.263304 -0.402496 -0.876737 
0.008524 -0.055171 0.420000 -0.108891 -0.261725 -0.958980 
0.008524 -0.054394 0.420000 -0.000000 -0.000000 -1.000000 
0.008524 -0.053617 0.420000 -0.128863 -0.397204 -0.908638 
0.008504 -0.052714 0.419000 -0.129036 -0.397883 -0.908317 
0.008504 -0.051939 0.419000 -0.000000 0.000008 -1.000000 
0.008504 -0.051164 0.419000 0.000000 -0.000008 -1.000000 
0.008504 -0.050389 0.419000 0.000000 -0.000000 -1.000000 
0.008504 -0.049613 0.419000 -0.000000 -0.000001 -1.000000 
0.008504 -0.048838 0.419000 0.000000 -0.000008 -1.000000 
0.008504 -0.048063 0.419000 -0.000000 0.000008 -1.000000 
0.008504 -0.047288 0.419000 -0.000000 -0.000000 -1.000000 
0.008504 -0.046512 0.419000 -0.000000 -0.000000 -1.000000 
0.008504 -0.044187 0.419000 -0.000000 0.000000 -1.000000 
0.008504 -0.043412 0.419000 0.000000 -0.000000 -1.000000 
0.008504 -0.042636 0.419000 -0.000000 -0.000001 -1.000000 
0.008504 -0.041861 0.419000 0.000000 -0.000008 -1.000000 
0.008504 -0.041086 0.419000 -0.000000 0.000008 -1.000000 
0.008504 -0.040311 0.419000 0.176811 0.231474 -0.956639 
0.008504 -0.039536 0.419000 0.216760 0.590889 -0.777087 
0.008524 -0.038853 0.420000 0.088203 0.478772 -0.873497 
0.008524 -0.038076 0.420000 -0.000000 0.000000 -1.000000 
0.008524 -0.037299 0.420000 -0.000000 -0.000000 -1.000000 
0.008524 -0.036522 0.420000 0.192826 0.452548 -0.870643 
0.008544 -0.035830 0.421000 0.215413 0.587492 -0.780032 
0.008544 -0.035051 0.421000 0.120806 0.237731 -0.963789 
0.008544 -0.034272 0.421000 -0.000000 -0.000000 -1.000000 
0.008544 -0.033493 0.421000 -0.082203 0.478110 -0.874445 
0.008565 -0.032792 0.422000 -0.386974 0.434959 -0.813057 
0.008565 -0.032011 0.422000 -0.475736 -0.013307 -0.879488 
0.008565 -0.031230 0.422000 -0.472462 -0.223055 -0.852658 
0.008544 -0.030377 0.421000 -0.314246 -0.422311 -0.850237 
0.008544 -0.029599 0.421000 -0.164570 -0.246830 -0.954982 
0.008544 -0.028820 0.421000 -0.235277 -0.174246 -0.956181 
0.008544 -0.028041 0.421000 -0.326992 -0.252863 -0.910569 
0.008544 -0.027262 0.421000 -0.476913 -0.011432 -0.878876 
0.008544 -0.026483 0.421000 -0.476936 -0.011081 -0.878868 
0.008544 -0.025704 0.421000 -0.476957 -0.010729 -0.878861 
0.008544 -0.024925 0.421000 -0.476979 -0.010378 -0.878854 
0.008544 -0.024146 0.421000 -0.340515 0.236560 -0.909994 
0.008544 -0.023367 0.421000 -0.355225 -0.017001 -0.934626 
0.008544 -0.022588 0.421000 -0.328561 -0.251236 -0.910455 
0.008544 -0.021809 0.421000 -0.476173 -0.221670 -0.850953 
0.008524 -0.020981 0.420000 -0.182735 -0.491432 -0.851529 
0.008524 -0.020204 0.420000 -0.112155 -0.254579 -0.960526 
0.008524 -0.019426 0.420000 -0.000000 -0.000000 -1.000000 
0.008524 -0.018649 0.420000 0.000000 -0.000000 -1.000000 
0.008524 -0.017872 0.420000 0.000000 0.000000 -1.000000 
0.008524 -0.017095 0.420000 -0.000000 0.000000 -1.000000 
0.008524 -0.016318 0.420000 0.000000 -0.000000 -1.000000 
0.008524 -0.015541 0.420000 -0.000000 -0.000000 -1.000000 
0.008524 -0.014764 0.420000 -0.000000 -0.000000 -1.000000 
0.008524 -0.013987 0.420000 0.187426 0.447793 -0.874273 
0.008544 -0.013241 0.421000 0.209150 0.574756 -0.791146 
0.008544 -0.012463 0.421000 0.172384 0.236488 -0.956220 
0.008544 -0.011684 0.421000 -0.000000 -0.000000 -1.000000 
0.008544 -0.010905 0.421000 -0.000000 -0.000000 -1.000000 
0.008544 -0.010126 0.421000 -0.000000 -0.000000 -1.000000 
0.008544 -0.009347 0.421000 0.172052 0.237052 -0.956141 
0.008544 -0.008568 0.421000 0.207706 0.570969 -0.794262 
0.008565 -0.007808 0.422000 0.083977 0.469463 -0.878950 
0.008565 -0.007027 0.422000 0.185072 0.444182 -0.876613 
0.008585 -0.006261 0.423000 0.261836 0.666519 -0.697993 
0.008585 -0.005478 0.423000 0.261393 0.665529 -0.699103 
0.008605 -0.004707 0.424000 0.205157 0.685337 -0.698731 
0.008625 -0.003932 0.425000 0.205512 0.565382 -0.798816 
0.008625 -0.003145 0.425000 0.144324 0.681818 -0.717144 
0.008646 -0.002364 0.426000 -0.068554 0.578960 -0.812469 
0.008646 -0.001576 0.426000 0.070326 0.575955 -0.814451 
0.008666 -0.000790 0.427000 -0.068295 0.576995 -0.813887 
0.008666 0.000000 0.427000 -0.000000 -0.000000 -1.000000 
0.008666 0.000790 0.427000 0.069988 0.573576 -0.816157 
0.008686 0.001584 0.428000 -0.067983 0.574580 -0.815620 
0.008686 0.002376 0.428000 -0.111466 0.244663 -0.963180 
0.008686 0.003167 0.428000 -0.201732 0.562243 -0.801990 
0.008707 0.003969 0.429000 -0.072208 0.747271 -0.660585 
0.008727 0.004773 0.430000 -0.000222 0.778321 -0.627866 
0.008747 0.005582 0.431000 -0.000224 0.776933 -0.629583 
0.008767 0.006394 0.432000 0.061969 0.685038 -0.725867 
0.008767 0.007193 0.432000 0.200156 0.551904 -0.809531 
0.008788 0.008011 0.433000 0.107737 0.732787 -0.671875 
0.008808 0.008833 0.434000 -0.066698 0.564430 -0.822782 
0.008808 0.009635 0.434000 0.176912 0.428715 -0.885949 
0.008828 0.010463 0.435000 0.198598 0.548507 -0.812218 
0.008828 0.011267 0.435000 0.182899 0.671763 -0.717832 
0.008849 0.012100 0.436000 0.273541 0.790315 -0.548249 
0.008889 0.012966 0.438000 0.249153 0.785586 -0.566372 
0.008910 0.013808 0.439000 0.201574 0.784903 -0.585914 
0.008930 0.014653 0.440000 0.124885 0.790123 -0.600092 
0.008950 0.015502 0.441000 0.000235 0.761561 -0.648093 
0.008970 0.016355 0.442000 0.067265 0.551048 -0.831758 
0.008970 0.017173 0.442000 -0.000000 -0.000000 -1.000000 
0.008970 0.017991 0.442000 0.077803 0.441214 -0.894023 
0.008991 0.018851 0.443000 0.188730 0.545838 -0.816359 
0.009234 0.020204 0.455000 0.000000 -0.000000 -1.000000 
0.009234 0.021045 0.455000 -0.000000 -0.000000 -1.000000 
0.009234 0.021887 0.455000 0.000000 -0.000000 -1.000000 
0.009234 0.022729 0.455000 -0.152744 0.223304 -0.962707 
0.009234 0.023571 0.455000 -0.189046 0.527763 -0.828087 
0.009255 0.024466 0.456000 -0.006722 0.722835 -0.690988 
0.009498 -0.069053 0.429000 -0.271154 -0.629045 -0.728545 
0.009498 -0.068259 0.429000 -0.270918 -0.656083 -0.704385 
0.009476 -0.067308 0.428000 -0.145261 -0.691262 -0.707853 
0.009432 -0.065417 0.426000 -0.179947 -0.507828 -0.842455 
0.009410 -0.064477 0.425000 -0.064037 -0.692162 -0.718895 
0.009387 -0.063541 0.424000 -0.016623 -0.522233 -0.852641 
0.009387 -0.062757 0.424000 -0.016621 -0.523237 -0.852025 
0.009365 -0.061826 0.423000 -0.016690 -0.523547 -0.851833 
0.009365 -0.061043 0.423000 -0.016714 -0.524779 -0.851074 
0.009343 -0.060118 0.422000 -0.016706 -0.525770 -0.850463 
0.009343 -0.059338 0.422000 -0.016719 -0.526785 -0.849834 
0.009321 -0.058418 0.421000 -0.127542 -0.394954 -0.909805 
0.009321 -0.057639 0.421000 -0.000000 -0.000000 -1.000000 
0.009321 -0.056860 0.421000 -0.016806 -0.528759 -0.848606 
0.009299 -0.055948 0.420000 -0.128189 -0.396439 -0.909068 
0.009299 -0.055171 0.420000 0.000000 -0.000000 -1.000000 
0.009299 -0.054394 0.420000 -0.161670 -0.251325 -0.954305 
0.009299 -0.053617 0.420000 -0.264161 -0.403900 -0.875833 
0.009277 -0.052714 0.419000 -0.073076 -0.459802 -0.885010 
0.009277 -0.051939 0.419000 -0.000000 0.000000 -1.000000 
0.009277 -0.051164 0.419000 0.000000 0.000000 -1.000000 
0.009277 -0.050389 0.419000 0.000000 0.000000 -1.000000 
0.009277 -0.049613 0.419000 -0.000000 -0.000000 -1.000000 
0.009277 -0.048838 0.419000 0.000000 -0.000000 -1.000000 
0.009277 -0.048063 0.419000 -0.000000 -0.000000 -1.000000 
0.009277 -0.047288 0.419000 -0.000000 -0.000000 -1.000000 
0.009277 -0.044187 0.419000 -0.000000 -0.000000 -1.000000 
0.009277 -0.043412 0.419000 0.000000 0.000000 -1.000000 
0.009277 -0.042636 0.419000 -0.000000 -0.000000 -1.000000 
0.009277 -0.041861 0.419000 0.000000 -0.000000 -1.000000 
0.009277 -0.041086 0.419000 -0.000000 -0.000000 -1.000000 
0.009277 -0.040311 0.419000 0.194246 0.454322 -0.869402 
0.009299 -0.039630 0.420000 0.216801 0.590618 -0.777283 
0.009299 -0.038853 0.420000 0.121665 0.237261 -0.963797 
0.009299 -0.038076 0.420000 -0.000000 0.000000 -1.000000 
0.009299 -0.037299 0.420000 0.176096 0.231383 -0.956793 
0.009299 -0.036522 0.420000 0.215623 0.587808 -0.779736 
0.009321 -0.035830 0.421000 0.192677 0.451495 -0.871222 
0.009321 -0.035051 0.421000 -0.000000 -0.000000 -1.000000 
0.009321 -0.034272 0.421000 -0.000000 -0.000000 -1.000000 
0.009321 -0.033493 0.421000 -0.116524 0.240172 -0.963711 
0.009321 -0.032714 0.421000 -0.342394 0.233235 -0.910147 
0.009321 -0.031935 0.421000 -0.476391 -0.013293 -0.879133 
0.009321 -0.031156 0.421000 -0.325914 -0.253449 -0.910793 
0.009321 -0.030377 0.421000 -0.164322 -0.247061 -0.954966 
0.009321 -0.029599 0.421000 -0.164396 -0.246919 -0.954990 
0.009321 -0.028820 0.421000 -0.315317 -0.423302 -0.849347 
0.009299 -0.027974 0.420000 -0.474839 -0.223022 -0.851346 
0.009299 -0.027197 0.420000 -0.477612 -0.011418 -0.878497 
0.009299 -0.026420 0.420000 -0.477635 -0.011067 -0.878489 
0.009299 -0.025643 0.420000 -0.477656 -0.010716 -0.878481 
0.009299 -0.024866 0.420000 -0.477677 -0.010365 -0.878474 
0.009299 -0.024089 0.420000 -0.508680 0.006261 -0.860933 
0.009321 -0.023367 0.421000 -0.491116 0.039408 -0.870202 
0.009299 -0.022535 0.420000 -0.505506 -0.024945 -0.862462 
0.009299 -0.021758 0.420000 -0.329295 -0.251582 -0.910094 
0.009299 -0.020981 0.420000 -0.166008 -0.245954 -0.954960 
0.009299 -0.020204 0.420000 0.000000 0.000000 -1.000000 
0.009299 -0.019426 0.420000 -0.000000 -0.000000 -1.000000 
0.009299 -0.018649 0.420000 0.000000 -0.000000 -1.000000 
0.009299 -0.017872 0.420000 0.000000 0.000000 -1.000000 
0.009299 -0.017095 0.420000 -0.000000 0.000000 -1.000000 
0.009299 -0.016318 0.420000 0.000000 0.000000 -1.000000 
0.009299 -0.015541 0.420000 -0.000000 -0.000000 -1.000000 
0.009299 -0.014764 0.420000 0.173271 0.236569 -0.956040 
0.009299 -0.013987 0.420000 0.209463 0.574750 -0.791068 
0.009321 -0.013241 0.421000 0.187206 0.447149 -0.874649 
0.009321 -0.012463 0.421000 -0.000000 -0.000000 -1.000000 
0.009321 -0.011684 0.421000 -0.000000 -0.000000 -1.000000 
0.009321 -0.010905 0.421000 -0.000000 -0.000000 -1.000000 
0.009321 -0.010126 0.421000 -0.000000 -0.000000 -1.000000 
0.009321 -0.009347 0.421000 0.186086 0.445460 -0.875750 
0.009343 -0.008588 0.422000 0.207751 0.570723 -0.794427 
0.009343 -0.007808 0.422000 0.263421 0.449025 -0.853807 
0.009343 -0.007027 0.422000 0.206996 0.568915 -0.795920 
0.009365 -0.006261 0.423000 0.325951 0.647275 -0.689051 
0.009387 -0.005491 0.424000 0.206258 0.567023 -0.797460 
0.009387 -0.004707 0.424000 0.144837 0.683796 -0.715154 
0.009410 -0.003932 0.425000 0.144713 0.682740 -0.716187 
0.009410 -0.003145 0.425000 0.204981 0.563836 -0.800045 
0.009432 -0.002364 0.426000 0.082822 0.463412 -0.882264 
0.009432 -0.001576 0.426000 0.070408 0.575880 -0.814497 
0.009454 -0.000790 0.427000 -0.068184 0.577068 -0.813845 
0.009454 0.000000 0.427000 -0.000000 -0.000000 -1.000000 
0.009454 0.000790 0.427000 0.070068 0.573503 -0.816202 
0.009476 0.001584 0.428000 0.070164 0.572908 -0.816611 
0.009476 0.002376 0.428000 0.000000 -0.000002 -1.000000 
0.009476 0.003167 0.428000 -0.067435 0.572850 -0.816881 
0.009498 0.003969 0.429000 -0.000232 0.779729 -0.626117 
0.009520 0.004773 0.430000 -0.000222 0.778321 -0.627866 
0.009542 0.005582 0.431000 -0.000224 0.776934 -0.629583 
0.009565 0.006394 0.432000 0.072397 0.741376 -0.667174 
0.009587 0.007210 0.433000 0.200151 0.551672 -0.809690 
0.009587 0.008011 0.433000 0.140845 0.665901 -0.732624 
0.009609 0.008833 0.434000 0.140745 0.664908 -0.733545 
0.009609 0.009635 0.434000 0.198949 0.548508 -0.812132 
0.009631 0.010463 0.435000 0.303994 0.557887 -0.772237 
0.009631 0.011267 0.435000 0.301709 0.590241 -0.748724 
0.009675 0.012128 0.437000 0.272826 0.789124 -0.550317 
0.009697 0.012966 0.438000 0.217552 0.770307 -0.599414 
0.009720 0.013808 0.439000 0.145311 0.743307 -0.652977 
0.009742 0.014653 0.440000 0.000234 0.763066 -0.646321 
0.009764 0.015502 0.441000 0.000235 0.761561 -0.648093 
0.009786 0.016355 0.442000 -0.065209 0.552603 -0.830890 
0.009786 0.017173 0.442000 0.000000 -0.000000 -1.000000 
0.009786 0.017991 0.442000 0.066995 0.549386 -0.832879 
0.009808 0.018851 0.443000 0.108561 0.633988 -0.765685 
0.010074 0.020204 0.455000 0.000000 0.000000 -1.000000 
0.010074 0.021045 0.455000 0.000000 0.000001 -1.000000 
0.010074 0.021887 0.455000 0.000000 -0.000000 -1.000000 
0.010074 0.022729 0.455000 -0.000000 -0.000000 -1.000000 
0.010074 0.023571 0.455000 -0.124549 0.373236 -0.919338 
0.010096 0.024466 0.456000 -0.019921 0.748614 -0.662707 
0.010290 -0.069053 0.429000 -0.106312 -0.748606 -0.654436 
0.010266 -0.068100 0.428000 -0.263137 -0.649574 -0.713311 
0.010194 -0.065264 0.425000 -0.142875 -0.572839 -0.807120 
0.010194 -0.064477 0.425000 -0.076623 -0.630500 -0.772398 
0.010170 -0.063541 0.424000 -0.016532 -0.522266 -0.852623 
0.010170 -0.062757 0.424000 -0.016547 -0.523266 -0.852009 
0.010146 -0.061826 0.423000 -0.016618 -0.523577 -0.851816 
0.010146 -0.061043 0.423000 -0.016605 -0.524816 -0.851054 
0.010122 -0.060118 0.422000 -0.016630 -0.525801 -0.850445 
0.010122 -0.059338 0.422000 -0.016636 -0.526813 -0.849818 
0.010098 -0.058418 0.421000 -0.016687 -0.527133 -0.849619 
0.010098 -0.057639 0.421000 -0.000000 -0.000000 -1.000000 
0.010098 -0.056860 0.421000 -0.127827 -0.395899 -0.909354 
0.010074 -0.055948 0.420000 -0.016781 -0.529445 -0.848179 
0.010074 -0.055171 0.420000 0.000000 -0.000000 -1.000000 
0.010074 -0.054394 0.420000 -0.170084 -0.436990 -0.883239 
0.010050 -0.053489 0.419000 -0.264372 -0.404280 -0.875594 
0.010050 -0.052714 0.419000 -0.162186 -0.251999 -0.954040 
0.010050 -0.051939 0.419000 0.000000 0.000000 -1.000000 
0.010050 -0.051164 0.419000 -0.000000 0.000000 -1.000000 
0.010050 -0.050389 0.419000 -0.000000 0.000000 -1.000000 
0.010050 -0.049613 0.419000 0.000000 0.000001 -1.000000 
0.010050 -0.048838 0.419000 -0.000000 -0.000000 -1.000000 
0.010050 -0.048063 0.419000 -0.000000 -0.000000 -1.000000 
0.010050 -0.044962 0.419000 -0.000000 0.000000 -1.000000 
0.010050 -0.044187 0.419000 -0.000000 -0.000000 -1.000000 
0.010050 -0.043412 0.419000 -0.000000 -0.000001 -1.000000 
0.010050 -0.042636 0.419000 0.000000 0.000000 -1.000000 
0.010050 -0.041861 0.419000 -0.000000 0.000000 -1.000000 
0.010050 -0.041086 0.419000 0.122683 0.237541 -0.963599 
0.010050 -0.040311 0.419000 0.217027 0.590929 -0.776982 
0.010074 -0.039630 0.420000 0.194119 0.453254 -0.869988 
0.010074 -0.038853 0.420000 0.000000 0.000000 -1.000000 
0.010074 -0.038076 0.420000 -0.000000 -0.000000 -1.000000 
0.010074 -0.037299 0.420000 0.193226 0.452308 -0.870679 
0.010098 -0.036609 0.421000 0.215698 0.587527 -0.779927 
0.010098 -0.035830 0.421000 0.175523 0.230771 -0.957046 
0.010098 -0.035051 0.421000 -0.000000 -0.000000 -1.000000 
0.010098 -0.034272 0.421000 -0.000000 -0.000000 -1.000000 
0.010098 -0.033493 0.421000 -0.000000 -0.000000 -1.000000 
0.010098 -0.032714 0.421000 -0.000000 -0.000000 -1.000000 
0.010098 -0.031935 0.421000 -0.000000 -0.000000 -1.000000 
0.010098 -0.031156 0.421000 -0.000000 -0.000000 -1.000000 
0.010098 -0.030377 0.421000 -0.164180 -0.247115 -0.954976 
0.010098 -0.029599 0.421000 -0.314927 -0.423721 -0.849283 
0.010074 -0.028751 0.420000 -0.315460 -0.423765 -0.849063 
0.010074 -0.027974 0.420000 -0.164937 -0.247358 -0.954783 
0.010074 -0.027197 0.420000 -0.000000 0.000000 -1.000000 
0.010074 -0.026420 0.420000 0.000000 -0.000000 -1.000000 
0.010074 -0.025643 0.420000 -0.000000 -0.000000 -1.000000 
0.010074 -0.024866 0.420000 0.000000 0.000000 -1.000000 
0.010074 -0.024089 0.420000 -0.173456 0.134286 -0.975644 
0.010074 -0.022535 0.420000 -0.169634 -0.145863 -0.974653 
0.010074 -0.021758 0.420000 0.000000 -0.000000 -1.000000 
0.010074 -0.020981 0.420000 0.000000 0.000000 -1.000000 
0.010074 -0.020204 0.420000 0.174096 0.235018 -0.956272 
0.010074 -0.019426 0.420000 0.339391 0.233261 -0.911265 
0.010074 -0.018649 0.420000 0.329561 -0.245422 -0.911678 
0.010074 -0.017872 0.420000 0.169194 -0.242898 -0.955183 
0.010074 -0.017095 0.420000 -0.000000 0.000000 -1.000000 
0.010074 -0.016318 0.420000 0.000000 -0.000000 -1.000000 
0.010074 -0.015541 0.420000 0.173479 0.236278 -0.956074 
0.010074 -0.014764 0.420000 0.330033 0.423796 -0.843490 
0.010098 -0.014020 0.421000 0.329634 0.423463 -0.843813 
0.010098 -0.013241 0.421000 0.172688 0.236163 -0.956246 
0.010098 -0.012463 0.421000 -0.000000 -0.000000 -1.000000 
0.010098 -0.011684 0.421000 -0.000000 -0.000000 -1.000000 
0.010098 -0.010905 0.421000 -0.000000 -0.000000 -1.000000 
0.010098 -0.010126 0.421000 0.119018 0.244876 -0.962222 
0.010098 -0.009347 0.421000 0.207975 0.570940 -0.794213 
0.010122 -0.008588 0.422000 0.185983 0.444628 -0.876194 
0.010122 -0.007808 0.422000 0.084433 0.468848 -0.879234 
0.010146 -0.007043 0.423000 0.262111 0.666513 -0.697896 
0.010146 -0.006261 0.423000 0.261656 0.665534 -0.699000 
0.010170 -0.005491 0.424000 0.253373 0.581952 -0.772744 
0.010170 -0.004707 0.424000 0.205745 0.565441 -0.798715 
0.010194 -0.003932 0.425000 0.204844 0.683351 -0.700764 
0.010218 -0.003153 0.426000 0.205029 0.563585 -0.800210 
0.010218 -0.002364 0.426000 0.169157 0.234866 -0.957196 
0.010218 -0.001576 0.426000 -0.067980 0.577716 -0.813402 
0.010242 -0.000790 0.427000 0.070589 0.575229 -0.814941 
0.010242 0.000000 0.427000 -0.000000 -0.000000 -1.000000 
0.010242 0.000790 0.427000 0.070157 0.573437 -0.816240 
0.010266 0.001584 0.428000 0.070274 0.572840 -0.816649 
0.010266 0.002376 0.428000 -0.000000 0.000005 -1.000000 
0.010266 0.003167 0.428000 0.054524 0.430070 -0.901147 
0.010290 0.003969 0.429000 0.097579 0.796697 -0.596449 
0.010314 0.004773 0.430000 0.108559 0.737650 -0.666398 
0.010338 0.005582 0.431000 0.000224 0.776929 -0.629589 
0.010362 0.006394 0.432000 0.000226 0.775523 -0.631319 
0.010386 0.007210 0.433000 0.141258 0.666859 -0.731673 
0.010386 0.008011 0.433000 0.025323 0.590117 -0.806920 
0.010410 0.008833 0.434000 0.199294 0.665944 -0.718888 
0.010434 0.009658 0.435000 0.253183 0.644694 -0.721296 
0.010434 0.010463 0.435000 0.397900 0.559921 -0.726749 
0.010458 0.011293 0.436000 0.371303 0.702128 -0.607577 
0.010482 0.012128 0.437000 0.315493 0.745299 -0.587362 
0.010506 0.012966 0.438000 0.202625 0.785840 -0.584293 
0.010530 0.013808 0.439000 0.208960 0.718541 -0.663351 
0.010554 0.014653 0.440000 0.071816 0.727991 -0.681815 
0.010577 0.015502 0.441000 -0.000236 0.761566 -0.648087 
0.010601 0.016355 0.442000 -0.065090 0.552673 -0.830853 
0.010601 0.017173 0.442000 0.000000 -0.000000 -1.000000 
0.010601 0.017991 0.442000 0.067056 0.549317 -0.832919 
0.010625 0.018851 0.443000 -0.023305 0.657559 -0.753043 
0.010913 0.020204 0.455000 -0.342248 0.146891 -0.928057 
0.010913 0.021045 0.455000 -0.304655 0.228857 -0.924559 
0.010913 0.021887 0.455000 -0.152604 0.223232 -0.962746 
0.010913 0.022729 0.455000 -0.000000 -0.000000 -1.000000 
0.010913 0.023571 0.455000 0.000975 0.513753 -0.857938 
0.010961 0.024520 0.457000 -0.022114 0.742053 -0.669976 
0.011081 -0.069053 0.429000 -0.021686 -0.683806 -0.729342 
0.011055 -0.068100 0.428000 -0.133453 -0.731664 -0.668475 
0.011030 -0.067151 0.427000 -0.095019 -0.776440 -0.622987 
0.010978 -0.065264 0.425000 -0.009597 -0.415792 -0.909409 
0.010978 -0.064477 0.425000 -0.016448 -0.521319 -0.853203 
0.010952 -0.063541 0.424000 -0.016466 -0.522294 -0.852606 
0.010952 -0.062757 0.424000 -0.016443 -0.523299 -0.851990 
0.010926 -0.061826 0.423000 -0.016524 -0.523608 -0.851799 
0.010926 -0.061043 0.423000 -0.016530 -0.524847 -0.851036 
0.010900 -0.060118 0.422000 -0.016559 -0.525828 -0.850430 
0.010900 -0.059338 0.422000 -0.016528 -0.526850 -0.849797 
0.010875 -0.058418 0.421000 -0.016625 -0.527159 -0.849604 
0.010875 -0.057639 0.421000 -0.107726 -0.261381 -0.959206 
0.010875 -0.056860 0.421000 -0.083892 -0.560673 -0.823777 
0.010849 -0.055948 0.420000 -0.169391 -0.436316 -0.883705 
0.010849 -0.055171 0.420000 -0.000000 -0.000000 -1.000000 
0.010849 -0.054394 0.420000 -0.016701 -0.530919 -0.847258 
0.010823 -0.053489 0.419000 -0.128484 -0.398082 -0.908308 
0.010823 -0.052714 0.419000 -0.000000 -0.000000 -1.000000 
0.010823 -0.051939 0.419000 0.000000 -0.000000 -1.000000 
0.010823 -0.051164 0.419000 -0.000000 0.000000 -1.000000 
0.010823 -0.050389 0.419000 -0.000000 -0.000001 -1.000000 
0.010823 -0.049613 0.419000 0.000000 0.000001 -1.000000 
0.010823 -0.048838 0.419000 -0.000000 -0.000000 -1.000000 
0.010823 -0.044962 0.419000 -0.000000 -0.000000 -1.000000 
0.010823 -0.044187 0.419000 0.000000 0.000000 -1.000000 
0.010823 -0.043412 0.419000 -0.000000 0.000000 -1.000000 
0.010823 -0.042636 0.419000 0.000000 -0.000000 -1.000000 
0.010823 -0.041861 0.419000 -0.000000 0.000000 -1.000000 
0.010823 -0.041086 0.419000 0.089439 0.479903 -0.872751 
0.010849 -0.040407 0.420000 0.217118 0.590630 -0.777184 
0.010849 -0.039630 0.420000 0.176538 0.230450 -0.956936 
0.010849 -0.038853 0.420000 -0.000000 0.000000 -1.000000 
0.010849 -0.038076 0.420000 0.000000 -0.000000 -1.000000 
0.010849 -0.037299 0.420000 -0.071933 0.606556 -0.791780 
0.010875 -0.036609 0.421000 0.074974 0.603598 -0.793756 
0.010875 -0.035830 0.421000 -0.000000 -0.000000 -1.000000 
0.010875 -0.035051 0.421000 -0.000000 -0.000000 -1.000000 
0.010875 -0.034272 0.421000 -0.000000 -0.000000 -1.000000 
0.010875 -0.033493 0.421000 -0.000000 -0.000000 -1.000000 
0.010875 -0.032714 0.421000 -0.000000 -0.000000 -1.000000 
0.010875 -0.031935 0.421000 -0.000000 -0.000000 -1.000000 
0.010875 -0.031156 0.421000 -0.164081 -0.247079 -0.955002 
0.010875 -0.030377 0.421000 -0.314878 -0.423744 -0.849289 
0.010849 -0.029528 0.420000 -0.315268 -0.424038 -0.848998 
0.010849 -0.028751 0.420000 -0.164714 -0.247607 -0.954757 
0.010849 -0.027974 0.420000 0.000000 0.000000 -1.000000 
0.010849 -0.027197 0.420000 -0.000000 -0.000000 -1.000000 
0.010849 -0.026420 0.420000 0.000000 -0.000000 -1.000000 
0.010849 -0.025643 0.420000 -0.000000 -0.000000 -1.000000 
0.010849 -0.024866 0.420000 0.000000 0.000000 -1.000000 
0.010849 -0.024089 0.420000 0.000000 -0.000000 -1.000000 
0.010849 -0.023312 0.420000 -0.000000 -0.000000 -1.000000 
0.010849 -0.022535 0.420000 -0.000000 0.000000 -1.000000 
0.010849 -0.021758 0.420000 -0.000000 -0.000000 -1.000000 
0.010849 -0.020981 0.420000 0.120528 0.242688 -0.962588 
0.010849 -0.020204 0.420000 0.200724 0.493153 -0.846469 
0.010875 -0.019473 0.421000 0.480442 0.206820 -0.852292 
0.010875 -0.018694 0.421000 0.470119 -0.215297 -0.855941 
0.010849 -0.017872 0.420000 0.470630 -0.215028 -0.855728 
0.010849 -0.017095 0.420000 0.470504 -0.006903 -0.882371 
0.010849 -0.016318 0.420000 0.470518 -0.006566 -0.882366 
0.010849 -0.015541 0.420000 0.479657 0.207758 -0.852505 
0.010875 -0.014799 0.421000 0.329976 0.423276 -0.843773 
0.010875 -0.014020 0.421000 0.173007 0.235652 -0.956314 
0.010875 -0.013241 0.421000 -0.000000 -0.000000 -1.000000 
0.010875 -0.012463 0.421000 -0.000000 -0.000000 -1.000000 
0.010875 -0.011684 0.421000 -0.000000 -0.000000 -1.000000 
0.010875 -0.010905 0.421000 -0.000000 -0.000000 -1.000000 
0.010875 -0.010126 0.421000 0.186514 0.445253 -0.875764 
0.010900 -0.009369 0.422000 0.208026 0.570678 -0.794388 
0.010900 -0.008588 0.422000 0.118539 0.244250 -0.962440 
0.010900 -0.007808 0.422000 0.071684 0.583666 -0.808824 
0.010926 -0.007043 0.423000 0.111160 0.753569 -0.647902 
0.010952 -0.006276 0.424000 0.206553 0.567030 -0.797379 
0.010952 -0.005491 0.424000 0.253160 0.581405 -0.773226 
0.010978 -0.004718 0.425000 0.205885 0.565159 -0.798878 
0.010978 -0.003932 0.425000 0.064230 0.699085 -0.712148 
0.011004 -0.003153 0.426000 0.071056 0.577578 -0.813237 
0.011004 -0.002364 0.426000 -0.000000 -0.000009 -1.000000 
0.011004 -0.001576 0.426000 -0.067928 0.577776 -0.813364 
