0.007090 -0.058461 0.427000 -0.000000 -0.000000 -1.000000 
0.007090 -0.057671 0.427000 -0.017042 -0.522502 -0.852468 
0.007074 -0.056747 0.426000 0.052907 -0.419294 -0.906308 
0.007074 -0.055959 0.426000 -0.000000 -0.000000 -1.000000 
0.007074 -0.055171 0.426000 -0.000000 -0.000000 -1.000000 
0.007074 -0.054383 0.426000 0.000000 -0.000000 -1.000000 
0.007074 -0.053595 0.426000 0.170788 -0.428028 -0.887482 
0.007057 -0.052683 0.425000 0.246592 -0.469550 -0.847770 
0.007057 -0.051896 0.425000 -0.000000 -0.000000 -1.000000 
0.007057 -0.051110 0.425000 -0.000000 -0.000000 -1.000000 
0.007057 -0.050324 0.425000 -0.000000 -0.000000 -1.000000 
0.007057 -0.049537 0.425000 -0.000000 -0.000000 -1.000000 
0.007057 -0.048751 0.425000 -0.000000 -0.000000 -1.000000 
0.007057 -0.047965 0.425000 -0.000000 -0.000000 -1.000000 
0.007057 -0.046392 0.425000 -0.000000 -0.000000 -1.000000 
0.007057 -0.045606 0.425000 -0.000000 -0.000000 -1.000000 
0.007057 -0.044820 0.425000 -0.000000 -0.000000 -1.000000 
0.007057 -0.044033 0.425000 -0.000000 -0.000000 -1.000000 
0.007057 -0.043247 0.425000 -0.000000 -0.000000 -1.000000 
0.007057 -0.042461 0.425000 -0.000000 -0.000000 -1.000000 
0.007057 -0.041674 0.425000 -0.000000 -0.000000 -1.000000 
0.007057 -0.040888 0.425000 0.173782 0.227802 -0.958074 
0.007057 -0.040102 0.425000 0.336176 0.424124 -0.840895 
0.007074 -0.039408 0.426000 0.335700 0.423902 -0.841197 
0.007074 -0.038620 0.426000 0.173032 0.227411 -0.958303 
0.007074 -0.037832 0.426000 -0.000000 0.000000 -1.000000 
0.007074 -0.037043 0.426000 0.119104 0.234016 -0.964910 
0.007074 -0.036255 0.426000 0.334049 0.422745 -0.842436 
0.007090 -0.035550 0.427000 0.333586 0.422403 -0.842791 
0.007090 -0.034760 0.427000 0.118366 0.233920 -0.965024 
0.007090 -0.033970 0.427000 0.073068 0.594492 -0.800775 
0.007107 -0.033258 0.428000 0.073181 0.593812 -0.801269 
0.007107 -0.032466 0.428000 0.000000 0.000008 -1.000000 
0.007107 -0.031674 0.428000 0.188014 0.443254 -0.876457 
0.007124 -0.030955 0.429000 0.375695 -0.035910 -0.926047 
0.007107 -0.030091 0.428000 0.174666 -0.430593 -0.885484 
0.007107 -0.029299 0.428000 0.000000 0.000000 -1.000000 
0.007107 -0.028507 0.428000 -0.173357 -0.434452 -0.883854 
0.007090 -0.027650 0.427000 -0.196142 -0.549707 -0.812004 
0.007090 -0.026860 0.427000 -0.109972 -0.250699 -0.961798 
0.007090 -0.026070 0.427000 -0.066189 -0.561539 -0.824799 
0.007074 -0.025221 0.426000 -0.066080 -0.562136 -0.824400 
0.007074 -0.024433 0.426000 0.000000 0.000000 -1.000000 
0.007074 -0.023645 0.426000 -0.075594 -0.459550 -0.884929 
0.007057 -0.022803 0.425000 -0.197850 -0.554186 -0.808538 
0.007057 -0.022017 0.425000 -0.164212 -0.242237 -0.956219 
0.007057 -0.021230 0.425000 -0.000000 -0.000000 -1.000000 
0.007057 -0.020444 0.425000 -0.000000 -0.000000 -1.000000 
0.007057 -0.019658 0.425000 -0.110986 -0.250431 -0.961752 
0.007057 -0.018871 0.425000 -0.316613 -0.420753 -0.850131 
0.007041 -0.018043 0.424000 -0.473345 -0.218296 -0.853400 
0.007041 -0.017258 0.424000 -0.472899 -0.006899 -0.881089 
0.007041 -0.016474 0.424000 -0.377711 0.429350 -0.820361 
0.007057 -0.015726 0.425000 -0.079853 0.469623 -0.879248 
0.007057 -0.014940 0.425000 -0.000000 -0.000000 -1.000000 
0.007057 -0.014154 0.425000 -0.000000 -0.000000 -1.000000 
0.007057 -0.013367 0.425000 -0.000000 -0.000000 -1.000000 
0.007057 -0.012581 0.425000 -0.000000 -0.000000 -1.000000 
0.007057 -0.011795 0.425000 0.071148 0.583155 -0.809239 
0.007074 -0.011034 0.426000 -0.069486 0.583860 -0.808875 
0.007074 -0.010246 0.426000 -0.000000 0.000008 -1.000000 
0.007074 -0.009458 0.426000 0.183810 0.440885 -0.878541 
0.007090 -0.008690 0.427000 0.206012 0.566427 -0.797947 
0.007090 -0.007900 0.427000 0.252524 0.581056 -0.773696 
0.007107 -0.007127 0.428000 0.205283 0.564607 -0.799423 
0.007107 -0.006335 0.428000 0.259473 0.443353 -0.857970 
0.007107 -0.005543 0.428000 0.261261 0.488409 -0.832586 
0.007124 -0.004762 0.429000 0.215562 0.741693 -0.635157 
0.007140 -0.003978 0.430000 0.109603 0.745530 -0.657399 
0.007157 -0.003190 0.431000 -0.000221 0.784684 -0.619896 
0.007173 -0.002398 0.432000 0.119699 0.757035 -0.642317 
0.007190 -0.001602 0.433000 -0.065063 0.805265 -0.589334 
0.007207 -0.000803 0.434000 -0.072379 0.747218 -0.660626 
0.007223 0.000000 0.435000 -0.000226 0.779040 -0.626974 
0.007240 0.000807 0.436000 0.141665 0.669462 -0.729213 
0.007240 0.001613 0.436000 0.353092 0.334796 -0.873635 
0.007273 0.002431 0.438000 0.084282 0.846148 -0.526241 
0.007290 0.003249 0.439000 -0.114109 0.764377 -0.634592 
0.007306 0.004070 0.440000 0.000218 0.771997 -0.635626 
0.007323 0.004895 0.441000 -0.000215 0.770618 -0.637297 
0.007339 0.005724 0.442000 -0.138601 0.663169 -0.735524 
0.007339 0.006542 0.442000 -0.179242 0.602178 -0.777981 
0.007356 0.007376 0.443000 -0.256415 0.748318 -0.611778 
0.007373 0.008215 0.444000 -0.312422 0.694297 -0.648339 
0.007389 0.009056 0.445000 -0.417649 0.730777 -0.539939 
0.007406 0.009902 0.446000 -0.288058 0.811115 -0.509034 
0.007439 0.010775 0.448000 -0.242948 0.873763 -0.421325 
0.007472 0.011656 0.450000 -0.245576 0.768781 -0.590481 
0.007489 0.012516 0.451000 -0.252851 0.739190 -0.624232 
0.007506 0.013380 0.452000 -0.363952 0.372257 -0.853794 
0.007506 0.014216 0.452000 -0.057457 0.339381 -0.938892 
0.007506 0.015053 0.452000 0.018011 0.723397 -0.690197 
0.007522 0.015924 0.453000 0.059434 0.659119 -0.749687 
0.007522 0.016762 0.453000 0.306554 0.224641 -0.924965 
0.007522 0.017600 0.453000 0.544923 0.067133 -0.835794 
0.007522 0.018438 0.453000 0.435610 -0.070312 -0.897385 
0.007522 0.019277 0.453000 0.426023 -0.239419 -0.872458 
0.007522 0.020115 0.453000 0.436124 -0.069883 -0.897169 
0.007522 0.020953 0.453000 0.548843 -0.063287 -0.833526 
0.007522 0.021791 0.453000 0.545430 0.067839 -0.835407 
0.007522 0.022629 0.453000 0.548966 -0.063125 -0.833457 
0.007522 0.023467 0.453000 0.563236 0.199704 -0.801800 
0.007522 0.024305 0.453000 0.518089 0.349167 -0.780811 
0.007539 0.025199 0.454000 0.627708 0.246918 -0.738251 
0.007539 0.026039 0.454000 0.610495 0.306201 -0.730436 
0.007539 0.026879 0.454000 0.626856 0.246683 -0.739053 
0.007555 0.027780 0.455000 0.580555 0.316493 -0.750192 
0.008155 -0.077687 0.442000 -0.445121 -0.627152 -0.639178 
0.008136 -0.076696 0.441000 -0.445121 -0.627152 -0.639178 
0.008100 -0.075536 0.439000 -0.445121 -0.627152 -0.639178 
0.008063 -0.073574 0.437000 -0.035236 -0.636145 -0.770765 
0.008063 -0.072766 0.437000 -0.035236 -0.636145 -0.770765 
0.008044 -0.071793 0.436000 0.005136 -0.669339 -0.742940 
0.008026 -0.070823 0.435000 0.000554 -0.719334 -0.694664 
0.008007 -0.069858 0.434000 0.000096 -0.719985 -0.693990 
0.007989 -0.068895 0.433000 -0.000110 -0.721305 -0.692617 
0.007970 -0.067937 0.432000 0.000066 -0.722712 -0.691149 
0.007952 -0.066982 0.431000 -0.016697 -0.514165 -0.857529 
0.007952 -0.066185 0.431000 -0.016704 -0.515330 -0.856829 
0.007934 -0.065236 0.430000 -0.016787 -0.515630 -0.856647 
0.007934 -0.064440 0.430000 -0.016787 -0.516829 -0.855924 
0.007915 -0.063497 0.429000 0.052487 -0.414967 -0.908321 
0.007915 -0.062703 0.429000 -0.000000 -0.000000 -1.000000 
0.007915 -0.061909 0.429000 -0.016853 -0.518839 -0.854706 
0.007897 -0.060973 0.428000 -0.016903 -0.519478 -0.854317 
0.007897 -0.060181 0.428000 0.000000 0.000000 -1.000000 
0.007897 -0.059389 0.428000 0.243899 -0.465138 -0.850976 
0.007878 -0.058461 0.427000 0.042151 -0.344488 -0.937844 
0.007878 -0.057671 0.427000 0.042172 -0.344431 -0.937864 
0.007860 -0.056747 0.426000 0.244960 -0.467131 -0.849578 
0.007860 -0.055959 0.426000 0.000000 -0.000000 -1.000000 
0.007860 -0.055171 0.426000 -0.000000 -0.000000 -1.000000 
0.007860 -0.054383 0.426000 0.000000 -0.000000 -1.000000 
0.007860 -0.053595 0.426000 0.000000 -0.000000 -1.000000 
0.007860 -0.052807 0.426000 0.303935 -0.408769 -0.860541 
0.007841 -0.051896 0.425000 0.328636 -0.336823 -0.882354 
0.007841 -0.051110 0.425000 0.162654 -0.245147 -0.955744 
0.007841 -0.050324 0.425000 -0.000000 -0.000000 -1.000000 
0.007841 -0.049537 0.425000 -0.000000 -0.000000 -1.000000 
0.007841 -0.048751 0.425000 -0.000000 -0.000000 -1.000000 
0.007841 -0.047965 0.425000 -0.000000 -0.000000 -1.000000 
0.007841 -0.046392 0.425000 -0.000000 -0.000000 -1.000000 
0.007841 -0.045606 0.425000 -0.000000 -0.000000 -1.000000 
0.007841 -0.044820 0.425000 -0.000000 -0.000000 -1.000000 
0.007841 -0.044033 0.425000 -0.000000 -0.000000 -1.000000 
0.007841 -0.043247 0.425000 0.174193 0.227092 -0.958168 
0.007841 -0.042461 0.425000 0.340631 0.222733 -0.913433 
0.007841 -0.041674 0.425000 0.465922 -0.016213 -0.884677 
0.007841 -0.040888 0.425000 0.482292 0.200564 -0.852742 
0.007860 -0.040196 0.426000 0.335878 0.423775 -0.841190 
0.007860 -0.039408 0.426000 0.173206 0.227209 -0.958319 
0.007860 -0.038620 0.426000 0.000000 0.000000 -1.000000 
0.007860 -0.037832 0.426000 -0.000000 -0.000001 -1.000000 
0.007860 -0.037043 0.426000 0.190260 0.445840 -0.874659 
0.007878 -0.036340 0.427000 0.213266 0.581546 -0.785062 
0.007878 -0.035550 0.427000 0.172301 0.227424 -0.958431 
0.007878 -0.034760 0.427000 0.172289 0.227736 -0.958359 
0.007878 -0.033970 0.427000 0.212335 0.579290 -0.786979 
0.007897 -0.033258 0.428000 0.188881 0.443639 -0.876075 
0.007897 -0.032466 0.428000 0.171542 0.227619 -0.958521 
0.007897 -0.031674 0.428000 0.211323 0.577014 -0.788922 
0.007915 -0.030955 0.429000 0.308385 -0.349900 -0.884572 
0.007897 -0.030091 0.428000 -0.065403 -0.557468 -0.827618 
0.007897 -0.029299 0.428000 -0.000000 -0.000000 -1.000000 
0.007897 -0.028507 0.428000 0.067614 -0.557755 -0.827247 
0.007878 -0.027650 0.427000 -0.065676 -0.559721 -0.826074 
0.007878 -0.026860 0.427000 -0.000000 -0.000000 -1.000000 
0.007878 -0.026070 0.427000 -0.066094 -0.561606 -0.824761 
0.007860 -0.025221 0.426000 -0.065986 -0.562204 -0.824362 
0.007860 -0.024433 0.426000 -0.000000 -0.000000 -1.000000 
0.007860 -0.023645 0.426000 -0.066373 -0.563876 -0.823188 
0.007841 -0.022803 0.425000 -0.066264 -0.564478 -0.822784 
0.007841 -0.022017 0.425000 -0.000000 -0.000000 -1.000000 
0.007841 -0.021230 0.425000 -0.000000 -0.000000 -1.000000 
0.007841 -0.020444 0.425000 -0.000000 -0.000000 -1.000000 
0.007841 -0.019658 0.425000 -0.176111 -0.439593 -0.880763 
0.007823 -0.018827 0.424000 -0.206568 -0.469731 -0.858302 
0.007823 -0.018043 0.424000 -0.165017 -0.242357 -0.956051 
0.007823 -0.017258 0.424000 0.000000 -0.000000 -1.000000 
0.007823 -0.016474 0.424000 -0.069810 0.588576 -0.805422 
0.007841 -0.015726 0.425000 -0.069923 0.587919 -0.805892 
0.007841 -0.014940 0.425000 -0.000000 -0.000000 -1.000000 
0.007841 -0.014154 0.425000 -0.000000 -0.000000 -1.000000 
0.007841 -0.013367 0.425000 -0.000000 -0.000000 -1.000000 
0.007841 -0.012581 0.425000 0.170506 0.234054 -0.957155 
0.007841 -0.011795 0.425000 0.207052 0.568917 -0.795904 
0.007860 -0.011034 0.426000 0.184542 0.441499 -0.878079 
0.007860 -0.010246 0.426000 0.116930 0.241525 -0.963324 
0.007860 -0.009458 0.426000 0.206214 0.566703 -0.797699 
0.007878 -0.008690 0.427000 0.183701 0.439962 -0.879026 
0.007878 -0.007900 0.427000 0.070685 0.578700 -0.812471 
0.007897 -0.007127 0.428000 0.070783 0.578121 -0.812875 
0.007897 -0.006335 0.428000 0.182472 0.437981 -0.880270 
0.007915 -0.005556 0.429000 0.215901 0.742267 -0.634371 
0.007934 -0.004773 0.430000 0.263341 0.709755 -0.653375 
0.007934 -0.003978 0.430000 0.263446 0.708869 -0.654295 
0.007952 -0.003190 0.431000 0.261286 0.760290 -0.594718 
0.007970 -0.002398 0.432000 0.214321 0.737250 -0.640725 
0.007989 -0.001602 0.433000 0.214710 0.715067 -0.665266 
0.008007 -0.000803 0.434000 -0.000225 0.780452 -0.625215 
0.008026 0.000000 0.435000 -0.000226 0.779040 -0.626974 
0.008044 0.000807 0.436000 0.108469 0.736762 -0.667395 
0.008063 0.001617 0.437000 0.126736 0.758382 -0.639371 
0.008063 0.002425 0.437000 0.155102 0.772399 -0.615908 
0.008100 0.003249 0.439000 0.000000 0.773346 -0.633985 
0.008118 0.004070 0.440000 0.000218 0.771997 -0.635627 
0.008136 0.004895 0.441000 -0.106587 0.731591 -0.673360 
0.008155 0.005724 0.442000 -0.197150 0.548392 -0.812649 
0.008155 0.006542 0.442000 -0.138209 0.662231 -0.736443 
0.008173 0.007376 0.443000 0.000216 0.767118 -0.641506 
0.008192 0.008215 0.444000 0.018671 0.735441 -0.677332 
0.008192 0.009036 0.444000 -0.104773 0.783000 -0.613134 
0.008229 0.009902 0.446000 -0.143619 0.796673 -0.587099 
0.008266 0.010775 0.448000 -0.202544 0.873771 -0.442153 
0.008284 0.011630 0.449000 -0.201323 0.784514 -0.586521 
0.008303 0.012488 0.450000 -0.253406 0.740027 -0.623013 
0.008321 0.013351 0.451000 -0.212634 0.690416 -0.691457 
0.008321 0.014185 0.451000 0.036696 0.568427 -0.821915 
0.008340 0.015053 0.452000 0.138857 0.561918 -0.815455 
0.008358 0.015924 0.453000 0.299805 0.635623 -0.711407 
0.008376 0.016799 0.454000 0.531821 0.192983 -0.824575 
0.008376 0.017639 0.454000 0.529902 0.040896 -0.847072 
0.008376 0.018479 0.454000 0.539705 -0.191747 -0.819726 
0.008358 0.019277 0.453000 0.451455 -0.193927 -0.870965 
0.008358 0.020115 0.453000 0.547488 -0.063097 -0.834431 
0.008358 0.020953 0.453000 0.544255 0.067398 -0.836208 
0.008358 0.021791 0.453000 0.544179 0.067492 -0.836250 
0.008358 0.022629 0.453000 0.544103 0.067586 -0.836292 
0.008358 0.023467 0.453000 0.498988 0.265216 -0.825029 
0.008376 0.024359 0.454000 0.617257 0.368716 -0.695012 
0.008376 0.025199 0.454000 0.654222 0.342690 -0.674208 
0.008395 0.026096 0.455000 0.708477 0.206452 -0.674861 
0.008395 0.026938 0.455000 0.641648 0.278501 -0.714651 
0.008395 0.027780 0.455000 0.653385 0.209095 -0.727576 
0.008910 -0.075536 0.439000 -0.106517 -0.691770 -0.714219 
0.008889 -0.074553 0.438000 -0.109210 -0.670331 -0.733982 
0.008828 -0.070823 0.435000 0.000305 -0.719053 -0.694955 
0.008808 -0.069858 0.434000 0.000111 -0.719946 -0.694030 
0.008788 -0.068895 0.433000 0.000110 -0.721303 -0.692619 
0.008767 -0.067937 0.432000 0.000066 -0.722712 -0.691149 
0.008747 -0.066982 0.431000 0.063957 -0.533987 -0.843070 
0.008747 -0.066185 0.431000 -0.016610 -0.515363 -0.856811 
0.008727 -0.065236 0.430000 0.064254 -0.535562 -0.842048 
0.008727 -0.064440 0.430000 0.041845 -0.341669 -0.938888 
0.008707 -0.063497 0.429000 0.242083 -0.462205 -0.853090 
0.008707 -0.062703 0.429000 0.000000 0.000000 -1.000000 
0.008707 -0.061909 0.429000 -0.016760 -0.518872 -0.854688 
0.008686 -0.060973 0.428000 -0.016829 -0.519507 -0.854300 
0.008686 -0.060181 0.428000 0.000000 -0.000000 -1.000000 
0.008686 -0.059389 0.428000 0.053247 -0.417275 -0.907219 
0.008666 -0.058461 0.427000 -0.016906 -0.521760 -0.852925 
0.008666 -0.057671 0.427000 -0.000000 -0.000000 -1.000000 
0.008666 -0.056881 0.427000 0.244823 -0.466458 -0.849987 
0.008646 -0.055959 0.426000 0.119837 -0.258736 -0.958486 
0.008646 -0.055171 0.426000 0.000000 -0.000000 -1.000000 
0.008646 -0.054383 0.426000 -0.000000 -0.000000 -1.000000 
0.008646 -0.053595 0.426000 0.000000 0.000000 -1.000000 
0.008646 -0.052807 0.426000 0.162149 -0.244507 -0.955994 
0.008646 -0.052019 0.426000 0.304155 -0.408572 -0.860557 
0.008625 -0.051110 0.425000 0.474910 -0.259593 -0.840876 
0.008625 -0.050324 0.425000 0.317961 -0.250369 -0.914448 
0.008625 -0.049537 0.425000 0.163006 -0.244576 -0.955831 
0.008625 -0.048751 0.425000 -0.000000 -0.000000 -1.000000 
0.008625 -0.047965 0.425000 -0.000000 -0.000000 -1.000000 
0.008625 -0.047179 0.425000 -0.000000 -0.000000 -1.000000 
0.008625 -0.046392 0.425000 -0.000000 -0.000000 -1.000000 
0.008625 -0.045606 0.425000 -0.000000 -0.000000 -1.000000 
0.008625 -0.044820 0.425000 0.174478 0.226439 -0.958271 
0.008625 -0.044033 0.425000 0.340985 0.222072 -0.913462 
0.008625 -0.043247 0.425000 0.482616 0.199738 -0.852753 
0.008646 -0.042561 0.426000 0.482080 0.199861 -0.853027 
0.008646 -0.041772 0.426000 0.465167 -0.016325 -0.885072 
0.008646 -0.040984 0.426000 0.339582 0.223066 -0.913743 
0.008646 -0.040196 0.426000 0.173409 0.226907 -0.958354 
0.008646 -0.039408 0.426000 -0.000000 0.000000 -1.000000 
0.008646 -0.038620 0.426000 -0.000000 -0.000000 -1.000000 
0.008646 -0.037832 0.426000 0.173188 0.227476 -0.958259 
0.008646 -0.037043 0.426000 0.213596 0.581534 -0.784981 
0.008666 -0.036340 0.427000 0.190050 0.445172 -0.875045 
0.008666 -0.035550 0.427000 0.172496 0.227441 -0.958392 
0.008666 -0.034760 0.427000 0.332854 0.420970 -0.843797 
0.008686 -0.034050 0.428000 0.332362 0.420639 -0.844155 
0.008686 -0.033258 0.428000 0.268318 0.446634 -0.853536 
0.008686 -0.032466 0.428000 0.331308 0.419579 -0.845097 
0.008707 -0.031748 0.429000 0.330731 0.419549 -0.845337 
0.008707 -0.030955 0.429000 0.030784 -0.539346 -0.841522 
0.008686 -0.030091 0.428000 0.067308 -0.556036 -0.828428 
0.008686 -0.029299 0.428000 -0.000000 -0.000000 -1.000000 
0.008686 -0.028507 0.428000 -0.065693 -0.559195 -0.826429 
0.008666 -0.027650 0.427000 0.067594 -0.558280 -0.826895 
0.008666 -0.026860 0.427000 -0.162549 -0.241880 -0.956594 
0.008666 -0.026070 0.427000 -0.196814 -0.551949 -0.810319 
0.008646 -0.025221 0.426000 -0.075051 -0.458943 -0.885290 
0.008646 -0.024433 0.426000 -0.163213 -0.242258 -0.956385 
0.008646 -0.023645 0.426000 -0.197620 -0.554089 -0.808660 
0.008625 -0.022803 0.425000 -0.075407 -0.460657 -0.884369 
0.008625 -0.022017 0.425000 -0.000000 -0.000000 -1.000000 
0.008625 -0.021230 0.425000 -0.000000 -0.000000 -1.000000 
0.008625 -0.020444 0.425000 -0.000000 -0.000000 -1.000000 
0.008625 -0.019658 0.425000 0.080372 -0.459747 -0.884405 
0.008605 -0.018827 0.424000 0.210046 -0.465501 -0.859762 
0.008605 -0.018043 0.424000 0.167376 -0.240234 -0.956176 
0.008605 -0.017258 0.424000 -0.000000 0.000000 -1.000000 
0.008605 -0.016474 0.424000 0.071897 0.586974 -0.806407 
0.008625 -0.015726 0.425000 -0.069823 0.587993 -0.805847 
0.008625 -0.014940 0.425000 -0.000000 -0.000000 -1.000000 
0.008625 -0.014154 0.425000 -0.000000 -0.000000 -1.000000 
0.008625 -0.013367 0.425000 -0.000000 -0.000000 -1.000000 
0.008625 -0.012581 0.425000 0.185043 0.442282 -0.877579 
0.008646 -0.011822 0.426000 0.207113 0.568660 -0.796071 
0.008646 -0.011034 0.426000 0.116938 0.241088 -0.963433 
0.008646 -0.010246 0.426000 0.184213 0.440705 -0.878547 
0.008666 -0.009480 0.427000 0.206269 0.566447 -0.797866 
0.008666 -0.008690 0.427000 0.260728 0.444204 -0.857149 
0.008666 -0.007900 0.427000 0.205523 0.564644 -0.799336 
0.008686 -0.007127 0.428000 0.210822 0.599190 -0.772350 
0.008686 -0.006335 0.428000 0.204790 0.562830 -0.800802 
0.008707 -0.005556 0.429000 0.252955 0.711497 -0.655580 
0.008727 -0.004773 0.430000 0.109915 0.746185 -0.656602 
0.008747 -0.003987 0.431000 0.215050 0.739214 -0.638213 
0.008767 -0.003197 0.432000 0.260499 0.759436 -0.596152 
0.008788 -0.002403 0.433000 0.261662 0.705364 -0.658783 
0.008788 -0.001602 0.433000 0.152912 0.724008 -0.672630 
0.008808 -0.000803 0.434000 0.140393 0.780474 -0.609222 
0.008828 0.000000 0.435000 0.213113 0.732810 -0.646199 
0.008849 0.000807 0.436000 0.108370 0.736462 -0.667742 
0.008869 0.001617 0.437000 0.108273 0.735181 -0.669168 
0.008889 0.002431 0.438000 0.064777 0.797005 -0.600490 
0.008910 0.003249 0.439000 -0.000088 0.773339 -0.633993 
0.008930 0.004070 0.440000 -0.000218 0.772001 -0.635622 
0.008950 0.004895 0.441000 -0.059040 0.679263 -0.731516 
0.008950 0.005711 0.441000 -0.197113 0.548629 -0.812498 
0.008970 0.006542 0.442000 -0.106104 0.729367 -0.675845 
0.008991 0.007376 0.443000 -0.000216 0.767122 -0.641501 
0.009011 0.008215 0.444000 0.071347 0.730467 -0.679211 
0.009031 0.009056 0.445000 0.095935 0.781681 -0.616255 
0.009052 0.009902 0.446000 -0.070586 0.777015 -0.625512 
0.009092 0.010775 0.448000 -0.115011 0.875390 -0.469537 
0.009112 0.011630 0.449000 -0.114011 0.781621 -0.613245 
0.009133 0.012488 0.450000 0.000284 0.757995 -0.652260 
0.009153 0.013351 0.451000 -0.214538 0.700395 -0.680750 
0.009173 0.014216 0.452000 0.305557 0.747491 -0.589824 
0.009194 0.015086 0.453000 0.435271 0.690630 -0.577555 
0.009214 0.015959 0.454000 0.568997 0.431459 -0.700061 
0.009214 0.016799 0.454000 0.662593 0.061173 -0.746477 
0.009214 0.017639 0.454000 0.543146 0.066869 -0.836972 
0.009214 0.018479 0.454000 0.652662 -0.134336 -0.745645 
0.009214 0.019319 0.454000 0.720188 -0.103505 -0.686015 
0.009214 0.020159 0.454000 0.758912 0.000219 -0.651193 
0.009214 0.020999 0.454000 0.758922 -0.000219 -0.651182 
0.009214 0.021839 0.454000 0.758912 0.000219 -0.651194 
0.009214 0.022679 0.454000 0.758922 -0.000219 -0.651181 
0.009214 0.023519 0.454000 0.709020 0.206274 -0.674345 
0.009234 0.024413 0.455000 0.653254 0.341964 -0.675515 
0.009234 0.025254 0.455000 0.594862 0.396613 -0.699169 
0.009255 0.026154 0.456000 0.618903 0.318848 -0.717841 
0.009255 0.026997 0.456000 0.657109 0.319072 -0.682935 
0.009631 -0.070823 0.435000 0.000205 -0.719098 -0.694908 
0.009609 -0.069858 0.434000 0.000043 -0.719987 -0.693988 
0.009587 -0.068895 0.433000 0.000110 -0.721303 -0.692619 
0.009565 -0.067937 0.432000 0.062194 -0.697063 -0.714307 
0.009542 -0.066982 0.431000 0.186603 -0.523011 -0.831648 
0.009542 -0.066185 0.431000 0.112234 -0.496087 -0.860988 
0.009520 -0.065236 0.430000 0.241168 -0.460620 -0.854205 
0.009520 -0.064440 0.430000 0.114010 -0.309613 -0.944003 
0.009520 -0.063645 0.430000 0.241855 -0.461658 -0.853451 
0.009498 -0.062703 0.429000 0.042098 -0.342520 -0.938567 
0.009498 -0.061909 0.429000 -0.016702 -0.518898 -0.854673 
0.009476 -0.060973 0.428000 0.053100 -0.416440 -0.907611 
0.009476 -0.060181 0.428000 -0.000000 -0.000000 -1.000000 
0.009476 -0.059389 0.428000 -0.016786 -0.521142 -0.853305 
0.009454 -0.058461 0.427000 0.053333 -0.418069 -0.906848 
0.009454 -0.057671 0.427000 -0.000000 -0.000000 -1.000000 
0.009454 -0.056881 0.427000 0.119693 -0.257889 -0.958732 
0.009432 -0.055959 0.426000 0.245246 -0.467029 -0.849552 
0.009432 -0.055171 0.426000 0.000000 -0.000000 -1.000000 
0.009432 -0.054383 0.426000 -0.000000 -0.000000 -1.000000 
0.009432 -0.053595 0.426000 -0.000000 -0.000000 -1.000000 
0.009432 -0.052807 0.426000 -0.000000 0.000000 -1.000000 
0.009432 -0.052019 0.426000 0.162376 -0.244063 -0.956069 
0.009432 -0.051230 0.426000 0.317173 -0.250059 -0.914807 
0.009432 -0.050442 0.426000 0.457480 -0.219310 -0.861751 
0.009410 -0.049537 0.425000 0.474992 -0.259331 -0.840910 
0.009410 -0.048751 0.425000 0.465034 -0.019029 -0.885088 
0.009410 -0.047965 0.425000 0.465071 -0.018700 -0.885076 
0.009410 -0.047179 0.425000 0.576548 0.062297 -0.814685 
0.009410 -0.046392 0.425000 0.465145 -0.017971 -0.885052 
0.009410 -0.045606 0.425000 0.465177 -0.017710 -0.885041 
0.009410 -0.044820 0.425000 0.482602 0.199119 -0.852905 
0.009432 -0.044137 0.426000 0.482100 0.199379 -0.853128 
0.009432 -0.043349 0.426000 0.340078 0.221945 -0.913831 
0.009432 -0.042561 0.426000 0.173815 0.225989 -0.958497 
0.009432 -0.041772 0.426000 0.000000 -0.000001 -1.000000 
0.009432 -0.040984 0.426000 0.000000 -0.000000 -1.000000 
0.009432 -0.040196 0.426000 0.000000 -0.000000 -1.000000 
0.009432 -0.039408 0.426000 -0.000000 0.000000 -1.000000 
0.009432 -0.038620 0.426000 0.173355 0.227425 -0.958241 
0.009432 -0.037832 0.426000 0.334410 0.421838 -0.842747 
0.009454 -0.037130 0.427000 0.333916 0.421618 -0.843053 
0.009454 -0.036340 0.427000 0.119029 0.233205 -0.965115 
0.009454 -0.035550 0.427000 0.189675 0.444413 -0.875511 
0.009476 -0.034842 0.428000 0.212644 0.579286 -0.786899 
0.009476 -0.034050 0.428000 0.342815 0.449921 -0.824651 
0.009476 -0.033258 0.428000 0.331511 0.419407 -0.845102 
0.009498 -0.032542 0.429000 0.331087 0.419067 -0.845437 
0.009498 -0.031748 0.429000 0.078221 -0.051941 -0.995582 
0.009498 -0.030955 0.429000 -0.194952 -0.547961 -0.813470 
0.009476 -0.030091 0.428000 -0.172442 -0.434141 -0.884186 
0.009476 -0.029299 0.428000 -0.108781 -0.250427 -0.962005 
0.009476 -0.028507 0.428000 -0.195864 -0.549800 -0.812008 
0.009454 -0.027650 0.427000 -0.074461 -0.457238 -0.886222 
0.009454 -0.026860 0.427000 -0.173673 -0.436403 -0.882831 
0.009432 -0.026009 0.426000 -0.196705 -0.552190 -0.810181 
0.009432 -0.025221 0.426000 -0.109838 -0.251372 -0.961638 
0.009432 -0.024433 0.426000 -0.025703 -0.257645 -0.965898 
0.009410 -0.023589 0.425000 0.003759 -0.499607 -0.866244 
0.009410 -0.022803 0.425000 0.054472 -0.462057 -0.885176 
0.009410 -0.022017 0.425000 -0.000000 -0.000000 -1.000000 
0.009410 -0.021230 0.425000 -0.000000 -0.000000 -1.000000 
0.009410 -0.020444 0.425000 -0.000000 -0.000000 -1.000000 
0.009410 -0.019658 0.425000 0.114647 -0.248851 -0.961732 
0.009410 -0.018871 0.425000 0.315819 -0.414859 -0.853317 
0.009387 -0.018043 0.424000 0.467543 -0.213610 -0.857773 
0.009387 -0.017258 0.424000 0.466978 -0.006661 -0.884244 
0.009387 -0.016474 0.424000 0.375923 0.421985 -0.824991 
0.009410 -0.015726 0.425000 0.084509 0.467601 -0.879890 
0.009410 -0.014940 0.425000 -0.000000 -0.000000 -1.000000 
0.009410 -0.014154 0.425000 -0.000000 -0.000000 -1.000000 
0.009410 -0.013367 0.425000 0.170897 0.233373 -0.957252 
0.009410 -0.012581 0.425000 0.207416 0.568928 -0.795801 
0.009432 -0.011822 0.426000 0.185003 0.441138 -0.878164 
0.009432 -0.011034 0.426000 0.170129 0.233404 -0.957381 
0.009432 -0.010246 0.426000 0.206447 0.566753 -0.797603 
0.009454 -0.009480 0.427000 0.184066 0.439766 -0.879048 
0.009454 -0.008690 0.427000 0.183557 0.439126 -0.879474 
0.009476 -0.007919 0.428000 0.205568 0.564399 -0.799497 
0.009476 -0.007127 0.428000 0.251964 0.578814 -0.775557 
0.009498 -0.006350 0.429000 0.259971 0.661061 -0.703856 
0.009498 -0.005556 0.429000 0.259476 0.660107 -0.704933 
0.009520 -0.004773 0.430000 0.109805 0.745882 -0.656965 
0.009542 -0.003987 0.431000 0.149077 0.764082 -0.627658 
0.009565 -0.003197 0.432000 0.000229 0.783974 -0.620794 
0.009587 -0.002403 0.433000 0.042712 0.693183 -0.719495 
0.009609 -0.001606 0.434000 0.085195 0.729438 -0.678721 
0.009631 -0.000805 0.435000 -0.030841 0.782623 -0.621731 
0.009653 0.000000 0.436000 0.023949 0.786337 -0.617333 
0.009653 0.000807 0.436000 0.127048 0.759346 -0.638163 
0.009675 0.001617 0.437000 0.108175 0.734873 -0.669522 
0.009697 0.002431 0.438000 0.147331 0.753432 -0.640808 
0.009720 0.003249 0.439000 -0.000228 0.773422 -0.633891 
0.009742 0.004070 0.440000 0.000218 0.771996 -0.635627 
0.009764 0.004895 0.441000 0.068401 0.558069 -0.826971 
0.009764 0.005711 0.441000 -0.065885 0.558428 -0.826933 
0.009786 0.006542 0.442000 -0.106207 0.729670 -0.675502 
0.009808 0.007376 0.443000 -0.209393 0.726015 -0.655024 
0.009830 0.008215 0.444000 0.001263 0.786712 -0.617319 
0.009852 0.009056 0.445000 -0.259477 0.730025 -0.632246 
0.009875 0.009902 0.446000 -0.166009 0.791049 -0.588798 
0.009897 0.010751 0.447000 -0.151559 0.892017 -0.425836 
0.009941 0.011630 0.449000 0.000125 0.759287 -0.650755 
0.009963 0.012488 0.450000 0.124627 0.785625 -0.606021 
0.009985 0.013351 0.451000 0.270104 0.780830 -0.563337 
0.010030 0.014248 0.453000 0.447821 0.695048 -0.562462 
0.010052 0.015119 0.454000 0.374075 0.643584 -0.667733 
0.010074 0.015994 0.455000 0.395586 0.395110 -0.829096 
0.010074 0.016836 0.455000 0.542807 0.066828 -0.837194 
0.010074 0.017678 0.455000 0.545517 -0.063212 -0.835712 
0.010074 0.018520 0.455000 0.545585 -0.063116 -0.835675 
0.010074 0.019362 0.455000 0.542584 0.067103 -0.837317 
0.010074 0.020204 0.455000 0.542517 0.067218 -0.837351 
0.010074 0.021045 0.455000 0.545764 -0.062886 -0.835576 
0.010074 0.021887 0.455000 0.545822 -0.062769 -0.835547 
0.010074 0.022729 0.455000 0.661293 0.061385 -0.747612 
0.010074 0.023571 0.455000 0.645242 0.193643 -0.739030 
0.010074 0.024413 0.455000 0.624552 0.346985 -0.699668 
0.010096 0.025310 0.456000 0.614737 0.367116 -0.698086 
0.010096 0.026154 0.456000 0.596343 0.406696 -0.692079 
0.010118 0.027056 0.457000 0.665988 0.297655 -0.684004 
0.010434 -0.070823 0.435000 -0.000000 -0.719594 -0.694395 
0.010410 -0.069858 0.434000 0.000043 -0.719987 -0.693988 
0.010386 -0.068895 0.433000 0.000109 -0.721303 -0.692620 
0.010362 -0.067937 0.432000 0.065720 -0.641553 -0.764258 
0.010362 -0.067138 0.432000 0.186684 -0.522793 -0.831767 
0.010338 -0.066185 0.431000 0.130336 -0.543414 -0.829286 
0.010338 -0.065388 0.431000 0.187353 -0.524293 -0.830672 
0.010314 -0.064440 0.430000 0.042123 -0.341862 -0.938806 
0.010314 -0.063645 0.430000 0.064728 -0.537255 -0.840933 
0.010290 -0.062703 0.429000 -0.016603 -0.517752 -0.855369 
0.010290 -0.061909 0.429000 0.042199 -0.342604 -0.938532 
0.010266 -0.060973 0.428000 0.243178 -0.463465 -0.852094 
0.010266 -0.060181 0.428000 0.000000 -0.000000 -1.000000 
0.010266 -0.059389 0.428000 0.042352 -0.343576 -0.938170 
0.010242 -0.058461 0.427000 0.244244 -0.465327 -0.850774 
0.010242 -0.057671 0.427000 -0.000000 -0.000000 -1.000000 
0.010242 -0.056881 0.427000 -0.000000 -0.000000 -1.000000 
0.010242 -0.056091 0.427000 0.326343 -0.334709 -0.884008 
0.010218 -0.055171 0.426000 0.326943 -0.335307 -0.883560 
0.010218 -0.054383 0.426000 0.000000 0.000000 -1.000000 
0.010218 -0.053595 0.426000 -0.000000 -0.000000 -1.000000 
0.010218 -0.052807 0.426000 -0.000000 -0.000000 -1.000000 
0.010218 -0.052019 0.426000 -0.000000 -0.000000 -1.000000 
0.010218 -0.051230 0.426000 0.000000 0.000000 -1.000000 
0.010218 -0.050442 0.426000 0.162665 -0.243940 -0.956051 
0.010218 -0.049654 0.426000 0.317477 -0.249693 -0.914801 
0.010218 -0.048866 0.426000 0.464308 -0.019058 -0.885468 
0.010218 -0.048078 0.426000 0.464345 -0.018728 -0.885456 
0.010218 -0.047290 0.426000 0.464384 -0.018328 -0.885444 
0.010218 -0.046501 0.426000 0.464417 -0.018082 -0.885432 
0.010218 -0.045713 0.426000 0.464451 -0.017737 -0.885421 
0.010218 -0.044925 0.426000 0.340355 0.221275 -0.913890 
0.010218 -0.044137 0.426000 0.174065 0.225794 -0.958498 
0.010218 -0.043349 0.426000 -0.000000 -0.000000 -1.000000 
0.010218 -0.042561 0.426000 -0.000000 -0.000000 -1.000000 
0.010218 -0.041772 0.426000 0.000000 0.000000 -1.000000 
0.010218 -0.040984 0.426000 0.000000 0.000000 -1.000000 
0.010218 -0.040196 0.426000 -0.000000 -0.000000 -1.000000 
0.010218 -0.039408 0.426000 0.173548 0.227121 -0.958278 
0.010218 -0.038620 0.426000 0.334551 0.421824 -0.842698 
0.010242 -0.037920 0.427000 0.334157 0.421477 -0.843028 
0.010242 -0.037130 0.427000 0.172818 0.226830 -0.958479 
0.010242 -0.036340 0.427000 0.119449 0.233397 -0.965017 
0.010242 -0.035550 0.427000 0.212851 0.579626 -0.786593 
0.010266 -0.034842 0.428000 0.261900 0.593655 -0.760909 
0.010266 -0.034050 0.428000 0.331839 0.419208 -0.845073 
0.010290 -0.033336 0.429000 0.331348 0.418896 -0.845420 
0.010290 -0.032542 0.429000 0.171431 0.226447 -0.958819 
0.010290 -0.031748 0.429000 -0.073536 -0.454767 -0.887570 
0.010266 -0.030883 0.428000 -0.195064 -0.548154 -0.813313 
0.010266 -0.030091 0.428000 -0.161650 -0.241909 -0.956739 
0.010266 -0.029299 0.428000 -0.074001 -0.456186 -0.886802 
0.010242 -0.028440 0.427000 -0.195846 -0.550001 -0.811876 
0.010242 -0.027650 0.427000 -0.162279 -0.242303 -0.956533 
0.010242 -0.026860 0.427000 0.068115 -0.559533 -0.826005 
0.010218 -0.026009 0.426000 -0.065616 -0.561930 -0.824578 
0.010218 -0.025221 0.426000 0.000000 -0.000000 -1.000000 
0.010218 -0.024433 0.426000 0.165867 -0.239861 -0.956533 
0.010218 -0.023645 0.426000 0.198316 -0.549370 -0.811704 
0.010194 -0.022803 0.425000 0.080361 -0.458539 -0.885033 
0.010194 -0.022017 0.425000 -0.000000 -0.000000 -1.000000 
0.010194 -0.021230 0.425000 -0.000000 -0.000000 -1.000000 
0.010194 -0.020444 0.425000 -0.000000 -0.000000 -1.000000 
0.010194 -0.019658 0.425000 -0.000000 -0.000000 -1.000000 
0.010194 -0.018871 0.425000 0.167082 -0.239350 -0.956449 
0.010194 -0.018085 0.425000 0.326295 -0.242232 -0.913704 
0.010194 -0.017299 0.425000 0.466316 -0.006669 -0.884593 
0.010194 -0.016512 0.425000 0.334712 0.231633 -0.913408 
0.010194 -0.015726 0.425000 0.171193 0.232985 -0.957294 
0.010194 -0.014940 0.425000 -0.000000 -0.000000 -1.000000 
0.010194 -0.014154 0.425000 0.171064 0.233154 -0.957276 
0.010194 -0.013367 0.425000 0.326493 0.418921 -0.847295 
0.010218 -0.012611 0.426000 0.326026 0.418614 -0.847625 
0.010218 -0.011822 0.426000 0.262617 0.444953 -0.856183 
0.010218 -0.011034 0.426000 0.324883 0.417835 -0.848449 
0.010242 -0.010270 0.427000 0.324502 0.417524 -0.848747 
0.010242 -0.009480 0.427000 0.261069 0.443860 -0.857223 
0.010242 -0.008690 0.427000 0.205766 0.564698 -0.799235 
0.010266 -0.007919 0.428000 0.351171 0.549228 -0.758306 
0.010266 -0.007127 0.428000 0.205068 0.562817 -0.800740 
0.010290 -0.006350 0.429000 0.323468 0.642210 -0.694935 
0.010314 -0.005569 0.430000 0.375944 0.615001 -0.693138 
0.010314 -0.004773 0.430000 0.311658 0.666376 -0.677357 
0.010338 -0.003987 0.431000 0.214969 0.738640 -0.638905 
0.010362 -0.003197 0.432000 0.073999 0.749244 -0.658147 
0.010386 -0.002403 0.433000 0.019306 0.753278 -0.657419 
0.010386 -0.001602 0.433000 0.091756 0.607891 -0.788701 
0.010410 -0.000803 0.434000 -0.082500 0.739619 -0.667951 
0.010434 0.000000 0.435000 -0.117147 0.774265 -0.621925 
0.010482 0.000809 0.437000 0.167038 0.710566 -0.683517 
0.010482 0.001617 0.437000 0.210028 0.769920 -0.602588 
0.010506 0.002431 0.438000 0.257877 0.750470 -0.608519 
0.010530 0.003249 0.439000 0.211477 0.726795 -0.653488 
0.010554 0.004070 0.440000 0.072721 0.736621 -0.672385 
0.010577 0.004895 0.441000 -0.066116 0.559785 -0.825996 
0.010577 0.005711 0.441000 0.068163 0.556695 -0.827915 
0.010601 0.006542 0.442000 -0.138195 0.663171 -0.735600 
0.010601 0.007360 0.442000 -0.179014 0.602329 -0.777916 
0.010625 0.008196 0.443000 -0.248180 0.776718 -0.578892 
0.010673 0.009056 0.445000 -0.249423 0.722718 -0.644567 
0.010673 0.009880 0.445000 -0.235352 0.729514 -0.642198 
0.010721 0.010751 0.447000 -0.131345 0.902689 -0.409757 
0.010769 0.011630 0.449000 0.000142 0.759259 -0.650789 
0.010793 0.012488 0.450000 0.063214 0.819794 -0.569159 
0.010841 0.013380 0.452000 0.268122 0.842994 -0.466339 
0.010865 0.014248 0.453000 0.332756 0.682872 -0.650353 
0.010889 0.015119 0.454000 0.370795 0.653920 -0.659469 
0.010913 0.015994 0.455000 0.214096 0.516899 -0.828841 
0.010913 0.016836 0.455000 0.429779 0.077721 -0.899583 
0.010913 0.017678 0.455000 0.541403 0.066567 -0.838124 
0.010913 0.018520 0.455000 0.541339 0.066662 -0.838158 
0.010913 0.019362 0.455000 0.544280 -0.062729 -0.836555 
0.010913 0.020204 0.455000 0.544345 -0.062652 -0.836519 
0.010913 0.021045 0.455000 0.541125 0.066956 -0.838273 
0.010913 0.021887 0.455000 0.541054 0.067013 -0.838314 
0.010913 0.022729 0.455000 0.518750 0.151683 -0.841362 
0.010937 0.023623 0.456000 0.662502 0.331705 -0.671612 
0.010937 0.024466 0.456000 0.702516 0.345370 -0.622247 
0.010961 0.025365 0.457000 0.701438 0.344500 -0.623943 
0.010961 0.026211 0.457000 0.634822 0.407555 -0.656430 
0.011236 -0.070823 0.435000 -0.000000 -0.719594 -0.694395 
0.011210 -0.069858 0.434000 0.000043 -0.719987 -0.693988 
0.011185 -0.068895 0.433000 0.000110 -0.721303 -0.692620 
0.011159 -0.067937 0.432000 0.064089 -0.532601 -0.843937 
0.011159 -0.067138 0.432000 0.064396 -0.533685 -0.843228 
0.011133 -0.066185 0.431000 -0.016382 -0.514674 -0.857229 
0.011133 -0.065388 0.431000 0.064606 -0.535306 -0.842184 
0.011107 -0.064440 0.430000 0.064511 -0.535850 -0.841845 
0.011107 -0.063645 0.430000 -0.016441 -0.517477 -0.855539 
0.011081 -0.062703 0.429000 0.053343 -0.415170 -0.908179 
0.011081 -0.061909 0.429000 0.000000 -0.000000 -1.000000 
0.011081 -0.061116 0.429000 0.242992 -0.462892 -0.852459 
0.011055 -0.060181 0.428000 0.119549 -0.257498 -0.958855 
0.011055 -0.059389 0.428000 0.000000 -0.000000 -1.000000 
0.011055 -0.058598 0.428000 0.324985 -0.333841 -0.884836 
0.011030 -0.057671 0.427000 0.325754 -0.334218 -0.884411 
0.011030 -0.056881 0.427000 -0.000000 -0.000000 -1.000000 
0.011030 -0.056091 0.427000 -0.000000 -0.000000 -1.000000 
0.011030 -0.055301 0.427000 0.326627 -0.334528 -0.883972 
0.011004 -0.054383 0.426000 0.327174 -0.335171 -0.883526 
0.011004 -0.053595 0.426000 0.000000 0.000000 -1.000000 
0.011004 -0.052807 0.426000 -0.000000 -0.000000 -1.000000 
0.011004 -0.052019 0.426000 -0.000000 -0.000001 -1.000000 
0.011004 -0.051230 0.426000 0.000000 0.000001 -1.000000 
0.011004 -0.050442 0.426000 -0.000000 -0.000000 -1.000000 
0.011004 -0.049654 0.426000 -0.000000 -0.000000 -1.000000 
0.011004 -0.048866 0.426000 -0.000000 -0.000000 -1.000000 
0.011004 -0.048078 0.426000 -0.000000 -0.000000 -1.000000 
0.011004 -0.047290 0.426000 -0.000000 -0.000000 -1.000000 
0.011004 -0.046501 0.426000 0.000000 0.000001 -1.000000 
0.011004 -0.045713 0.426000 -0.000000 0.000000 -1.000000 
0.011004 -0.044925 0.426000 -0.000000 -0.000000 -1.000000 
0.011004 -0.044137 0.426000 -0.000000 -0.000000 -1.000000 
0.011004 -0.043349 0.426000 -0.000000 0.000000 -1.000000 
0.011004 -0.042561 0.426000 0.000000 0.000000 -1.000000 
0.011004 -0.041772 0.426000 -0.000000 -0.000000 -1.000000 
0.011004 -0.040984 0.426000 -0.000000 -0.000000 -1.000000 
0.011004 -0.040196 0.426000 0.173721 0.226867 -0.958307 
0.011004 -0.039408 0.426000 0.334875 0.421691 -0.842636 
0.011030 -0.038710 0.427000 0.334518 0.421275 -0.842986 
0.011030 -0.037920 0.427000 0.173097 0.226531 -0.958499 
0.011030 -0.037130 0.427000 -0.000000 -0.000000 -1.000000 
0.011030 -0.036340 0.427000 0.190159 0.444197 -0.875516 
0.011055 -0.035634 0.428000 0.212960 0.579329 -0.786782 
0.011055 -0.034842 0.428000 0.261635 0.593042 -0.761478 
0.011081 -0.034130 0.429000 0.212172 0.577218 -0.788544 
0.011081 -0.033336 0.429000 0.171618 0.226164 -0.958852 
0.011081 -0.032542 0.429000 0.000000 -0.000000 -1.000000 
0.011081 -0.031748 0.429000 -0.065105 -0.556913 -0.828015 
0.011055 -0.030883 0.428000 -0.065006 -0.557501 -0.827627 
0.011055 -0.030091 0.428000 0.000000 0.000000 -1.000000 
0.011055 -0.029299 0.428000 -0.065377 -0.558913 -0.826645 
0.011030 -0.028440 0.427000 -0.065274 -0.559505 -0.826253 
0.011030 -0.027650 0.427000 -0.000000 -0.000000 -1.000000 
0.011030 -0.026860 0.427000 0.068244 -0.559466 -0.826039 
0.011004 -0.026009 0.426000 -0.065566 -0.561986 -0.824544 
0.011004 -0.025221 0.426000 0.000000 0.000000 -1.000000 
0.011004 -0.024433 0.426000 -0.000000 -0.000000 -1.000000 
0.011004 -0.023645 0.426000 0.068611 -0.562185 -0.824161 
0.010978 -0.022803 0.425000 -0.065892 -0.564754 -0.822624 
0.010978 -0.022017 0.425000 -0.000000 -0.000000 -1.000000 
0.010978 -0.021230 0.425000 -0.000000 -0.000000 -1.000000 
0.010978 -0.020444 0.425000 -0.000000 -0.000000 -1.000000 
0.010978 -0.019658 0.425000 -0.000000 -0.000000 -1.000000 
0.010978 -0.018871 0.425000 -0.000000 -0.000000 -1.000000 
0.010978 -0.018085 0.425000 -0.000000 -0.000000 -1.000000 
0.010978 -0.017299 0.425000 -0.000000 -0.000000 -1.000000 
0.010978 -0.016512 0.425000 -0.000000 -0.000000 -1.000000 
0.010978 -0.015726 0.425000 -0.000000 -0.000000 -1.000000 
0.010978 -0.014940 0.425000 0.171283 0.233108 -0.957248 
0.010978 -0.014154 0.425000 0.326642 0.418778 -0.847307 
0.011004 -0.013399 0.426000 0.326186 0.418577 -0.847583 
0.011004 -0.012611 0.426000 0.216200 0.237843 -0.946936 
0.011004 -0.011822 0.426000 0.184960 0.440179 -0.878654 
0.011030 -0.011060 0.427000 0.206844 0.566728 -0.797518 
0.011030 -0.010270 0.427000 0.261733 0.443623 -0.857144 
0.011030 -0.009480 0.427000 0.323764 0.416437 -0.849563 
0.011055 -0.008710 0.428000 0.386106 0.580738 -0.716704 
0.011055 -0.007919 0.428000 0.370739 0.548829 -0.749226 
0.011081 -0.007143 0.429000 0.370230 0.547956 -0.750116 
0.011081 -0.006350 0.429000 0.366857 0.657013 -0.658597 
0.011107 -0.005569 0.430000 0.417978 0.623934 -0.660304 
0.011133 -0.004785 0.431000 0.417577 0.622608 -0.661807 
0.011159 -0.003996 0.432000 0.318996 0.546956 -0.774003 
0.011159 -0.003197 0.432000 0.143284 0.674848 -0.723913 
0.011185 -0.002403 0.433000 0.109411 0.741426 -0.662054 
0.011210 -0.001606 0.434000 0.025287 0.595718 -0.802796 
0.011210 -0.000803 0.434000 0.063179 0.687919 -0.723033 
0.011236 0.000000 0.435000 -0.178683 0.797076 -0.576838 
0.011262 0.000807 0.436000 0.048226 0.867127 -0.495746 
0.011314 0.001621 0.438000 0.226074 0.734956 -0.639320 
0.011339 0.002437 0.439000 0.257209 0.749619 -0.609848 
0.011365 0.003256 0.440000 0.180892 0.603198 -0.776808 
0.011365 0.004070 0.440000 0.140474 0.662219 -0.736025 
0.011391 0.004895 0.441000 0.068567 0.557921 -0.827057 
0.011391 0.005711 0.441000 -0.065654 0.558559 -0.826862 
0.011417 0.006542 0.442000 -0.065760 0.557983 -0.827243 
0.011417 0.007360 0.442000 -0.038805 0.540391 -0.840519 
0.011443 0.008196 0.443000 0.119396 0.733013 -0.669654 
0.011469 0.009036 0.444000 -0.094751 0.784718 -0.612568 
0.011494 0.009880 0.445000 -0.088758 0.870670 -0.483793 
0.011546 0.010751 0.447000 -0.009340 0.899363 -0.437104 
0.011598 0.011630 0.449000 0.000139 0.847355 -0.531026 
0.011649 0.012516 0.451000 0.073848 0.909913 -0.408172 
0.011701 0.013410 0.453000 0.209328 0.749951 -0.627499 
0.011753 0.014311 0.455000 0.233771 0.637349 -0.734259 
0.011727 0.015119 0.454000 0.285633 0.702590 -0.651753 
0.011753 0.015994 0.455000 0.298931 0.632713 -0.714363 
0.011779 0.016873 0.456000 0.528441 0.191594 -0.827068 
0.011779 0.017717 0.456000 0.643433 0.136324 -0.753266 
0.011779 0.018561 0.456000 0.712043 0.104812 -0.694269 
0.011779 0.019404 0.456000 0.716760 -0.103071 -0.689660 
0.011779 0.020248 0.456000 0.724627 -0.015951 -0.688957 
0.011779 0.021092 0.456000 0.711713 0.104964 -0.694585 
0.011779 0.021935 0.456000 0.755377 -0.000168 -0.655290 
0.011779 0.022779 0.456000 0.705774 0.205476 -0.677985 
0.011804 0.023674 0.457000 0.650544 0.340568 -0.678827 
0.011804 0.024520 0.457000 0.613052 0.366535 -0.699871 
0.011830 0.025421 0.458000 0.631320 0.270898 -0.726670 
0.011830 0.026268 0.458000 0.619931 0.332727 -0.710618 
0.012039 -0.070823 0.435000 -0.000000 -0.719594 -0.694395 
0.012011 -0.069858 0.434000 0.000043 -0.719987 -0.693988 
0.011983 -0.068895 0.433000 0.062287 -0.695356 -0.715961 
0.011956 -0.067937 0.432000 0.186391 -0.521371 -0.832725 
0.011956 -0.067138 0.432000 0.030785 -0.581031 -0.813299 
0.011928 -0.066185 0.431000 0.064386 -0.534160 -0.842928 
0.011928 -0.065388 0.431000 0.042246 -0.340807 -0.939184 
0.011900 -0.064440 0.430000 0.187584 -0.524383 -0.830563 
0.011900 -0.063645 0.430000 0.113063 -0.497555 -0.860032 
0.011873 -0.062703 0.429000 0.242456 -0.461730 -0.853241 
0.011873 -0.061909 0.429000 0.160438 -0.243264 -0.956599 
0.011873 -0.061116 0.429000 0.119386 -0.256751 -0.959075 
0.011845 -0.060181 0.428000 0.243405 -0.463356 -0.852089 
0.011845 -0.059389 0.428000 0.000000 -0.000000 -1.000000 
0.011845 -0.058598 0.428000 0.000000 0.000000 -1.000000 
0.011845 -0.057806 0.428000 0.244397 -0.464714 -0.851065 
0.011817 -0.056881 0.427000 0.120261 -0.257894 -0.958659 
0.011817 -0.056091 0.427000 -0.000000 -0.000000 -1.000000 
0.011817 -0.055301 0.427000 -0.000000 -0.000000 -1.000000 
0.011817 -0.054511 0.427000 0.326752 -0.334471 -0.883947 
0.011790 -0.053595 0.426000 0.472298 -0.258382 -0.842718 
0.011790 -0.052807 0.426000 0.254174 -0.131968 -0.958113 
0.011790 -0.052019 0.426000 0.000000 -0.000000 -1.000000 
0.011790 -0.051230 0.426000 -0.000000 -0.000000 -1.000000 
0.011790 -0.050442 0.426000 0.000000 0.000000 -1.000000 
0.011790 -0.049654 0.426000 0.000000 0.000000 -1.000000 
0.011790 -0.048866 0.426000 -0.000000 -0.000000 -1.000000 
0.011790 -0.048078 0.426000 -0.000000 -0.000000 -1.000000 
0.011790 -0.047290 0.426000 -0.000000 -0.000000 -1.000000 
0.011790 -0.046501 0.426000 0.000000 0.000000 -1.000000 
0.011790 -0.045713 0.426000 -0.000000 -0.000000 -1.000000 
0.011790 -0.044925 0.426000 0.174458 0.225536 -0.958487 
0.011790 -0.044137 0.426000 0.180497 -0.024484 -0.983271 
0.011790 -0.043349 0.426000 0.349217 -0.029067 -0.936591 
0.011790 -0.042561 0.426000 0.339567 0.221302 -0.914177 
0.011790 -0.041772 0.426000 0.463631 -0.015978 -0.885884 
0.011790 -0.040984 0.426000 0.463655 -0.015762 -0.885876 
0.011790 -0.040196 0.426000 0.479721 0.199352 -0.854474 
0.011817 -0.039500 0.427000 0.334700 0.421164 -0.842969 
0.011817 -0.038710 0.427000 0.173241 0.226235 -0.958543 
0.011817 -0.037920 0.427000 -0.000000 -0.000000 -1.000000 
0.011817 -0.037130 0.427000 0.173270 0.226624 -0.958446 
0.011817 -0.036340 0.427000 0.213198 0.579613 -0.786508 
0.011845 -0.035634 0.428000 0.190006 0.443172 -0.876069 
0.011845 -0.034842 0.428000 0.073609 0.593327 -0.801589 
0.011873 -0.034130 0.429000 0.073743 0.592642 -0.802083 
0.011873 -0.033336 0.429000 -0.000000 0.000000 -1.000000 
0.011873 -0.032542 0.429000 -0.000000 0.000000 -1.000000 
0.011873 -0.031748 0.429000 0.067731 -0.554930 -0.829135 
0.011845 -0.030883 0.428000 0.067605 -0.555524 -0.828748 
0.011845 -0.030091 0.428000 -0.000000 0.000000 -1.000000 
0.011845 -0.029299 0.428000 -0.065238 -0.558988 -0.826605 
0.011817 -0.028440 0.427000 0.067894 -0.557523 -0.827381 
0.011817 -0.027650 0.427000 -0.000000 -0.000000 -1.000000 
0.011817 -0.026860 0.427000 -0.065598 -0.561451 -0.824906 
0.011790 -0.026009 0.426000 -0.065482 -0.562046 -0.824510 
0.011790 -0.025221 0.426000 -0.000000 0.000000 -1.000000 
0.011790 -0.024433 0.426000 -0.000000 -0.000000 -1.000000 
0.011790 -0.023645 0.426000 0.068710 -0.562106 -0.824206 
0.011762 -0.022803 0.425000 0.068603 -0.562710 -0.823803 
0.011762 -0.022017 0.425000 -0.000000 -0.000000 -1.000000 
0.011762 -0.021230 0.425000 -0.000000 -0.000000 -1.000000 
0.011762 -0.020444 0.425000 -0.000000 -0.000000 -1.000000 
0.011762 -0.019658 0.425000 -0.000000 -0.000000 -1.000000 
0.011762 -0.018871 0.425000 -0.000000 -0.000000 -1.000000 
0.011762 -0.018085 0.425000 -0.000000 -0.000000 -1.000000 
0.011762 -0.017299 0.425000 -0.000000 -0.000000 -1.000000 
0.011762 -0.016512 0.425000 -0.000000 -0.000000 -1.000000 
0.011762 -0.015726 0.425000 0.171533 0.232819 -0.957273 
0.011762 -0.014940 0.425000 0.326847 0.418742 -0.847246 
0.011790 -0.014187 0.426000 0.326347 0.418453 -0.847581 
0.011790 -0.013399 0.426000 0.263169 0.444964 -0.856008 
0.011790 -0.012611 0.426000 0.332689 0.231486 -0.914184 
0.011790 -0.011822 0.426000 0.372569 0.418552 -0.828255 
0.011817 -0.011060 0.427000 0.184836 0.439541 -0.878999 
0.011817 -0.010270 0.427000 0.184333 0.438864 -0.879443 
0.011845 -0.009502 0.428000 0.261328 0.663381 -0.701166 
0.011845 -0.008710 0.428000 0.386147 0.579907 -0.717355 
0.011873 -0.007937 0.429000 0.322328 0.414761 -0.850928 
0.011873 -0.007143 0.429000 0.313122 0.570896 -0.758968 
0.011900 -0.006365 0.430000 0.215979 0.741067 -0.635746 
0.011928 -0.005582 0.431000 0.311605 0.665037 -0.678696 
0.011928 -0.004785 0.431000 0.270407 0.667256 -0.694009 
0.011956 -0.003996 0.432000 0.249855 0.572572 -0.780855 
0.011956 -0.003197 0.432000 0.202862 0.556478 -0.805717 
0.011983 -0.002403 0.433000 0.109294 0.741123 -0.662414 
0.012011 -0.001606 0.434000 0.070051 0.568367 -0.819788 
0.012011 -0.000803 0.434000 0.069677 0.567053 -0.820729 
0.012039 0.000000 0.435000 0.090766 0.777161 -0.622722 
0.012094 0.000809 0.437000 0.100625 0.842628 -0.529011 
0.012122 0.001621 0.438000 0.130523 0.771497 -0.622701 
0.012149 0.002437 0.439000 0.000222 0.774118 -0.633041 
0.012177 0.003256 0.440000 0.068943 0.559668 -0.825844 
0.012177 0.004070 0.440000 0.068580 0.558393 -0.826737 
0.012205 0.004895 0.441000 0.068687 0.557840 -0.827101 
0.012205 0.005711 0.441000 -0.065592 0.558628 -0.826820 
0.012232 0.006542 0.442000 0.061644 0.675311 -0.734953 
0.012232 0.007360 0.442000 0.025286 0.580884 -0.813593 
0.012260 0.008196 0.443000 0.072266 0.730689 -0.678875 
0.012288 0.009036 0.444000 -0.106755 0.780984 -0.615360 
0.012315 0.009880 0.445000 0.027779 0.889961 -0.455190 
0.012371 0.010751 0.447000 0.125736 0.902428 -0.412086 
0.012426 0.011630 0.449000 -0.000142 0.759263 -0.650784 
0.012454 0.012488 0.450000 -0.031104 0.845410 -0.533211 
0.012509 0.013380 0.452000 0.111106 0.909353 -0.400915 
0.012565 0.014279 0.454000 0.121684 0.748808 -0.651521 
0.012592 0.015153 0.455000 0.233284 0.682493 -0.692663 
0.012620 0.016030 0.456000 0.461979 0.495541 -0.735537 
0.012620 0.016873 0.456000 0.538266 0.292490 -0.790392 
0.012620 0.017717 0.456000 0.527227 0.191119 -0.827952 
0.012648 0.018601 0.457000 0.439355 0.198860 -0.876026 
0.012648 0.019447 0.457000 0.565974 -0.018220 -0.824221 
0.012620 0.020248 0.456000 0.553066 0.005675 -0.833118 
0.012648 0.021138 0.457000 0.667063 0.138534 -0.732008 
0.012648 0.021983 0.457000 0.710425 0.104827 -0.695922 
0.012648 0.022829 0.457000 0.710093 0.104841 -0.696259 
