0.013989 -0.007426 0.446000 0.000699 0.774978 -0.631988 
0.014083 -0.006646 0.449000 -0.059442 0.904957 -0.421331 
0.014052 -0.005802 0.448000 0.055918 0.902037 -0.428022 
0.014114 -0.004995 0.450000 -0.003988 0.636165 -0.771543 
0.014114 -0.004163 0.450000 -0.334971 0.413117 -0.846835 
0.014146 -0.003338 0.451000 0.049078 0.715233 -0.697160 
0.014177 -0.002509 0.452000 0.114432 0.748882 -0.652749 
0.014208 -0.001676 0.453000 -0.000081 0.767734 -0.640768 
0.014240 -0.000840 0.454000 -0.057856 0.671728 -0.738535 
0.014240 0.000000 0.454000 -0.150981 0.565838 -0.810575 
0.014303 0.000844 0.456000 -0.121650 0.651499 -0.748833 
0.014303 0.001687 0.456000 0.125925 0.527368 -0.840253 
0.014334 0.002537 0.457000 0.275762 0.676354 -0.683009 
0.014365 0.003390 0.458000 0.301878 0.388750 -0.870484 
0.014365 0.004237 0.458000 0.156161 0.216358 -0.963744 
0.014365 0.005084 0.458000 -0.000000 -0.000000 -1.000000 
0.014365 0.005931 0.458000 -0.000000 -0.000000 -1.000000 
0.014365 0.006779 0.458000 -0.000000 -0.000000 -1.000000 
0.014365 0.007626 0.458000 -0.000000 -0.000000 -1.000000 
0.014365 0.008474 0.458000 -0.023446 -0.226328 -0.973769 
0.014334 0.009301 0.457000 0.005034 -0.481375 -0.876500 
0.014334 0.010146 0.457000 0.054173 -0.432718 -0.899900 
0.014334 0.010992 0.457000 -0.000000 -0.000000 -1.000000 
0.014334 0.011837 0.457000 -0.065279 -0.552987 -0.830628 
0.014303 0.012655 0.456000 -0.065236 -0.553295 -0.830427 
0.014303 0.013499 0.456000 -0.000000 -0.000000 -1.000000 
0.014303 0.014342 0.456000 -0.000000 -0.000000 -1.000000 
0.014303 0.015186 0.456000 -0.000000 -0.000000 -1.000000 
0.014303 0.016030 0.456000 0.158834 -0.214022 -0.963829 
0.014303 0.016873 0.456000 0.198585 -0.541057 -0.817203 
0.014271 0.017678 0.455000 0.080240 -0.432827 -0.897899 
0.014271 0.018520 0.455000 -0.000000 -0.000000 -1.000000 
0.014271 0.019362 0.455000 0.000000 0.000000 -1.000000 
0.014271 0.020204 0.455000 0.000000 -0.000000 -1.000000 
0.014271 0.021045 0.455000 0.076609 0.427315 -0.900851 
0.014303 0.021935 0.456000 0.190251 0.523209 -0.830697 
0.014303 0.022779 0.456000 0.155150 0.220247 -0.963026 
0.014303 0.023623 0.456000 0.076145 0.425720 -0.901646 
0.014334 0.024520 0.457000 0.024001 0.558007 -0.829489 
0.014334 0.025365 0.457000 0.057696 0.369028 -0.927626 
0.015111 -0.083340 0.455000 0.309836 -0.854478 -0.416977 
0.015011 -0.081954 0.452000 0.268584 -0.855706 -0.442301 
0.014911 -0.080579 0.449000 0.257925 -0.832178 -0.490871 
0.014878 -0.079571 0.448000 0.283037 -0.725245 -0.627623 
0.014845 -0.078566 0.447000 0.227897 -0.712878 -0.663225 
0.014779 -0.077391 0.445000 0.267074 -0.653078 -0.708633 
0.014745 -0.076396 0.444000 0.263372 -0.634453 -0.726708 
0.014745 -0.075574 0.444000 0.330091 -0.595864 -0.732111 
0.014712 -0.074585 0.443000 0.328885 -0.668184 -0.667356 
0.014679 -0.073599 0.442000 0.350751 -0.590592 -0.726757 
0.014646 -0.072616 0.441000 0.351886 -0.591388 -0.725560 
0.014613 -0.071637 0.440000 0.238816 -0.645332 -0.725613 
0.014613 -0.070823 0.440000 0.233847 -0.601202 -0.764115 
0.014579 -0.069850 0.439000 0.293070 -0.587231 -0.754499 
0.014546 -0.068881 0.438000 0.184868 -0.515622 -0.836635 
0.014546 -0.068070 0.438000 0.318624 -0.506087 -0.801470 
0.014513 -0.067106 0.437000 0.185310 -0.517366 -0.835460 
0.014513 -0.066298 0.437000 0.319724 -0.507634 -0.800053 
0.014480 -0.065340 0.436000 0.186135 -0.518785 -0.834395 
0.014480 -0.064533 0.436000 0.227867 -0.535093 -0.813482 
0.014446 -0.063580 0.435000 0.239773 -0.456040 -0.857051 
0.014446 -0.062775 0.435000 0.307569 -0.418971 -0.854321 
0.014446 -0.061970 0.435000 0.296489 -0.398276 -0.868027 
0.014413 -0.061025 0.434000 0.339201 -0.514367 -0.787635 
0.014413 -0.060222 0.434000 0.354858 -0.540847 -0.762601 
0.014380 -0.059282 0.433000 0.464063 -0.254228 -0.848536 
0.014380 -0.058481 0.433000 0.419046 -0.181646 -0.889609 
0.014380 -0.057680 0.433000 0.297526 -0.122201 -0.946861 
0.014380 -0.056879 0.433000 0.419815 -0.181865 -0.889202 
0.014380 -0.056078 0.433000 0.448763 -0.215637 -0.867244 
0.014347 -0.055149 0.432000 0.449391 -0.215234 -0.867019 
0.014347 -0.054350 0.432000 0.420988 -0.181471 -0.888728 
0.014347 -0.053550 0.432000 0.453306 -0.065671 -0.888933 
0.014347 -0.052751 0.432000 0.249542 -0.042530 -0.967430 
0.014347 -0.051952 0.432000 0.423000 -0.253610 -0.869916 
0.014347 -0.051153 0.432000 0.422086 -0.181426 -0.888216 
0.014347 -0.050353 0.432000 0.567730 0.061217 -0.820935 
0.014347 -0.049554 0.432000 0.567666 0.061351 -0.820970 
0.014347 -0.048755 0.432000 0.559069 -0.072747 -0.825924 
0.014347 -0.047956 0.432000 0.540530 -0.199249 -0.817391 
0.014314 -0.047047 0.431000 0.497724 -0.018279 -0.867143 
0.014347 -0.046357 0.432000 0.497504 -0.018040 -0.867274 
0.014314 -0.045452 0.431000 0.541103 -0.199302 -0.816998 
0.014314 -0.044655 0.431000 0.559542 -0.072217 -0.825649 
0.014314 -0.043858 0.431000 0.567310 0.061921 -0.821173 
0.014314 -0.043060 0.431000 0.567244 0.062045 -0.821209 
0.014314 -0.042263 0.431000 0.567199 0.062121 -0.821234 
0.014314 -0.041465 0.431000 0.657987 -0.141920 -0.739535 
0.014314 -0.040668 0.431000 0.680270 -0.045796 -0.731530 
0.014314 -0.039870 0.431000 0.690342 -0.106783 -0.715559 
0.014314 -0.039073 0.431000 0.629300 0.011059 -0.777084 
0.014314 -0.038276 0.431000 0.702168 0.093271 -0.705876 
0.014314 -0.037478 0.431000 0.658427 -0.199093 -0.725835 
0.014314 -0.036681 0.431000 0.678273 -0.064891 -0.731939 
0.014314 -0.035883 0.431000 0.672990 0.135932 -0.727053 
0.014314 -0.035086 0.431000 0.736033 0.104538 -0.668825 
0.014314 -0.034289 0.431000 0.770042 -0.000178 -0.637993 
0.014314 -0.033491 0.431000 0.770042 -0.000179 -0.637993 
0.014314 -0.032694 0.431000 0.770042 -0.000180 -0.637993 
0.014314 -0.031896 0.431000 0.739794 0.069134 -0.669273 
0.014314 -0.031099 0.431000 0.671591 0.136277 -0.728282 
0.014314 -0.030302 0.431000 0.559890 0.196578 -0.804910 
0.014347 -0.029573 0.432000 0.658045 0.251676 -0.709674 
0.014347 -0.028773 0.432000 0.734362 0.104767 -0.670624 
0.014347 -0.027974 0.432000 0.769298 0.000182 -0.638890 
0.014347 -0.027175 0.432000 0.769287 -0.000182 -0.638903 
0.014347 -0.026376 0.432000 0.769287 -0.000182 -0.638903 
0.014347 -0.025576 0.432000 0.733702 0.208200 -0.646788 
0.014380 -0.024834 0.433000 0.526928 0.275143 -0.804141 
0.014380 -0.024033 0.433000 0.548941 0.342818 -0.762325 
0.014380 -0.023232 0.433000 0.551897 0.360694 -0.751870 
0.014413 -0.022483 0.434000 0.324040 0.411564 -0.851829 
0.014413 -0.021680 0.434000 0.168528 0.225360 -0.959589 
0.014413 -0.020877 0.434000 0.116725 0.232690 -0.965521 
0.014413 -0.020074 0.434000 0.206462 0.562606 -0.800530 
0.014446 -0.019315 0.435000 0.183635 0.432497 -0.882737 
0.014446 -0.018511 0.435000 0.071412 0.575998 -0.814326 
0.014480 -0.017747 0.436000 -0.039989 0.560488 -0.827196 
0.014480 -0.016940 0.436000 -0.067721 0.576241 -0.814469 
0.014513 -0.016170 0.437000 -0.067769 0.575918 -0.814694 
0.014513 -0.015362 0.437000 -0.177872 0.435445 -0.882468 
0.014546 -0.014586 0.438000 -0.139104 0.587572 -0.797126 
0.014546 -0.013776 0.438000 -0.141969 0.682068 -0.717375 
0.014579 -0.012995 0.439000 -0.108779 0.748977 -0.653606 
0.014613 -0.012211 0.440000 -0.258595 0.663545 -0.702024 
0.014613 -0.011397 0.440000 -0.258164 0.662413 -0.703250 
0.014646 -0.010607 0.441000 -0.307955 0.753650 -0.580669 
0.014679 -0.009813 0.442000 -0.214712 0.835854 -0.505219 
0.014745 -0.009036 0.444000 -0.229376 0.779307 -0.583152 
0.014779 -0.008233 0.445000 -0.138417 0.782538 -0.607022 
0.014812 -0.007426 0.446000 -0.039479 0.804080 -0.593209 
0.014845 -0.006616 0.447000 0.000022 0.776211 -0.630474 
0.014878 -0.005802 0.448000 -0.103999 0.917073 -0.384916 
0.014945 -0.004995 0.450000 -0.132272 0.791037 -0.597297 
0.014945 -0.004163 0.450000 0.197373 0.548175 -0.812741 
0.014978 -0.003338 0.451000 0.129715 0.738154 -0.662045 
0.015011 -0.002509 0.452000 0.276542 0.703389 -0.654805 
0.015044 -0.001676 0.453000 0.107102 0.724187 -0.681236 
0.015077 -0.000840 0.454000 -0.064708 0.550394 -0.832394 
0.015077 0.000000 0.454000 -0.006481 0.400599 -0.916230 
0.015144 0.000844 0.456000 0.069946 0.722008 -0.688340 
0.015144 0.001687 0.456000 -0.016221 0.707795 -0.706231 
0.015210 0.002542 0.458000 0.201611 0.152632 -0.967500 
0.015210 0.003390 0.458000 0.156339 0.216140 -0.963764 
0.015210 0.004237 0.458000 -0.000000 -0.000000 -1.000000 
0.015210 0.005084 0.458000 -0.000000 -0.000000 -1.000000 
0.015210 0.005931 0.458000 -0.000000 -0.000000 -1.000000 
0.015210 0.006779 0.458000 -0.000000 -0.000000 -1.000000 
0.015210 0.007626 0.458000 -0.000000 -0.000000 -1.000000 
0.015210 0.008474 0.458000 0.157446 -0.214157 -0.964027 
0.015210 0.009321 0.458000 0.196374 -0.535455 -0.821417 
0.015177 0.010146 0.457000 0.173430 -0.409029 -0.895889 
0.015177 0.010992 0.457000 0.000000 0.000001 -1.000000 
0.015177 0.011837 0.457000 0.068485 -0.550585 -0.831965 
0.015144 0.012655 0.456000 0.068468 -0.550890 -0.831765 
0.015144 0.013499 0.456000 -0.000000 -0.000000 -1.000000 
0.015144 0.014342 0.456000 -0.000000 -0.000000 -1.000000 
0.015144 0.015186 0.456000 -0.000000 -0.000000 -1.000000 
0.015144 0.016030 0.456000 -0.000000 -0.000000 -1.000000 
0.015144 0.016873 0.456000 0.069026 -0.554139 -0.829557 
0.015111 0.017678 0.455000 0.068981 -0.554452 -0.829352 
0.015111 0.018520 0.455000 0.000000 -0.000000 -1.000000 
0.015111 0.019362 0.455000 0.000000 0.000000 -1.000000 
0.015111 0.020204 0.455000 0.000000 0.000000 -1.000000 
0.015111 0.021045 0.455000 0.065829 0.535756 -0.841803 
0.015144 0.021935 0.456000 0.066007 0.534896 -0.842336 
0.015144 0.022779 0.456000 -0.000000 -0.000000 -1.000000 
0.015144 0.023623 0.456000 0.065627 0.533406 -0.843309 
0.015177 0.024520 0.457000 0.065645 0.533123 -0.843487 
0.015177 0.025365 0.457000 0.036114 0.395137 -0.917912 
0.015985 -0.083523 0.456000 0.289239 -0.865322 -0.409339 
0.015880 -0.082135 0.453000 0.296050 -0.858571 -0.418581 
0.015775 -0.080759 0.450000 0.277565 -0.831376 -0.481426 
0.015705 -0.079571 0.448000 0.309955 -0.725638 -0.614311 
0.015670 -0.078566 0.447000 0.259752 -0.731309 -0.630647 
0.015635 -0.077565 0.446000 0.237283 -0.722616 -0.649247 
0.015600 -0.076568 0.445000 0.313986 -0.629042 -0.711139 
0.015565 -0.075574 0.444000 0.289622 -0.580623 -0.760918 
0.015530 -0.074585 0.443000 0.255711 -0.655019 -0.711029 
0.015494 -0.073599 0.442000 0.326267 -0.622777 -0.711125 
0.015494 -0.072781 0.442000 0.331693 -0.598116 -0.729546 
0.015459 -0.071800 0.441000 0.256449 -0.658092 -0.707919 
0.015424 -0.070823 0.440000 0.292131 -0.585806 -0.755970 
0.015389 -0.069850 0.439000 0.234172 -0.601929 -0.763443 
0.015389 -0.069038 0.439000 0.349385 -0.533356 -0.770365 
0.015354 -0.068070 0.438000 0.334808 -0.508412 -0.793360 
0.015354 -0.067260 0.438000 0.410630 -0.486941 -0.770890 
0.015319 -0.066298 0.437000 0.336003 -0.509829 -0.791945 
0.015319 -0.065489 0.437000 0.236135 -0.606211 -0.759439 
0.015284 -0.064533 0.436000 0.227677 -0.534709 -0.813787 
0.015284 -0.063726 0.436000 0.295411 -0.396773 -0.869082 
0.015249 -0.062775 0.435000 0.318890 -0.327189 -0.889526 
0.015249 -0.061970 0.435000 0.307644 -0.418963 -0.854298 
0.015249 -0.061166 0.435000 0.319504 -0.327617 -0.889148 
0.015214 -0.060222 0.434000 0.514472 -0.351301 -0.782244 
0.015214 -0.059419 0.434000 0.540500 -0.298625 -0.786564 
0.015214 -0.058616 0.434000 0.535807 -0.198743 -0.820617 
0.015179 -0.057680 0.433000 0.464230 -0.253941 -0.848531 
0.015179 -0.056879 0.433000 0.419277 -0.181273 -0.889577 
0.015179 -0.056078 0.433000 0.420664 -0.253153 -0.871180 
0.015179 -0.055277 0.433000 0.420112 -0.181371 -0.889163 
0.015179 -0.054475 0.433000 0.586116 -0.033095 -0.809551 
0.015144 -0.053550 0.432000 0.496217 -0.020590 -0.867954 
0.015179 -0.052873 0.433000 0.495982 -0.020354 -0.868094 
0.015144 -0.051952 0.432000 0.449978 -0.214529 -0.866889 
0.015144 -0.051153 0.432000 0.557676 -0.072603 -0.826877 
0.015144 -0.050353 0.432000 0.557749 -0.072522 -0.826835 
0.015144 -0.049554 0.432000 0.557816 -0.072480 -0.826794 
0.015144 -0.048755 0.432000 0.566388 0.061155 -0.821867 
0.015144 -0.047956 0.432000 0.571968 -0.207188 -0.793679 
0.015144 -0.047156 0.432000 0.472082 -0.145301 -0.869498 
0.015144 -0.046357 0.432000 0.461008 0.038904 -0.886543 
0.015144 -0.045558 0.432000 0.423198 -0.180806 -0.887813 
0.015144 -0.044759 0.432000 0.457178 -0.016599 -0.889220 
0.015144 -0.043959 0.432000 0.457207 -0.016351 -0.889210 
0.015144 -0.043160 0.432000 0.457239 -0.016006 -0.889200 
0.015144 -0.042361 0.432000 0.457259 -0.015793 -0.889193 
0.015144 -0.041562 0.432000 0.457290 -0.015417 -0.889184 
0.015144 -0.040762 0.432000 0.457313 -0.015231 -0.889176 
0.015144 -0.039963 0.432000 0.542330 -0.198806 -0.816305 
0.015109 -0.039073 0.431000 0.506992 0.051125 -0.860433 
0.015144 -0.038364 0.432000 0.590736 0.014847 -0.806728 
0.015144 -0.037565 0.432000 0.569459 -0.139599 -0.810079 
0.015109 -0.036681 0.431000 0.531628 -0.104128 -0.840553 
0.015109 -0.035883 0.431000 0.580633 0.133575 -0.803133 
0.015144 -0.035167 0.432000 0.560833 0.196094 -0.804371 
0.015144 -0.034368 0.432000 0.566265 0.063136 -0.821802 
0.015144 -0.033569 0.432000 0.560339 -0.070976 -0.825217 
0.015144 -0.032770 0.432000 0.682804 0.055253 -0.728509 
0.015144 -0.031970 0.432000 0.683789 0.035624 -0.728810 
0.015144 -0.031171 0.432000 0.740825 0.015332 -0.671523 
0.015144 -0.030372 0.432000 0.675295 0.194078 -0.711555 
0.015144 -0.029573 0.432000 0.657198 0.251240 -0.710611 
0.015179 -0.028840 0.433000 0.558244 0.196031 -0.806186 
0.015179 -0.028039 0.433000 0.564681 0.063775 -0.822841 
0.015179 -0.027238 0.433000 0.681365 0.055940 -0.729803 
0.015179 -0.026437 0.433000 0.679475 -0.043912 -0.732383 
0.015179 -0.025636 0.433000 0.697999 0.095377 -0.709719 
0.015179 -0.024834 0.433000 0.575251 0.239742 -0.782055 
0.015179 -0.024033 0.433000 0.556134 0.195867 -0.807682 
0.015214 -0.023286 0.434000 0.324292 0.411436 -0.851795 
0.015214 -0.022483 0.434000 0.168696 0.225122 -0.959616 
0.015214 -0.021680 0.434000 0.000000 0.000000 -1.000000 
0.015214 -0.020877 0.434000 -0.024453 0.239633 -0.970556 
0.015249 -0.020120 0.435000 0.006305 0.508622 -0.860967 
0.015249 -0.019315 0.435000 0.058249 0.459268 -0.886386 
0.015249 -0.018511 0.435000 -0.179065 0.438586 -0.880669 
0.015284 -0.017747 0.436000 -0.204427 0.568060 -0.797193 
0.015284 -0.016940 0.436000 -0.250751 0.584151 -0.771940 
0.015319 -0.016170 0.437000 -0.203691 0.566287 -0.798642 
0.015319 -0.015362 0.437000 -0.255514 0.442760 -0.859463 
0.015319 -0.014553 0.437000 -0.202977 0.564336 -0.800203 
0.015354 -0.013776 0.438000 -0.202384 0.685803 -0.699081 
0.015389 -0.012995 0.439000 -0.259052 0.665130 -0.700353 
0.015389 -0.012183 0.439000 -0.258658 0.664207 -0.701374 
0.015424 -0.011397 0.440000 -0.323450 0.646032 -0.691392 
0.015459 -0.010607 0.441000 -0.097235 0.804158 -0.586409 
0.015494 -0.009813 0.442000 -0.218957 0.846739 -0.484861 
0.015530 -0.009016 0.443000 -0.210373 0.818815 -0.534121 
0.015565 -0.008215 0.444000 -0.196629 0.820493 -0.536776 
0.015600 -0.007410 0.445000 -0.125780 0.868260 -0.479900 
0.015670 -0.006616 0.447000 -0.202522 0.773257 -0.600881 
0.015705 -0.005802 0.448000 -0.272097 0.828851 -0.488846 
0.015810 -0.005007 0.451000 -0.019991 0.787052 -0.616563 
0.015810 -0.004172 0.451000 0.127710 0.760732 -0.636377 
0.015845 -0.003345 0.452000 0.255532 0.744258 -0.617076 
0.015880 -0.002514 0.453000 0.084445 0.549607 -0.831145 
0.015880 -0.001676 0.453000 0.062288 0.670215 -0.739548 
0.015915 -0.000840 0.454000 0.068020 0.547884 -0.833784 
0.015915 0.000000 0.454000 0.025167 0.410614 -0.911462 
0.015950 0.000842 0.455000 -0.159542 0.744139 -0.648694 
0.016055 0.001695 0.458000 -0.310828 0.267368 -0.912086 
0.016055 0.002542 0.458000 -0.095920 0.181619 -0.978680 
0.016055 0.003390 0.458000 -0.000000 -0.000000 -1.000000 
0.016055 0.004237 0.458000 0.156412 0.216270 -0.963723 
0.016055 0.005084 0.458000 0.305347 0.217157 -0.927150 
0.016055 0.005931 0.458000 0.433565 0.001877 -0.901121 
0.016055 0.006779 0.458000 0.433561 0.002145 -0.901122 
0.016055 0.007626 0.458000 0.307719 -0.213895 -0.927123 
0.016055 0.008474 0.458000 0.157600 -0.214174 -0.963998 
0.016055 0.009321 0.458000 0.173238 -0.408403 -0.896212 
0.016020 0.010146 0.457000 0.196597 -0.535557 -0.821297 
0.016020 0.010992 0.457000 0.158223 -0.214336 -0.963860 
0.016020 0.011837 0.457000 -0.065113 -0.553106 -0.830563 
0.015985 0.012655 0.456000 0.068509 -0.550830 -0.831801 
0.015985 0.013499 0.456000 -0.000000 -0.000000 -1.000000 
0.015985 0.014342 0.456000 -0.000000 -0.000000 -1.000000 
0.015985 0.015186 0.456000 -0.000000 -0.000000 -1.000000 
0.015985 0.016030 0.456000 -0.000000 -0.000000 -1.000000 
0.015985 0.016873 0.456000 0.080416 -0.432084 -0.898241 
0.015950 0.017678 0.455000 0.198874 -0.540854 -0.817268 
0.015950 0.018520 0.455000 0.159691 -0.213973 -0.963698 
0.015950 0.019362 0.455000 -0.000000 0.000000 -1.000000 
0.015950 0.020204 0.455000 0.155958 0.220565 -0.962823 
0.015950 0.021045 0.455000 0.190259 0.523589 -0.830456 
0.015985 0.021935 0.456000 0.076675 0.426135 -0.901405 
0.015985 0.022779 0.456000 -0.000000 -0.000000 -1.000000 
0.015985 0.023623 0.456000 0.065665 0.533351 -0.843342 
0.016020 0.024520 0.457000 -0.062472 0.535464 -0.842244 
0.016020 0.025365 0.457000 0.000000 0.000000 -1.000000 
0.016863 -0.083706 0.457000 0.289239 -0.865322 -0.409339 
0.016642 -0.080938 0.451000 0.295030 -0.850255 -0.435918 
0.016568 -0.079748 0.449000 0.329258 -0.782846 -0.527959 
0.016494 -0.078566 0.447000 0.221742 -0.754099 -0.618195 
0.016458 -0.077565 0.446000 0.243300 -0.720539 -0.649329 
0.016421 -0.076568 0.445000 0.329619 -0.662382 -0.672756 
0.016384 -0.075574 0.444000 0.329693 -0.595292 -0.732755 
0.016384 -0.074753 0.444000 0.324884 -0.620787 -0.713495 
0.016347 -0.073765 0.443000 0.255545 -0.655451 -0.710690 
0.016310 -0.072781 0.442000 0.291090 -0.583028 -0.758515 
0.016273 -0.071800 0.441000 0.316346 -0.633895 -0.705764 
0.016236 -0.070823 0.440000 0.332736 -0.600292 -0.727280 
0.016236 -0.070009 0.440000 0.348578 -0.531952 -0.771700 
0.016199 -0.069038 0.439000 0.408910 -0.485242 -0.772873 
0.016199 -0.068226 0.439000 0.409554 -0.485647 -0.772278 
0.016162 -0.067260 0.438000 0.410025 -0.486486 -0.771499 
0.016162 -0.066450 0.438000 0.235386 -0.604630 -0.760931 
0.016125 -0.065489 0.437000 0.294642 -0.590506 -0.751325 
0.016089 -0.064533 0.436000 0.239165 -0.454818 -0.857870 
0.016089 -0.063726 0.436000 0.306709 -0.417494 -0.855353 
0.016089 -0.062920 0.436000 0.318485 -0.326492 -0.889927 
0.016052 -0.061970 0.435000 0.319037 -0.327079 -0.889514 
0.016052 -0.061166 0.435000 0.307946 -0.418931 -0.854205 
0.016052 -0.060361 0.435000 0.319787 -0.327359 -0.889141 
0.016015 -0.059419 0.434000 0.534514 -0.198207 -0.821589 
0.016015 -0.058616 0.434000 0.546654 -0.243541 -0.801160 
0.016015 -0.057813 0.434000 0.547209 -0.243686 -0.800737 
0.016015 -0.057010 0.434000 0.536103 -0.198391 -0.820508 
0.015978 -0.056078 0.433000 0.447953 -0.214449 -0.867957 
0.015978 -0.055277 0.433000 0.555996 -0.072859 -0.827985 
0.015978 -0.054475 0.433000 0.548861 -0.243767 -0.799581 
0.015978 -0.053674 0.433000 0.469112 -0.146748 -0.870861 
0.015978 -0.052873 0.433000 0.452165 -0.065476 -0.889528 
0.015978 -0.052072 0.433000 0.420662 -0.180916 -0.888996 
0.015978 -0.051271 0.433000 0.565955 0.060962 -0.822179 
0.015978 -0.050470 0.433000 0.565902 0.061048 -0.822209 
0.015978 -0.049669 0.433000 0.455653 -0.018364 -0.889968 
0.015978 -0.048868 0.433000 0.455688 -0.018045 -0.889957 
0.015978 -0.048067 0.433000 0.450388 -0.213617 -0.866902 
0.015941 -0.047156 0.432000 0.539196 -0.198448 -0.818466 
0.015941 -0.046357 0.432000 0.456254 -0.017032 -0.889687 
0.015941 -0.045558 0.432000 0.449274 -0.088211 -0.889028 
0.015941 -0.044759 0.432000 0.240687 -0.119753 -0.963187 
0.015941 -0.043959 0.432000 -0.000000 -0.000000 -1.000000 
0.015941 -0.043160 0.432000 -0.000000 -0.000000 -1.000000 
0.015941 -0.042361 0.432000 -0.000000 -0.000000 -1.000000 
0.015941 -0.041562 0.432000 -0.000000 -0.000000 -1.000000 
0.015941 -0.040762 0.432000 0.248423 0.101631 -0.963305 
0.015941 -0.039963 0.432000 0.627224 0.010528 -0.778768 
0.015941 -0.039164 0.432000 0.682743 0.034157 -0.729860 
0.015941 -0.038364 0.432000 0.681894 0.054920 -0.729386 
0.015941 -0.037565 0.432000 0.656786 -0.141139 -0.740751 
0.015941 -0.036766 0.432000 0.731331 -0.073773 -0.678021 
0.015941 -0.035967 0.432000 0.733842 0.104045 -0.671305 
0.015941 -0.035167 0.432000 0.681676 0.055336 -0.729559 
0.015941 -0.034368 0.432000 0.558829 -0.070716 -0.826263 
0.015941 -0.033569 0.432000 0.564762 0.062880 -0.822855 
0.015941 -0.032770 0.432000 0.558805 0.195588 -0.805905 
0.015978 -0.032044 0.433000 0.701711 0.173159 -0.691099 
0.015941 -0.031171 0.432000 0.644522 0.083723 -0.759988 
0.015978 -0.030442 0.433000 0.789038 0.093527 -0.607183 
0.015978 -0.029641 0.433000 0.736807 0.069007 -0.672572 
0.015978 -0.028840 0.433000 0.680432 0.056070 -0.730662 
0.015978 -0.028039 0.433000 0.563485 0.063465 -0.823685 
0.015978 -0.027238 0.433000 0.556667 0.195579 -0.807385 
0.016015 -0.026498 0.434000 0.495722 -0.010136 -0.868422 
0.015978 -0.025636 0.433000 0.587017 0.107846 -0.802359 
0.016015 -0.024892 0.434000 0.467793 0.198861 -0.861176 
0.016015 -0.024089 0.434000 0.329151 0.222377 -0.917719 
0.016015 -0.023286 0.434000 0.168970 0.224836 -0.959634 
0.016015 -0.022483 0.434000 -0.000000 0.000000 -1.000000 
0.016015 -0.021680 0.434000 0.000000 0.000000 -1.000000 
0.016015 -0.020877 0.434000 -0.164239 0.229262 -0.959408 
0.016015 -0.020074 0.434000 -0.205325 0.570543 -0.795187 
0.016052 -0.019315 0.435000 -0.076122 0.459389 -0.884968 
0.016052 -0.018511 0.435000 -0.163526 0.229219 -0.959540 
0.016052 -0.017706 0.435000 -0.204421 0.568285 -0.797034 
0.016089 -0.016940 0.436000 -0.251011 0.584737 -0.771412 
0.016089 -0.016133 0.436000 -0.203686 0.566529 -0.798471 
0.016125 -0.015362 0.437000 -0.177994 0.436204 -0.882068 
0.016125 -0.014553 0.437000 -0.177456 0.435566 -0.882492 
0.016162 -0.013776 0.438000 -0.259561 0.666821 -0.698554 
0.016162 -0.012966 0.438000 -0.259059 0.665762 -0.699750 
0.016199 -0.012183 0.439000 -0.324008 0.647693 -0.689574 
0.016236 -0.011397 0.440000 -0.258355 0.663431 -0.702219 
0.016236 -0.010583 0.440000 -0.256493 0.743283 -0.617853 
0.016310 -0.009813 0.442000 -0.085961 0.832793 -0.546869 
0.016347 -0.009016 0.443000 -0.091309 0.802293 -0.589906 
0.016421 -0.008233 0.445000 -0.125911 0.868416 -0.479583 
0.016458 -0.007426 0.446000 -0.196185 0.818433 -0.540073 
0.016494 -0.006616 0.447000 -0.256752 0.759148 -0.598141 
0.016531 -0.005802 0.448000 -0.229840 0.814175 -0.533190 
0.016568 -0.004984 0.449000 -0.209507 0.803528 -0.557180 
0.016642 -0.004172 0.451000 -0.073063 0.851119 -0.519864 
0.016679 -0.003345 0.452000 -0.105691 0.743131 -0.660746 
0.016716 -0.002514 0.453000 0.217342 0.624108 -0.750501 
0.016716 -0.001676 0.453000 0.234099 0.454306 -0.859537 
0.016753 -0.000840 0.454000 0.068139 0.547816 -0.833819 
0.016753 0.000000 0.454000 0.001546 0.524508 -0.851404 
0.016863 0.000846 0.457000 -0.335479 0.777739 -0.531579 
0.016863 0.001691 0.457000 -0.524248 0.456647 -0.718775 
0.016900 0.002542 0.458000 -0.318383 0.321091 -0.891927 
0.016900 0.003390 0.458000 -0.152554 0.219179 -0.963684 
0.016900 0.004237 0.458000 0.030616 0.229168 -0.972905 
0.016937 0.005095 0.459000 0.270737 0.427739 -0.862404 
0.016937 0.005945 0.459000 0.370979 0.239513 -0.897222 
0.016937 0.006794 0.459000 0.432869 0.002148 -0.901454 
0.016937 0.007643 0.459000 0.349031 -0.390182 -0.852018 
0.016900 0.008474 0.458000 0.172905 -0.407640 -0.896624 
0.016900 0.009321 0.458000 0.108879 -0.220090 -0.969384 
0.016900 0.010168 0.458000 0.196504 -0.535379 -0.821435 
0.016863 0.010992 0.457000 0.173586 -0.409014 -0.895866 
0.016863 0.011837 0.457000 0.079890 -0.430191 -0.899196 
0.016827 0.012655 0.456000 0.197427 -0.537379 -0.819906 
0.016827 0.013499 0.456000 0.109959 -0.220625 -0.969141 
0.016827 0.014342 0.456000 -0.000000 -0.000000 -1.000000 
0.016827 0.015186 0.456000 -0.000000 -0.000000 -1.000000 
0.016827 0.016030 0.456000 -0.000000 -0.000000 -1.000000 
0.016827 0.016873 0.456000 0.159203 -0.213647 -0.963851 
0.016827 0.017717 0.456000 0.308989 -0.391743 -0.866639 
0.016790 0.018520 0.455000 0.447039 -0.191476 -0.873781 
0.016790 0.019362 0.455000 0.435822 0.006206 -0.900012 
0.016790 0.020204 0.455000 0.438821 0.198516 -0.876372 
0.016827 0.021092 0.456000 0.297768 0.387503 -0.872454 
0.016827 0.021935 0.456000 0.155518 0.220038 -0.963015 
0.016827 0.022779 0.456000 0.107358 0.227664 -0.967803 
0.016827 0.023623 0.456000 0.189658 0.521199 -0.832095 
0.016863 0.024520 0.457000 0.076530 0.424820 -0.902037 
0.016863 0.025365 0.457000 -0.000000 0.000000 -1.000000 
0.017435 -0.079926 0.450000 0.321910 -0.780313 -0.536177 
0.017358 -0.078742 0.448000 0.349767 -0.770884 -0.532354 
0.017242 -0.075745 0.445000 0.340252 -0.557822 -0.757010 
0.017203 -0.074753 0.444000 0.377877 -0.569424 -0.730045 
0.017164 -0.073765 0.443000 0.382175 -0.652950 -0.653911 
0.017125 -0.072781 0.442000 0.331357 -0.597672 -0.730062 
0.017125 -0.071963 0.442000 0.365591 -0.559462 -0.743872 
0.017087 -0.070984 0.441000 0.430967 -0.576334 -0.694339 
0.017048 -0.070009 0.440000 0.471525 -0.472740 -0.744433 
0.017048 -0.069195 0.440000 0.408578 -0.484462 -0.773538 
0.017009 -0.068226 0.439000 0.409031 -0.485228 -0.772818 
0.017009 -0.067414 0.439000 0.342821 -0.566126 -0.749650 
0.016970 -0.066450 0.438000 0.293853 -0.588964 -0.752842 
0.016932 -0.065489 0.437000 0.235709 -0.605367 -0.760245 
0.016932 -0.064681 0.437000 0.411817 -0.487759 -0.769739 
0.016893 -0.063726 0.436000 0.318144 -0.326003 -0.890228 
0.016893 -0.062920 0.436000 0.306817 -0.417551 -0.855286 
0.016893 -0.062113 0.436000 0.390312 -0.306230 -0.868262 
0.016854 -0.061166 0.435000 0.319401 -0.326869 -0.889460 
0.016854 -0.060361 0.435000 0.417525 -0.251704 -0.873108 
0.016854 -0.059556 0.435000 0.417109 -0.180783 -0.890695 
0.016854 -0.058751 0.435000 0.445901 -0.214264 -0.869059 
0.016815 -0.057813 0.434000 0.534514 -0.197906 -0.821662 
0.016815 -0.057010 0.434000 0.546791 -0.243144 -0.801187 
0.016815 -0.056207 0.434000 0.504994 -0.122803 -0.854342 
0.016815 -0.055404 0.434000 0.555386 -0.072983 -0.828384 
0.016815 -0.054601 0.434000 0.536187 -0.198279 -0.820481 
0.016777 -0.053674 0.433000 0.536397 -0.198281 -0.820344 
0.016777 -0.052873 0.433000 0.454822 -0.019316 -0.890373 
0.016777 -0.052072 0.433000 0.564800 0.060600 -0.823000 
0.016777 -0.051271 0.433000 0.555930 -0.072371 -0.828072 
0.016777 -0.050470 0.433000 0.420483 -0.180272 -0.889211 
0.016777 -0.049669 0.433000 0.239550 -0.120361 -0.963395 
0.016777 -0.048868 0.433000 0.000000 -0.000000 -1.000000 
0.016777 -0.048067 0.433000 0.229999 -0.168112 -0.958561 
0.016777 -0.047265 0.433000 0.448151 -0.088362 -0.889580 
0.016777 -0.046464 0.433000 0.557079 -0.072128 -0.827321 
0.016777 -0.045663 0.433000 0.450780 -0.213095 -0.866826 
0.016738 -0.044759 0.432000 0.451341 -0.212737 -0.866622 
0.016738 -0.043959 0.432000 0.456053 -0.016101 -0.889807 
0.016738 -0.043160 0.432000 0.456077 -0.015893 -0.889798 
0.016738 -0.042361 0.432000 0.456107 -0.015576 -0.889789 
0.016738 -0.041562 0.432000 0.456131 -0.015337 -0.889781 
0.016738 -0.040762 0.432000 0.472318 0.195403 -0.859496 
0.016777 -0.040056 0.433000 0.658940 0.250668 -0.709199 
0.016777 -0.039254 0.433000 0.733023 0.103845 -0.672230 
0.016777 -0.038453 0.433000 0.766651 0.000179 -0.642063 
0.016777 -0.037652 0.433000 0.766636 -0.000180 -0.642082 
0.016777 -0.036851 0.433000 0.766636 -0.000180 -0.642082 
0.016777 -0.036050 0.433000 0.766651 0.000179 -0.642064 
0.016777 -0.035249 0.433000 0.766651 0.000179 -0.642064 
0.016777 -0.034448 0.433000 0.766637 -0.000180 -0.642081 
0.016777 -0.033647 0.433000 0.766637 -0.000180 -0.642081 
0.016777 -0.032846 0.433000 0.732037 0.104013 -0.673278 
0.016777 -0.032044 0.433000 0.755989 0.119541 -0.643576 
0.016815 -0.031315 0.434000 0.526394 0.137168 -0.839103 
0.016815 -0.030512 0.434000 0.512549 -0.003927 -0.858649 
0.016815 -0.029710 0.434000 0.557860 -0.070220 -0.826959 
0.016815 -0.028907 0.434000 0.557934 -0.070099 -0.826919 
0.016815 -0.028104 0.434000 0.455160 -0.010342 -0.890350 
0.016815 -0.027301 0.434000 0.329663 0.221225 -0.917814 
0.016815 -0.026498 0.434000 0.342664 -0.016803 -0.939308 
0.016815 -0.025695 0.434000 0.177473 -0.013276 -0.984036 
0.016815 -0.024892 0.434000 0.169156 0.224471 -0.959687 
0.016815 -0.024089 0.434000 0.000000 -0.000000 -1.000000 
0.016815 -0.023286 0.434000 -0.000000 -0.000000 -1.000000 
0.016815 -0.022483 0.434000 0.000000 0.000000 -1.000000 
0.016815 -0.021680 0.434000 -0.000000 0.000000 -1.000000 
0.016815 -0.020877 0.434000 -0.000000 -0.000000 -1.000000 
0.016815 -0.020074 0.434000 -0.067905 0.580476 -0.811441 
0.016854 -0.019315 0.435000 -0.067935 0.580149 -0.811673 
0.016854 -0.018511 0.435000 -0.000000 -0.000000 -1.000000 
0.016854 -0.017706 0.435000 -0.178833 0.438407 -0.880805 
0.016893 -0.016940 0.436000 -0.204245 0.567957 -0.797314 
0.016893 -0.016133 0.436000 -0.250318 0.584531 -0.771793 
0.016932 -0.015362 0.437000 -0.203457 0.566247 -0.798730 
0.016932 -0.014553 0.437000 -0.254856 0.443240 -0.859411 
0.016932 -0.013745 0.437000 -0.202552 0.564584 -0.800136 
0.016970 -0.012966 0.438000 -0.324783 0.649178 -0.687811 
0.017009 -0.012183 0.439000 -0.258853 0.665006 -0.700544 
0.017009 -0.011371 0.439000 -0.258398 0.664176 -0.701499 
0.017048 -0.010583 0.440000 -0.227673 0.749941 -0.621091 
0.017087 -0.009791 0.441000 -0.110534 0.902284 -0.416733 
0.017164 -0.009016 0.443000 0.000043 0.781086 -0.624424 
0.017203 -0.008215 0.444000 -0.071902 0.818465 -0.570039 
0.017242 -0.007410 0.445000 -0.138728 0.782206 -0.607378 
0.017280 -0.006601 0.446000 -0.258498 0.758964 -0.597622 
0.017319 -0.005789 0.447000 -0.251425 0.787111 -0.563242 
0.017397 -0.004984 0.449000 -0.239213 0.863464 -0.444080 
0.017435 -0.004163 0.450000 -0.322559 0.865232 -0.383834 
0.017513 -0.003345 0.452000 -0.252999 0.699812 -0.668023 
0.017590 -0.002520 0.454000 0.004501 0.518455 -0.855093 
0.017552 -0.001676 0.453000 -0.084967 0.714770 -0.694179 
0.017590 -0.000840 0.454000 0.079512 0.431538 -0.898584 
0.017590 0.000000 0.454000 0.021465 0.519529 -0.854183 
0.017629 0.000842 0.455000 -0.080957 0.747099 -0.659764 
0.017668 0.001687 0.456000 -0.466297 0.645061 -0.605362 
0.017707 0.002537 0.457000 -0.207477 0.720941 -0.661209 
0.017745 0.003390 0.458000 0.027612 0.602448 -0.797680 
0.017745 0.004237 0.458000 0.058850 0.471592 -0.879851 
0.017745 0.005084 0.458000 0.270834 0.427176 -0.862653 
0.017784 0.005945 0.459000 0.030741 0.228498 -0.973059 
0.017784 0.006794 0.459000 0.000000 0.000000 -1.000000 
0.017784 0.007643 0.459000 0.172759 -0.406855 -0.897008 
0.017745 0.008474 0.458000 0.195908 -0.533545 -0.822770 
0.017745 0.009321 0.458000 0.109271 -0.220268 -0.969300 
0.017745 0.010168 0.458000 0.068458 -0.548439 -0.833383 
0.017707 0.010992 0.457000 0.068352 -0.549047 -0.832992 
0.017707 0.011837 0.457000 0.158375 -0.213897 -0.963932 
0.017707 0.012683 0.457000 0.197566 -0.537103 -0.820054 
0.017668 0.013499 0.456000 0.174628 -0.410160 -0.895139 
0.017668 0.014342 0.456000 -0.000000 -0.000000 -1.000000 
0.017668 0.015186 0.456000 -0.000000 -0.000000 -1.000000 
0.017668 0.016030 0.456000 -0.000000 -0.000000 -1.000000 
0.017668 0.016873 0.456000 -0.000000 -0.000000 -1.000000 
0.017668 0.017717 0.456000 0.159406 -0.213218 -0.963913 
0.017668 0.018561 0.456000 0.311305 -0.212031 -0.926354 
0.017668 0.019404 0.456000 0.435243 0.006252 -0.900291 
0.017668 0.020248 0.456000 0.303988 0.221771 -0.926504 
0.017668 0.021092 0.456000 0.155702 0.219799 -0.963040 
0.017668 0.021935 0.456000 -0.000000 -0.000000 -1.000000 
0.017668 0.022779 0.456000 0.168233 0.404438 -0.898959 
0.017707 0.023674 0.457000 0.189792 0.520945 -0.832223 
0.017707 0.024520 0.457000 0.237573 0.408673 -0.881218 
0.017707 0.025365 0.457000 0.119134 0.295292 -0.947950 
0.018387 -0.081297 0.453000 0.349849 -0.834824 -0.425058 
0.018266 -0.079926 0.450000 0.321910 -0.780313 -0.536177 
0.018225 -0.078918 0.449000 0.358847 -0.766415 -0.532763 
0.018144 -0.077739 0.447000 0.393794 -0.703295 -0.591863 
0.018103 -0.076740 0.446000 0.350697 -0.633674 -0.689542 
0.018063 -0.075745 0.445000 0.366092 -0.598178 -0.712854 
0.018063 -0.074921 0.445000 0.329719 -0.594419 -0.733452 
0.018022 -0.073932 0.444000 0.366457 -0.617985 -0.695561 
0.017982 -0.072945 0.443000 0.429601 -0.573798 -0.697280 
0.017941 -0.071963 0.442000 0.469554 -0.470517 -0.747083 
0.017941 -0.071145 0.442000 0.469776 -0.470753 -0.746794 
0.017900 -0.070168 0.441000 0.431570 -0.576196 -0.694079 
0.017860 -0.069195 0.440000 0.471599 -0.472775 -0.744365 
0.017860 -0.068381 0.440000 0.408791 -0.484390 -0.773470 
0.017819 -0.067414 0.439000 0.382418 -0.575642 -0.722768 
0.017779 -0.066450 0.438000 0.334723 -0.603377 -0.723807 
0.017779 -0.065639 0.438000 0.350750 -0.534643 -0.768851 
0.017738 -0.064681 0.437000 0.411130 -0.487324 -0.770381 
0.017738 -0.063872 0.437000 0.488266 -0.416619 -0.766828 
0.017697 -0.062920 0.436000 0.459898 -0.251816 -0.851518 
0.017697 -0.062113 0.436000 0.417630 -0.417277 -0.807134 
0.017697 -0.061306 0.436000 0.512139 -0.349605 -0.784532 
0.017657 -0.060361 0.435000 0.461148 -0.252364 -0.850679 
0.017657 -0.059556 0.435000 0.416472 -0.180240 -0.891103 
0.017657 -0.058751 0.435000 0.296446 -0.121362 -0.947307 
0.017657 -0.057946 0.435000 0.417363 -0.180432 -0.890647 
0.017657 -0.057142 0.435000 0.445926 -0.213889 -0.869138 
0.017616 -0.056207 0.434000 0.534424 -0.197717 -0.821766 
0.017616 -0.055404 0.434000 0.553998 -0.072634 -0.829344 
0.017616 -0.054601 0.434000 0.547059 -0.243007 -0.801045 
0.017616 -0.053798 0.434000 0.547590 -0.243243 -0.800611 
0.017616 -0.052995 0.434000 0.564263 0.060595 -0.823368 
0.017616 -0.052192 0.434000 0.564201 0.060698 -0.823403 
0.017616 -0.051389 0.434000 0.555323 -0.072477 -0.828471 
0.017616 -0.050586 0.434000 0.536745 -0.198051 -0.820171 
0.017576 -0.049669 0.433000 0.448990 -0.213145 -0.867742 
0.017576 -0.048868 0.433000 0.454696 -0.017865 -0.890468 
0.017576 -0.048067 0.433000 0.454724 -0.017625 -0.890458 
0.017576 -0.047265 0.433000 0.555826 -0.071856 -0.828187 
0.017576 -0.046464 0.433000 0.421089 -0.179696 -0.889041 
0.017576 -0.045663 0.433000 0.423647 -0.251567 -0.870194 
0.017576 -0.044862 0.433000 0.625366 0.009342 -0.780275 
0.017576 -0.044061 0.433000 0.676334 -0.046235 -0.735143 
0.017576 -0.043260 0.433000 0.654076 -0.141296 -0.743115 
0.017576 -0.042459 0.433000 0.669889 0.134587 -0.730161 
0.017576 -0.041658 0.433000 0.732598 0.103626 -0.672727 
0.017576 -0.040857 0.433000 0.732348 0.103475 -0.673022 
0.017576 -0.040056 0.433000 0.705673 0.257788 -0.659978 
0.017616 -0.039345 0.434000 0.733427 0.206922 -0.647509 
0.017616 -0.038542 0.434000 0.765338 0.000236 -0.643628 
0.017616 -0.037739 0.434000 0.765318 -0.000238 -0.643652 
0.017616 -0.036936 0.434000 0.765338 0.000236 -0.643629 
0.017616 -0.036133 0.434000 0.765338 0.000236 -0.643629 
0.017616 -0.035330 0.434000 0.765319 -0.000237 -0.643652 
0.017616 -0.034527 0.434000 0.765337 0.000237 -0.643629 
0.017616 -0.033724 0.434000 0.765337 0.000237 -0.643630 
0.017616 -0.032921 0.434000 0.765319 -0.000237 -0.643651 
0.017616 -0.032118 0.434000 0.730518 0.103903 -0.674943 
0.017616 -0.031315 0.434000 0.678358 0.055691 -0.732618 
0.017616 -0.030512 0.434000 0.556404 -0.069934 -0.827964 
0.017616 -0.029710 0.434000 0.561581 0.063085 -0.825014 
0.017616 -0.028907 0.434000 0.448811 -0.083652 -0.889703 
0.017616 -0.028104 0.434000 0.231986 -0.165228 -0.958584 
0.017616 -0.027301 0.434000 -0.000000 -0.000000 -1.000000 
0.017616 -0.026498 0.434000 -0.000000 -0.000000 -1.000000 
0.017616 -0.025695 0.434000 0.000000 0.000000 -1.000000 
0.017616 -0.024892 0.434000 -0.000000 -0.000000 -1.000000 
0.017616 -0.024089 0.434000 -0.000000 -0.000000 -1.000000 
0.017616 -0.023286 0.434000 0.000000 0.000000 -1.000000 
0.017616 -0.022483 0.434000 -0.000000 -0.000000 -1.000000 
0.017616 -0.021680 0.434000 -0.000000 -0.000000 -1.000000 
0.017616 -0.020877 0.434000 -0.000000 -0.000000 -1.000000 
0.017616 -0.020074 0.434000 -0.075921 0.460203 -0.884562 
0.017657 -0.019315 0.435000 -0.204908 0.570760 -0.795139 
0.017657 -0.018511 0.435000 -0.163257 0.229246 -0.959580 
0.017657 -0.017706 0.435000 -0.163207 0.229386 -0.959555 
0.017657 -0.016901 0.435000 -0.204136 0.568234 -0.797144 
0.017697 -0.016133 0.436000 -0.250481 0.585172 -0.771255 
0.017697 -0.015327 0.436000 -0.321514 0.419604 -0.848859 
0.017738 -0.014553 0.437000 -0.321036 0.419223 -0.849228 
0.017738 -0.013745 0.437000 -0.248981 0.582526 -0.773739 
0.017779 -0.012966 0.438000 -0.259597 0.666553 -0.698797 
0.017779 -0.012155 0.438000 -0.259067 0.665725 -0.699782 
0.017819 -0.011371 0.439000 -0.108288 0.747922 -0.654894 
0.017860 -0.010583 0.440000 0.000000 0.784743 -0.619821 
0.017941 -0.009813 0.442000 -0.110380 0.901334 -0.418824 
0.017982 -0.009016 0.443000 -0.179001 0.800452 -0.572044 
0.018022 -0.008215 0.444000 -0.144562 0.791053 -0.594422 
0.018063 -0.007410 0.445000 0.000218 0.778334 -0.627851 
0.018103 -0.006601 0.446000 -0.147233 0.759672 -0.633420 
0.018144 -0.005789 0.447000 -0.130409 0.775750 -0.617419 
0.018185 -0.004973 0.448000 -0.208764 0.813019 -0.543524 
0.018225 -0.004154 0.449000 -0.172661 0.857076 -0.485395 
0.018306 -0.003338 0.451000 -0.216165 0.793487 -0.568904 
0.018347 -0.002509 0.452000 -0.219507 0.723684 -0.654292 
0.018428 -0.001680 0.454000 -0.059693 0.313926 -0.947569 
0.018428 -0.000840 0.454000 0.055138 0.434554 -0.898956 
0.018428 0.000000 0.454000 0.067966 0.546439 -0.834737 
0.018469 0.000842 0.455000 -0.069303 0.730129 -0.679786 
0.018509 0.001687 0.456000 -0.213893 0.760147 -0.613536 
0.018550 0.002537 0.457000 -0.240072 0.747475 -0.619392 
0.018590 0.003390 0.458000 -0.037219 0.666690 -0.744406 
0.018631 0.004246 0.459000 0.229974 0.398336 -0.887941 
0.018631 0.005095 0.459000 0.202146 0.433847 -0.878017 
0.018631 0.005945 0.459000 0.156118 0.215628 -0.963915 
0.018631 0.006794 0.459000 0.000000 0.000000 -1.000000 
0.018631 0.007643 0.459000 0.108806 -0.219673 -0.969487 
0.018631 0.008492 0.459000 0.195939 -0.533296 -0.822924 
0.018590 0.009321 0.458000 0.173242 -0.407515 -0.896615 
0.018590 0.010168 0.458000 0.173622 -0.408005 -0.896319 
0.018550 0.010992 0.457000 0.196735 -0.535490 -0.821307 
0.018550 0.011837 0.457000 0.109816 -0.220164 -0.969262 
0.018550 0.012683 0.457000 0.174554 -0.409121 -0.895629 
0.018509 0.013499 0.456000 0.197590 -0.537679 -0.819670 
0.018509 0.014342 0.456000 0.159184 -0.214086 -0.963757 
0.018509 0.015186 0.456000 -0.000000 -0.000000 -1.000000 
0.018509 0.016030 0.456000 -0.000000 -0.000000 -1.000000 
0.018509 0.016873 0.456000 -0.000000 -0.000000 -1.000000 
0.018509 0.017717 0.456000 -0.000000 -0.000000 -1.000000 
0.018509 0.018561 0.456000 -0.000000 -0.000000 -1.000000 
0.018509 0.019404 0.456000 -0.000000 -0.000000 -1.000000 
0.018509 0.020248 0.456000 -0.000000 -0.000000 -1.000000 
0.018509 0.021092 0.456000 -0.000000 -0.000000 -1.000000 
0.018509 0.021935 0.456000 -0.000000 -0.000000 -1.000000 
0.018509 0.022779 0.456000 0.066012 0.533564 -0.843180 
0.018550 0.023674 0.457000 0.066118 0.532994 -0.843532 
0.018550 0.024520 0.457000 0.099859 0.337279 -0.936094 
0.018590 0.025421 0.458000 0.272431 0.443734 -0.853746 
0.019138 -0.080104 0.451000 0.379064 -0.790375 -0.481267 
0.019096 -0.079093 0.450000 0.324089 -0.762829 -0.559516 
0.019011 -0.077913 0.448000 0.349352 -0.768173 -0.536528 
0.018969 -0.076912 0.447000 0.386825 -0.669289 -0.634365 
0.018926 -0.075915 0.446000 0.267044 -0.647901 -0.713381 
0.018884 -0.074921 0.445000 0.289368 -0.579309 -0.762015 
0.018841 -0.073932 0.444000 0.338061 -0.559132 -0.757024 
0.018841 -0.073110 0.444000 0.416632 -0.593766 -0.688374 
0.018799 -0.072126 0.443000 0.379314 -0.570530 -0.728434 
0.018756 -0.071145 0.442000 0.406231 -0.481592 -0.776560 
0.018756 -0.070327 0.442000 0.436307 -0.540751 -0.719183 
0.018714 -0.069352 0.441000 0.388205 -0.561996 -0.730381 
0.018672 -0.068381 0.440000 0.408166 -0.483979 -0.774058 
0.018672 -0.067567 0.440000 0.452524 -0.437685 -0.776951 
0.018629 -0.066601 0.439000 0.433367 -0.578755 -0.690822 
0.018587 -0.065639 0.438000 0.549062 -0.445111 -0.707394 
0.018587 -0.064829 0.438000 0.605525 -0.364521 -0.707435 
0.018544 -0.063872 0.437000 0.571507 -0.363005 -0.735940 
0.018544 -0.063064 0.437000 0.603271 -0.305182 -0.736836 
0.018544 -0.062255 0.437000 0.622249 -0.248233 -0.742420 
0.018502 -0.061306 0.436000 0.622917 -0.248412 -0.741799 
0.018502 -0.060500 0.436000 0.604851 -0.305897 -0.735243 
0.018502 -0.059693 0.436000 0.624121 -0.248239 -0.740844 
0.018459 -0.058751 0.435000 0.461347 -0.252027 -0.850671 
0.018459 -0.057946 0.435000 0.416801 -0.180002 -0.890997 
0.018459 -0.057142 0.435000 0.296638 -0.121164 -0.947273 
0.018459 -0.056337 0.435000 0.417460 -0.180146 -0.890660 
0.018459 -0.055532 0.435000 0.553392 -0.072740 -0.829738 
0.018459 -0.054727 0.435000 0.446235 -0.213318 -0.869120 
0.018417 -0.053798 0.434000 0.534605 -0.197543 -0.821690 
0.018417 -0.052995 0.434000 0.553777 -0.072304 -0.829520 
0.018417 -0.052192 0.434000 0.553848 -0.072226 -0.829479 
0.018417 -0.051389 0.434000 0.553925 -0.072123 -0.829437 
0.018417 -0.050586 0.434000 0.547930 -0.242677 -0.800550 
0.018417 -0.049784 0.434000 0.682957 -0.107828 -0.722456 
0.018417 -0.048981 0.434000 0.674575 -0.046783 -0.736722 
0.018417 -0.048178 0.434000 0.671441 -0.065712 -0.738139 
0.018417 -0.047375 0.434000 0.555218 -0.071980 -0.828584 
0.018417 -0.046572 0.434000 0.537217 -0.197700 -0.819946 
0.018375 -0.045663 0.433000 0.449696 -0.212193 -0.867610 
0.018375 -0.044862 0.433000 0.586786 0.013967 -0.809622 
0.018417 -0.044163 0.434000 0.570131 -0.003645 -0.821546 
0.018375 -0.043260 0.433000 0.583877 -0.031235 -0.811241 
0.018375 -0.042459 0.433000 0.564210 0.080235 -0.821723 
0.018417 -0.041754 0.434000 0.733300 0.206704 -0.647723 
0.018417 -0.040951 0.434000 0.752306 0.143776 -0.642934 
0.018417 -0.040148 0.434000 0.755758 0.256233 -0.602639 
0.018459 -0.039436 0.435000 0.754837 0.255493 -0.604107 
0.018459 -0.038631 0.435000 0.763831 0.000238 -0.645416 
0.018459 -0.037826 0.435000 0.763811 -0.000240 -0.645440 
0.018459 -0.037021 0.435000 0.763831 0.000238 -0.645416 
0.018459 -0.036216 0.435000 0.763831 0.000238 -0.645417 
0.018459 -0.035412 0.435000 0.763811 -0.000239 -0.645440 
0.018459 -0.034607 0.435000 0.763812 -0.000239 -0.645439 
0.018459 -0.033802 0.435000 0.763830 0.000238 -0.645417 
0.018459 -0.032997 0.435000 0.727631 -0.072421 -0.682135 
0.018459 -0.032192 0.435000 0.671990 -0.063584 -0.737826 
0.018459 -0.031388 0.435000 0.453498 -0.011446 -0.891184 
0.018459 -0.030583 0.435000 0.453519 -0.011165 -0.891177 
0.018459 -0.029778 0.435000 0.453543 -0.010797 -0.891169 
0.018459 -0.028973 0.435000 0.452855 -0.208771 -0.866797 
0.018417 -0.028104 0.434000 0.306913 -0.402345 -0.862510 
0.018417 -0.027301 0.434000 0.113397 -0.243167 -0.963333 
0.018417 -0.026498 0.434000 0.000000 -0.000000 -1.000000 
0.018417 -0.025695 0.434000 0.000000 0.000000 -1.000000 
0.018417 -0.024892 0.434000 -0.000000 -0.000000 -1.000000 
0.018417 -0.024089 0.434000 0.000000 -0.000000 -1.000000 
0.018417 -0.023286 0.434000 0.000000 0.000000 -1.000000 
0.018417 -0.022483 0.434000 -0.000000 0.000000 -1.000000 
0.018417 -0.021680 0.434000 0.000000 0.000000 -1.000000 
0.018417 -0.020877 0.434000 0.000000 0.000000 -1.000000 
0.018417 -0.020074 0.434000 -0.163703 0.229740 -0.959386 
0.018417 -0.019271 0.434000 -0.324260 0.422272 -0.846488 
0.018459 -0.018511 0.435000 -0.323779 0.421987 -0.846814 
0.018459 -0.017706 0.435000 -0.163079 0.229284 -0.959601 
0.018459 -0.016901 0.435000 -0.178350 0.438585 -0.880815 
0.018502 -0.016133 0.436000 -0.203810 0.568213 -0.797243 
0.018502 -0.015327 0.436000 -0.255266 0.445016 -0.858371 
0.018502 -0.014520 0.436000 -0.203109 0.566270 -0.798802 
0.018544 -0.013745 0.437000 -0.249317 0.583040 -0.773244 
0.018544 -0.012936 0.437000 -0.202467 0.564240 -0.800400 
0.018587 -0.012155 0.438000 -0.252951 0.717503 -0.649003 
0.018629 -0.011371 0.439000 -0.000244 0.786215 -0.617954 
0.018672 -0.010583 0.440000 -0.000095 0.784753 -0.619809 
0.018714 -0.009791 0.441000 -0.057127 0.832709 -0.550756 
0.018799 -0.009016 0.443000 -0.229696 0.780999 -0.580759 
0.018841 -0.008215 0.444000 -0.071342 0.818409 -0.570190 
0.018884 -0.007410 0.445000 -0.197568 0.763505 -0.614839 
0.018926 -0.006601 0.446000 -0.063248 0.801473 -0.594677 
0.018969 -0.005789 0.447000 0.000083 0.775445 -0.631415 
0.019011 -0.004973 0.448000 -0.106561 0.799513 -0.591121 
0.019096 -0.004163 0.450000 -0.125867 0.888587 -0.441102 
0.019138 -0.003338 0.451000 -0.097044 0.804107 -0.586511 
0.019181 -0.002509 0.452000 -0.129198 0.769471 -0.625478 
0.019223 -0.001676 0.453000 -0.063266 0.792320 -0.606817 
0.019266 -0.000840 0.454000 -0.168786 0.417429 -0.892896 
0.019266 0.000000 0.454000 -0.063939 0.549471 -0.833062 
0.019308 0.000842 0.455000 -0.057014 0.669963 -0.740202 
0.019308 0.001684 0.455000 -0.116270 0.552630 -0.825276 
0.019393 0.002537 0.457000 -0.247408 0.774579 -0.582079 
0.019435 0.003390 0.458000 -0.181663 0.645831 -0.741553 
0.019435 0.004237 0.458000 -0.135431 0.677891 -0.722580 
0.019478 0.005095 0.459000 -0.069678 0.428968 -0.900629 
0.019478 0.005945 0.459000 0.156222 0.215681 -0.963886 
0.019478 0.006794 0.459000 0.304249 0.216406 -0.927686 
0.019478 0.007643 0.459000 0.306924 -0.212745 -0.927652 
0.019478 0.008492 0.459000 0.241245 -0.546455 -0.801990 
0.019435 0.009321 0.458000 0.196119 -0.533609 -0.822678 
0.019435 0.010168 0.458000 0.246314 -0.410942 -0.877757 
0.019435 0.011016 0.458000 0.196919 -0.535191 -0.821458 
0.019393 0.011837 0.457000 0.174211 -0.408560 -0.895952 
0.019393 0.012683 0.457000 0.158765 -0.213540 -0.963947 
0.019393 0.013528 0.457000 0.307011 -0.389952 -0.868148 
0.019351 0.014342 0.456000 0.444575 -0.191437 -0.875045 
0.019351 0.015186 0.456000 0.310390 -0.212221 -0.926618 
0.019351 0.016030 0.456000 0.159357 -0.213738 -0.963806 
0.019351 0.016873 0.456000 -0.000000 -0.000000 -1.000000 
0.019351 0.017717 0.456000 -0.000000 -0.000000 -1.000000 
0.019351 0.018561 0.456000 -0.000000 -0.000000 -1.000000 
0.019351 0.019404 0.456000 -0.000000 -0.000000 -1.000000 
0.019351 0.020248 0.456000 -0.000000 -0.000000 -1.000000 
0.019351 0.021092 0.456000 -0.000000 -0.000000 -1.000000 
0.019351 0.021935 0.456000 0.107803 0.227630 -0.967762 
0.019351 0.022779 0.456000 0.189875 0.521069 -0.832127 
0.019393 0.023674 0.457000 0.232976 0.534489 -0.812431 
0.019393 0.024520 0.457000 0.237707 0.546063 -0.803313 
0.019926 -0.079093 0.450000 0.422055 -0.756040 -0.500273 
0.019882 -0.078087 0.449000 0.306816 -0.747073 -0.589700 
0.019793 -0.076912 0.447000 0.395925 -0.695386 -0.599735 
0.019749 -0.075915 0.446000 0.403569 -0.603999 -0.687254 
0.019705 -0.074921 0.445000 0.369804 -0.537386 -0.757932 
0.019705 -0.074098 0.445000 0.328517 -0.504519 -0.798459 
0.019661 -0.073110 0.444000 0.349970 -0.587742 -0.729439 
0.019616 -0.072126 0.443000 0.434807 -0.539180 -0.721268 
0.019616 -0.071306 0.443000 0.405680 -0.480853 -0.777306 
0.019572 -0.070327 0.442000 0.379716 -0.571859 -0.727182 
0.019528 -0.069352 0.441000 0.512272 -0.513655 -0.688285 
0.019528 -0.068537 0.441000 0.601871 -0.362550 -0.711554 
0.019483 -0.067567 0.440000 0.546828 -0.443063 -0.710404 
0.019483 -0.066753 0.440000 0.564398 -0.434776 -0.701730 
0.019439 -0.065789 0.439000 0.566118 -0.435563 -0.699854 
0.019439 -0.064977 0.439000 0.548350 -0.444545 -0.708302 
0.019395 -0.064019 0.438000 0.605113 -0.364622 -0.707735 
0.019395 -0.063208 0.438000 0.516993 -0.390975 -0.761483 
0.019351 -0.062255 0.437000 0.621475 -0.247780 -0.743219 
0.019351 -0.061447 0.437000 0.603567 -0.304919 -0.736703 
0.019351 -0.060638 0.437000 0.622496 -0.247818 -0.742351 
0.019306 -0.059693 0.436000 0.511920 -0.348764 -0.785049 
0.019306 -0.058886 0.436000 0.537198 -0.296487 -0.789629 
0.019306 -0.058080 0.436000 0.532160 -0.197272 -0.823341 
0.019262 -0.057142 0.435000 0.461429 -0.251856 -0.850677 
