-0.060779 -0.070994 0.362 -0.097833 -0.21094 -0.97259
-0.06229 -0.070699 0.371 -0.634 0.25103 -0.73146
-0.062458 -0.070202 0.372 -0.58254 0.18941 -0.79043
-0.062625 -0.0697 0.373 -0.48073 0.14826 -0.86425
-0.062625 -0.06901 0.373 -0.57325 0.22051 -0.78915
-0.062625 -0.06832 0.373 -0.60753 0.26266 -0.74961
-0.062793 -0.067811 0.374 -0.59285 0.23933 -0.76893
-0.062793 -0.067119 0.374 -0.5463 0.21026 -0.81077
-0.062961 -0.066605 0.375 -0.58892 0.23825 -0.77227
-0.062961 -0.065911 0.375 -0.52642 0.16746 -0.83357
-0.063129 -0.065391 0.376 -0.59754 0.23018 -0.76809
-0.060609 -0.07766 0.365 0.71953 -0.37027 -0.58751
-0.060443 -0.076773 0.364 0.57626 -0.24451 -0.77983
-0.059945 -0.073469 0.361 0.037163 -0.40681 -0.91275
-0.060111 -0.072333 0.362 -0.0030449 -0.3261 -0.94533
-0.060111 -0.071663 0.362 -0.075154 -0.28487 -0.95562
-0.060111 -0.070994 0.362 -0.036674 -0.28627 -0.95745
-0.061605 -0.070699 0.371 -0.6177 0.20807 -0.75839
-0.061605 -0.070013 0.371 -0.66489 0.27277 -0.69536
-0.061771 -0.069513 0.372 -0.59412 0.24231 -0.76701
-0.061937 -0.06901 0.373 -0.53771 0.18164 -0.82333
-0.061937 -0.06832 0.373 -0.60339 0.24276 -0.7596
-0.061937 -0.06763 0.373 -0.60719 0.25906 -0.75114
-0.062103 -0.067119 0.374 -0.57364 0.22515 -0.78755
-0.062103 -0.066427 0.374 -0.51909 0.14878 -0.84167
-0.062269 -0.065911 0.375 -0.56766 0.18849 -0.80139
-0.062435 -0.065391 0.376 -0.62026 0.24891 -0.74386
-0.062435 -0.064696 0.376 -0.56335 0.17027 -0.80848
-0.059771 -0.076773 0.364 0.6031 -0.05256 -0.79593
-0.059607 -0.075891 0.363 0.47794 0.12451 -0.86953
-0.059443 -0.074342 0.362 0.23481 0.079144 -0.96881
-0.059279 -0.073469 0.361 -0.10351 -0.16623 -0.98064
-0.059443 -0.072333 0.362 -0.037544 -0.25632 -0.96586
-0.059443 -0.071663 0.362 -0.13057 -0.23308 -0.96365
-0.059443 -0.070994 0.362 -0.075037 -0.2719 -0.9594
-0.061085 -0.069513 0.372 -0.55896 0.22455 -0.79821
-0.061085 -0.068825 0.372 -0.63393 0.27053 -0.72454
-0.061249 -0.06832 0.373 -0.58681 0.22233 -0.7786
-0.061249 -0.06763 0.373 -0.61866 0.2606 -0.74118
-0.061413 -0.067119 0.374 -0.58639 0.2299 -0.77672
-0.061413 -0.066427 0.374 -0.5684 0.19545 -0.7992
-0.061577 -0.065911 0.375 -0.59894 0.2151 -0.77136
-0.061742 -0.065391 0.376 -0.63617 0.26799 -0.72351
-0.061742 -0.064696 0.376 -0.59268 0.20658 -0.7785
-0.059587 -0.078085 0.367 0.80737 -0.46732 -0.36024
-0.059262 -0.076984 0.365 0.67543 -0.2595 -0.69025
-0.0591 -0.0761 0.364 0.55997 -0.086221 -0.82401
-0.058937 -0.075219 0.363 0.45555 0.099686 -0.88461
-0.058775 -0.074342 0.362 0.20414 0.24876 -0.94681
-0.058613 -0.073469 0.361 -0.15913 0.19272 -0.96826
-0.058937 -0.073204 0.363 0.20371 -0.28128 -0.93775
-0.058937 -0.072533 0.363 0.072924 -0.23402 -0.96949
-0.058937 -0.071861 0.363 -0.20248 -0.10783 -0.97333
-0.058937 -0.07119 0.363 -0.36845 0.012261 -0.92957
-0.058937 -0.070518 0.363 -0.39544 0.0081958 -0.91845
-0.060561 -0.06832 0.373 -0.55602 0.19262 -0.80854
-0.060561 -0.06763 0.373 -0.61632 0.24863 -0.74722
-0.060723 -0.067119 0.374 -0.58151 0.21409 -0.78486
-0.060723 -0.066427 0.374 -0.59837 0.22171 -0.76994
-0.060886 -0.065911 0.375 -0.61401 0.23295 -0.75414
-0.060886 -0.065217 0.375 -0.56969 0.18002 -0.8019
-0.061048 -0.064696 0.376 -0.6126 0.24065 -0.75286
-0.061048 -0.064 0.376 -0.54653 0.16009 -0.82199
-0.058268 -0.07119 0.363 -0.27833 -0.095544 -0.95572
-0.058268 -0.070518 0.363 -0.3573 -0.052333 -0.93252
-0.059873 -0.06832 0.373 -0.50314 0.20805 -0.83879
-0.059873 -0.06763 0.373 -0.59782 0.25546 -0.75984
-0.060033 -0.067119 0.374 -0.56357 0.22683 -0.79432
-0.060033 -0.066427 0.374 -0.61576 0.25596 -0.7452
-0.060194 -0.065911 0.375 -0.6167 0.25135 -0.74599
-0.060194 -0.065217 0.375 -0.59889 0.22047 -0.76989
-0.060354 -0.064696 0.376 -0.62427 0.26484 -0.73494
-0.060354 -0.064 0.376 -0.57656 0.19476 -0.79351
-0.060515 -0.063473 0.377 -0.6037 0.2682 -0.75075
-0.060515 -0.062775 0.377 -0.52628 0.2048 -0.82528
-0.057598 -0.07119 0.363 -0.20663 -0.18775 -0.96024
-0.057598 -0.070518 0.363 -0.31677 -0.118 -0.94113
-0.059026 -0.068137 0.372 -0.6176 0.27879 -0.73542
-0.059185 -0.06763 0.373 -0.5701 0.22757 -0.78943
-0.059185 -0.06694 0.373 -0.63191 0.2762 -0.72416
-0.059343 -0.066427 0.374 -0.60877 0.24056 -0.75599
-0.059502 -0.065911 0.375 -0.60168 0.21607 -0.76895
-0.059502 -0.065217 0.375 -0.61131 0.23057 -0.75706
-0.059661 -0.064696 0.376 -0.6263 0.2623 -0.73413
-0.059661 -0.064 0.376 -0.59711 0.22293 -0.77056
-0.059819 -0.063473 0.377 -0.62059 0.28645 -0.72994
-0.059819 -0.062775 0.377 -0.5539 0.23383 -0.79908
-0.059819 -0.062078 0.377 -0.47512 0.11689 -0.87212
-0.060137 -0.058901 0.379 -0.45567 0.094052 -0.88517
-0.057242 -0.070907 0.365 0.027215 -0.48287 -0.87527
-0.058339 -0.068137 0.372 -0.59279 0.25543 -0.76378
-0.058496 -0.06694 0.373 -0.62032 0.25117 -0.74305
-0.058653 -0.066427 0.374 -0.59716 0.20145 -0.77641
-0.058653 -0.065735 0.374 -0.62493 0.26311 -0.73501
-0.05881 -0.065217 0.375 -0.60754 0.21963 -0.76332
-0.05881 -0.064524 0.375 -0.60096 0.23333 -0.76446
-0.058967 -0.064 0.376 -0.60387 0.24422 -0.75875
-0.059124 -0.063473 0.377 -0.62419 0.2983 -0.72208
-0.059124 -0.062775 0.377 -0.5686 0.26797 -0.77774
-0.059124 -0.062078 0.377 -0.49408 0.14792 -0.85674
-0.05928 -0.061543 0.378 -0.51353 0.27234 -0.81371
-0.05928 -0.058746 0.378 -0.36279 -0.15855 -0.91828
-0.059437 -0.0582 0.379 -0.41265 0.047331 -0.90966
-0.056103 -0.071663 0.362 -0.49759 0.14394 -0.85539
-0.056258 -0.070518 0.363 -0.37215 -0.062785 -0.92605
-0.056258 -0.069846 0.363 -0.35602 -0.077408 -0.93127
-0.056258 -0.069175 0.363 -0.17119 -0.23316 -0.95725
-0.056413 -0.068692 0.364 -0.40168 -0.085148 -0.91181
-0.056413 -0.068019 0.364 -0.30517 -0.17767 -0.93558
-0.057653 -0.068137 0.372 -0.56592 0.23923 -0.78899
-0.057653 -0.067449 0.372 -0.65414 0.26773 -0.7074
-0.057653 -0.06676 0.372 -0.70292 0.30262 -0.64368
-0.057963 -0.066427 0.374 -0.57045 0.17517 -0.80243
-0.057963 -0.065735 0.374 -0.61865 0.23812 -0.74871
-0.058118 -0.065217 0.375 -0.59091 0.19461 -0.78291
-0.058118 -0.064524 0.375 -0.59965 0.22987 -0.76654
-0.058273 -0.064 0.376 -0.59626 0.23372 -0.76801
-0.058273 -0.063304 0.376 -0.56701 0.20621 -0.79748
-0.058428 -0.062775 0.377 -0.57337 0.27111 -0.77314
-0.058428 -0.062078 0.377 -0.5165 0.17865 -0.83745
-0.058428 -0.06138 0.377 -0.46848 0.074699 -0.88031
-0.058583 -0.060844 0.378 -0.49462 0.19537 -0.84687
-0.058583 -0.059445 0.378 -0.42353 -0.028231 -0.90544
-0.058583 -0.058746 0.378 -0.37624 -0.14611 -0.91493
-0.055435 -0.070994 0.362 -0.60109 0.14264 -0.78635
-0.055589 -0.069846 0.363 -0.42437 -0.037414 -0.90471
-0.055589 -0.069175 0.363 -0.25361 -0.19044 -0.94838
-0.055742 -0.068692 0.364 -0.33087 -0.13415 -0.93409
-0.055589 -0.067832 0.363 0.11286 -0.45148 -0.88512
-0.055895 -0.066855 0.365 -0.44224 -0.15133 -0.88404
-0.056967 -0.06676 0.372 -0.70622 0.25303 -0.66123
-0.05712 -0.06625 0.373 -0.65516 0.2398 -0.71642
-0.057273 -0.065735 0.374 -0.60418 0.20146 -0.77096
-0.057273 -0.065043 0.374 -0.61798 0.25067 -0.74516
-0.057426 -0.064524 0.375 -0.59236 0.20053 -0.78032
-0.057579 -0.064 0.376 -0.58277 0.19622 -0.78859
-0.057579 -0.063304 0.376 -0.57157 0.19958 -0.79591
-0.057579 -0.062609 0.376 -0.53298 0.16893 -0.82909
-0.057732 -0.062078 0.377 -0.52489 0.18186 -0.83151
-0.057732 -0.06138 0.377 -0.49149 0.12225 -0.86226
-0.057886 -0.060844 0.378 -0.50172 0.19796 -0.84208
-0.057886 -0.060144 0.378 -0.47183 0.13091 -0.87192
-0.057886 -0.059445 0.378 -0.42596 0.019534 -0.90453
-0.058039 -0.058901 0.379 -0.46671 0.19051 -0.86365
-0.058039 -0.0582 0.379 -0.41298 0.098353 -0.90542
-0.058039 -0.057499 0.379 -0.34359 0.018538 -0.93894
-0.05507 -0.070039 0.364 -0.18604 -0.20058 -0.96185
-0.05507 -0.069365 0.364 -0.29525 -0.15656 -0.9425
-0.05507 -0.068692 0.364 -0.32846 -0.16424 -0.93013
-0.05507 -0.068019 0.364 -0.21478 -0.23284 -0.9485
-0.055221 -0.066855 0.365 -0.4112 -0.1606 -0.89729
-0.055978 -0.067086 0.37 -0.8244 0.32004 -0.46684
-0.056129 -0.066581 0.371 -0.7941 0.29422 -0.53183
-0.056432 -0.06625 0.373 -0.6482 0.20864 -0.73232
-0.056432 -0.06556 0.373 -0.67647 0.24765 -0.69358
-0.056583 -0.065043 0.374 -0.62179 0.2138 -0.75344
-0.056734 -0.064524 0.375 -0.58498 0.17048 -0.79293
-0.056734 -0.06383 0.375 -0.59457 0.19586 -0.77983
-0.056886 -0.063304 0.376 -0.57222 0.18403 -0.79918
-0.056886 -0.062609 0.376 -0.54537 0.16756 -0.82127
-0.057037 -0.062078 0.377 -0.52372 0.16995 -0.83477
-0.057037 -0.06138 0.377 -0.50355 0.13548 -0.85328
-0.057188 -0.060844 0.378 -0.5008 0.17899 -0.84685
-0.057188 -0.060144 0.378 -0.47869 0.14102 -0.86658
-0.057188 -0.059445 0.378 -0.43321 0.058227 -0.89941
-0.057339 -0.058901 0.379 -0.47539 0.19068 -0.85886
-0.057339 -0.0582 0.379 -0.40771 0.12675 -0.90427
-0.057491 -0.05765 0.38 -0.49074 0.26119 -0.83124
-0.057491 -0.056947 0.38 -0.46271 0.18238 -0.86755
-0.054399 -0.070039 0.364 -0.21535 -0.21523 -0.95252
-0.054548 -0.06753 0.365 -0.40913 -0.10323 -0.90662
-0.054548 -0.066855 0.365 -0.37701 -0.1821 -0.90813
-0.055744 -0.06556 0.373 -0.67939 0.21659 -0.70109
-0.055893 -0.065043 0.374 -0.62193 0.17389 -0.76352
-0.056192 -0.062609 0.376 -0.55562 0.1499 -0.81781
-0.056341 -0.062078 0.377 -0.51828 0.13715 -0.84414
-0.056341 -0.06138 0.377 -0.50667 0.12676 -0.85277
-0.056491 -0.060844 0.378 -0.48839 0.14647 -0.86025
-0.056491 -0.060144 0.378 -0.47766 0.13158 -0.86863
-0.056491 -0.059445 0.378 -0.43873 0.084198 -0.89466
-0.05664 -0.058901 0.379 -0.47474 0.18511 -0.86044
-0.05664 -0.0582 0.379 -0.40362 0.14828 -0.90283
-0.05679 -0.05765 0.38 -0.48135 0.28306 -0.82957
-0.05664 -0.056797 0.379 -0.23953 0.045583 -0.96982
-0.053875 -0.06753 0.365 -0.36638 -0.1515 -0.91805
-0.055055 -0.06556 0.373 -0.67601 0.17813 -0.71504
-0.055498 -0.062609 0.376 -0.56087 0.12314 -0.81869
-0.055498 -0.061913 0.376 -0.54375 0.1231 -0.83017
-0.055646 -0.06138 0.377 -0.50587 0.1108 -0.85546
-0.055646 -0.060683 0.377 -0.49789 0.10372 -0.86101
-0.055793 -0.060144 0.378 -0.47448 0.11852 -0.87225
-0.055793 -0.059445 0.378 -0.44233 0.098135 -0.89147
-0.055941 -0.058901 0.379 -0.47045 0.17607 -0.86468
-0.055941 -0.0582 0.379 -0.40603 0.15601 -0.90045
-0.055941 -0.057499 0.379 -0.34029 0.1359 -0.93045
-0.055941 -0.056797 0.379 -0.2579 0.080895 -0.96278
-0.055941 -0.056096 0.379 -0.17885 0.045439 -0.98283
-0.053055 -0.070039 0.364 -0.31185 -0.22328 -0.92352
-0.053055 -0.069365 0.364 -0.39113 -0.18031 -0.9025
-0.053055 -0.068692 0.364 -0.42921 -0.12801 -0.89409
-0.053201 -0.068205 0.365 -0.39542 -0.22339 -0.89092
-0.053201 -0.066855 0.365 -0.29229 -0.19089 -0.93708
-0.053493 -0.065863 0.367 -0.66898 0.0020116 -0.74328
-0.054367 -0.06625 0.373 -0.59329 0.074233 -0.80156
-0.054513 -0.065043 0.374 -0.60237 0.087327 -0.79342
-0.054513 -0.064352 0.374 -0.65081 0.13149 -0.74777
-0.054659 -0.06383 0.375 -0.59355 0.094733 -0.7992
-0.054659 -0.063136 0.375 -0.60412 0.14339 -0.78389
-0.054804 -0.061913 0.376 -0.55566 0.11344 -0.82364
-0.05495 -0.06138 0.377 -0.51335 0.10854 -0.85129
-0.05495 -0.060683 0.377 -0.51279 0.10658 -0.85187
-0.055096 -0.060144 0.378 -0.47819 0.10621 -0.87181
-0.055096 -0.059445 0.378 -0.44765 0.1025 -0.88831
-0.055242 -0.058901 0.379 -0.46539 0.16343 -0.86989
-0.055242 -0.0582 0.379 -0.4056 0.15637 -0.90058
-0.055242 -0.057499 0.379 -0.34707 0.15516 -0.92491
-0.055387 -0.056947 0.38 -0.46361 0.25036 -0.84993
-0.055387 -0.056244 0.38 -0.43989 0.2178 -0.87124
-0.052528 -0.069556 0.365 -0.0064924 -0.22821 -0.97359
-0.052528 -0.068881 0.365 -0.19518 -0.19706 -0.96077
-0.052528 -0.068205 0.365 -0.33446 -0.15915 -0.92887
-0.052528 -0.066855 0.365 -0.25326 -0.14122 -0.95703
-0.052528 -0.065504 0.365 -0.12808 -0.11469 -0.98511
-0.053679 -0.06625 0.373 -0.56288 0.037535 -0.82569
-0.053823 -0.065043 0.374 -0.58147 0.047202 -0.81219
-0.053823 -0.064352 0.374 -0.64679 0.097399 -0.75642
-0.053967 -0.06383 0.375 -0.5825 0.070118 -0.8098
-0.053967 -0.063136 0.375 -0.60636 0.11936 -0.78618
-0.054111 -0.061913 0.376 -0.56575 0.10871 -0.81738
-0.054255 -0.06138 0.377 -0.51631 0.11252 -0.84898
-0.054255 -0.060683 0.377 -0.52161 0.11116 -0.84591
-0.054399 -0.060144 0.378 -0.47565 0.10249 -0.87364
-0.054399 -0.059445 0.378 -0.45143 0.10737 -0.88582
-0.054399 -0.058746 0.378 -0.40751 0.11254 -0.90624
-0.054542 -0.0582 0.379 -0.39992 0.1582 -0.90279
-0.054542 -0.057499 0.379 -0.34623 0.16155 -0.92414
-0.054542 -0.056797 0.379 -0.28175 0.13148 -0.95044
-0.054542 -0.056096 0.379 -0.19355 0.099062 -0.97608
-0.054542 -0.055395 0.379 -0.085605 0.095913 -0.9917
-0.054686 -0.054838 0.38 -0.32713 0.19272 -0.92512
-0.051854 -0.069556 0.365 -0.029896 -0.13875 -0.98988
-0.051712 -0.068692 0.364 -0.45735 -0.090832 -0.88464
-0.051854 -0.068205 0.365 -0.25765 -0.10303 -0.96073
-0.051854 -0.06753 0.365 -0.25628 -0.1113 -0.96017
-0.051854 -0.066855 0.365 -0.18494 -0.12792 -0.97439
-0.052991 -0.06556 0.373 -0.64011 0.059972 -0.76594
-0.053133 -0.065043 0.374 -0.55389 0.026965 -0.83215
-0.053133 -0.064352 0.374 -0.63701 0.076682 -0.76703
-0.053275 -0.06383 0.375 -0.564 0.06172 -0.82346
-0.053275 -0.063136 0.375 -0.60325 0.10334 -0.79083
-0.053417 -0.062609 0.376 -0.55619 0.077866 -0.8274
-0.053417 -0.061913 0.376 -0.56678 0.099656 -0.81782
-0.053559 -0.06138 0.377 -0.51763 0.11597 -0.84771
-0.053559 -0.060683 0.377 -0.52824 0.11049 -0.84188
-0.053701 -0.060144 0.378 -0.47588 0.1069 -0.87299
-0.053701 -0.059445 0.378 -0.45311 0.11019 -0.88462
-0.053701 -0.058746 0.378 -0.41474 0.11457 -0.9027
-0.053843 -0.0582 0.379 -0.3924 0.15394 -0.90682
-0.053843 -0.057499 0.379 -0.34122 0.15787 -0.92663
-0.053843 -0.056797 0.379 -0.28836 0.13811 -0.94751
-0.053843 -0.056096 0.379 -0.20489 0.10735 -0.97288
-0.053843 -0.054694 0.379 -0.019057 0.084773 -0.99622
-0.051181 -0.06753 0.365 -0.23448 -0.1126 -0.96558
-0.052443 -0.065043 0.374 -0.51337 0.037739 -0.85734
-0.052723 -0.062609 0.376 -0.5433 0.063046 -0.83717
-0.052723 -0.061913 0.376 -0.56584 0.084548 -0.82017
-0.052863 -0.06138 0.377 -0.50884 0.10357 -0.85461
-0.052863 -0.060683 0.377 -0.52363 0.095233 -0.8466
-0.053004 -0.060144 0.378 -0.4679 0.089405 -0.87925
-0.053004 -0.059445 0.378 -0.44671 0.090867 -0.89005
-0.053004 -0.058746 0.378 -0.41631 0.096101 -0.90413
-0.053004 -0.058046 0.378 -0.34377 0.092324 -0.9345
-0.053144 -0.057499 0.379 -0.33452 0.13005 -0.93337
-0.053144 -0.056797 0.379 -0.28822 0.12389 -0.94952
-0.053144 -0.056096 0.379 -0.2157 0.093002 -0.97202
-0.053144 -0.055395 0.379 -0.13583 0.089629 -0.98667
-0.053144 -0.054694 0.379 -0.049525 0.067724 -0.99647
-0.053144 -0.053993 0.379 0.035296 0.041807 -0.9985
-0.05203 -0.062609 0.376 -0.52198 0.044211 -0.85181
-0.05203 -0.061913 0.376 -0.55666 0.071545 -0.82766
-0.052168 -0.06138 0.377 -0.50113 0.076149 -0.86201
-0.052168 -0.060683 0.377 -0.51148 0.081183 -0.85545
-0.052168 -0.059985 0.377 -0.50129 0.073955 -0.86212
-0.052306 -0.059445 0.378 -0.44178 0.080236 -0.89353
-0.052306 -0.058746 0.378 -0.41969 0.085198 -0.90366
-0.052306 -0.058046 0.378 -0.35442 0.090472 -0.9307
-0.052445 -0.057499 0.379 -0.33183 0.11338 -0.9365
-0.052445 -0.056797 0.379 -0.2985 0.11805 -0.94708
-0.052445 -0.056096 0.379 -0.23931 0.093524 -0.96643
-0.052445 -0.055395 0.379 -0.1658 0.083906 -0.98258
-0.052445 -0.054694 0.379 -0.080115 0.068925 -0.9944
-0.052445 -0.053993 0.379 0.008978 0.044232 -0.99898
-0.049834 -0.069556 0.365 -0.1504 -0.17857 -0.97237
-0.049834 -0.068881 0.365 -0.24865 -0.13186 -0.95958
-0.049834 -0.068205 0.365 -0.26708 -0.11684 -0.95656
-0.051063 -0.064352 0.374 -0.5903 0.080913 -0.80312
-0.051063 -0.06366 0.374 -0.65025 0.10933 -0.75181
-0.051199 -0.063136 0.375 -0.57275 0.084418 -0.81537
-0.051336 -0.061913 0.376 -0.54943 0.07939 -0.83176
-0.051472 -0.06138 0.377 -0.50229 0.078601 -0.86112
-0.051472 -0.060683 0.377 -0.5089 0.093087 -0.85578
-0.051472 -0.059985 0.377 -0.50161 0.087849 -0.86062
-0.051609 -0.059445 0.378 -0.44021 0.091455 -0.89322
-0.051609 -0.058746 0.378 -0.4223 0.092172 -0.90176
-0.051609 -0.058046 0.378 -0.36497 0.098011 -0.92585
-0.051745 -0.057499 0.379 -0.33172 0.11106 -0.93682
-0.051745 -0.056797 0.379 -0.30674 0.11193 -0.94519
-0.051745 -0.056096 0.379 -0.25737 0.093765 -0.96175
-0.051745 -0.055395 0.379 -0.18812 0.080936 -0.9788
-0.051745 -0.054694 0.379 -0.10044 0.076425 -0.992
-0.051745 -0.053993 0.379 -0.003293 0.059335 -0.99823
-0.049161 -0.069556 0.365 -0.20934 -0.17427 -0.96219
-0.049161 -0.068881 0.365 -0.25332 -0.17524 -0.95138
-0.049161 -0.068205 0.365 -0.25986 -0.17942 -0.94883
-0.049161 -0.066855 0.365 -0.080067 -0.25442 -0.96377
-0.049161 -0.066179 0.365 0.024627 -0.28022 -0.95962
-0.049295 -0.065684 0.366 -0.22152 -0.17061 -0.96012
-0.050373 -0.064352 0.374 -0.57923 0.07999 -0.81123
-0.050373 -0.06366 0.374 -0.6431 0.10159 -0.75901
-0.050507 -0.063136 0.375 -0.55897 0.086854 -0.82463
-0.050642 -0.061913 0.376 -0.53651 0.082532 -0.83985
-0.050642 -0.061217 0.376 -0.54811 0.09213 -0.83131
-0.050777 -0.060683 0.377 -0.50279 0.10004 -0.8586
-0.050777 -0.059985 0.377 -0.49548 0.089588 -0.86399
-0.050911 -0.059445 0.378 -0.43402 0.077542 -0.89756
-0.050911 -0.058746 0.378 -0.42 0.075643 -0.90437
-0.050911 -0.058046 0.378 -0.36859 0.083085 -0.92587
-0.051046 -0.057499 0.379 -0.3287 0.080358 -0.94101
-0.051046 -0.056797 0.379 -0.31239 0.077944 -0.94675
-0.051046 -0.056096 0.379 -0.27481 0.066304 -0.95921
-0.051046 -0.055395 0.379 -0.21514 0.051229 -0.97524
-0.051046 -0.054694 0.379 -0.13223 0.056019 -0.98963
-0.051046 -0.053993 0.379 -0.033913 0.042234 -0.99853
-0.048487 -0.069556 0.365 -0.23473 -0.18443 -0.9544
-0.048487 -0.068881 0.365 -0.29756 -0.1835 -0.9369
-0.048487 -0.068205 0.365 -0.30627 -0.19998 -0.9307
-0.04862 -0.067715 0.366 -0.13494 -0.15809 -0.97816
-0.04862 -0.067038 0.366 -0.1907 -0.15196 -0.96982
-0.04862 -0.066361 0.366 -0.22675 -0.17024 -0.95896
-0.04862 -0.065684 0.366 -0.2161 -0.20359 -0.95491
-0.04862 -0.065006 0.366 -0.17798 -0.21895 -0.95937
-0.04862 -0.063652 0.366 -0.13354 -0.28642 -0.94875
-0.049683 -0.064352 0.374 -0.5649 0.085991 -0.82067
-0.049683 -0.06366 0.374 -0.63702 0.099047 -0.76446
-0.049815 -0.063136 0.375 -0.54275 0.092596 -0.83477
-0.049815 -0.062442 0.375 -0.59673 0.10561 -0.79546
-0.049948 -0.061913 0.376 -0.52265 0.098289 -0.84686
-0.049948 -0.061217 0.376 -0.53854 0.097749 -0.83691
-0.050081 -0.060683 0.377 -0.49523 0.11183 -0.86154
-0.050081 -0.059985 0.377 -0.49181 0.09966 -0.86498
-0.050214 -0.059445 0.378 -0.44584 0.086314 -0.89094
-0.050214 -0.058746 0.378 -0.43114 0.086415 -0.89814
-0.050214 -0.058046 0.378 -0.37742 0.084095 -0.92222
-0.050347 -0.057499 0.379 -0.34242 0.063938 -0.93737
-0.050347 -0.056797 0.379 -0.3281 0.06043 -0.94271
-0.050347 -0.056096 0.379 -0.29354 0.058491 -0.95415
-0.050347 -0.055395 0.379 -0.2364 0.045591 -0.97059
-0.050347 -0.054694 0.379 -0.15306 0.045196 -0.98718
-0.050347 -0.053993 0.379 -0.050002 0.040312 -0.99794
-0.047945 -0.067715 0.366 -0.13191 -0.17065 -0.97646
-0.047945 -0.067038 0.366 -0.179 -0.18877 -0.96557
-0.047945 -0.064329 0.366 -0.1659 -0.34496 -0.92384
-0.047945 -0.063652 0.366 -0.15807 -0.40238 -0.90172
-0.049255 -0.062609 0.376 -0.42681 0.12014 -0.89632
-0.049255 -0.061913 0.376 -0.51227 0.10626 -0.85222
-0.049255 -0.061217 0.376 -0.537 0.094755 -0.83825
-0.049386 -0.060683 0.377 -0.49036 0.11138 -0.86438
-0.049386 -0.059985 0.377 -0.49054 0.1056 -0.86499
-0.049517 -0.059445 0.378 -0.44835 0.084191 -0.88988
-0.049517 -0.058746 0.378 -0.43756 0.07911 -0.8957
-0.049517 -0.058046 0.378 -0.38703 0.078585 -0.91871
-0.049648 -0.057499 0.379 -0.3599 0.031323 -0.93246
-0.049648 -0.056797 0.379 -0.34617 0.03018 -0.93769
-0.049648 -0.056096 0.379 -0.31117 0.043644 -0.94935
-0.049648 -0.055395 0.379 -0.25384 0.039449 -0.96644
-0.049648 -0.053993 0.379 -0.07733 0.064389 -0.99492
-0.049648 -0.053291 0.379 -0.016732 0.021831 -0.99962
-0.047269 -0.067715 0.366 -0.14268 -0.21525 -0.96608
-0.047269 -0.064329 0.366 -0.16331 -0.38654 -0.9077
-0.048561 -0.062609 0.376 -0.40367 0.10441 -0.90893
-0.048561 -0.061913 0.376 -0.50675 0.094362 -0.85691
-0.048561 -0.061217 0.376 -0.5392 0.086497 -0.83772
-0.04869 -0.060683 0.377 -0.49647 0.099728 -0.8623
-0.04869 -0.059985 0.377 -0.49733 0.10092 -0.86167
-0.04869 -0.059288 0.377 -0.46753 0.09647 -0.8787
-0.048819 -0.058746 0.378 -0.45342 0.068789 -0.88864
-0.048819 -0.058046 0.378 -0.40162 0.069774 -0.91314
-0.048819 -0.057347 0.378 -0.32777 0.085254 -0.9409
-0.048948 -0.056797 0.379 -0.37234 0.0050162 -0.92808
-0.048948 -0.056096 0.379 -0.32852 0.035746 -0.94382
-0.048948 -0.055395 0.379 -0.26359 0.039445 -0.96383
-0.048948 -0.054694 0.379 -0.19721 0.061077 -0.97846
-0.048948 -0.053993 0.379 -0.10125 0.081255 -0.99154
-0.046594 -0.069069 0.366 -0.062767 -0.22999 -0.97117
-0.046594 -0.068392 0.366 -0.11744 -0.22164 -0.96803
-0.046594 -0.067038 0.366 -0.20473 -0.25446 -0.94517
-0.046594 -0.066361 0.366 -0.19589 -0.28181 -0.93926
-0.046594 -0.065684 0.366 -0.18768 -0.33453 -0.92351
-0.046594 -0.065006 0.366 -0.1629 -0.3612 -0.91815
-0.046721 -0.063826 0.367 -0.32587 -0.26618 -0.90717
-0.047613 -0.064352 0.374 -0.49267 0.11127 -0.86307
-0.047613 -0.06366 0.374 -0.59238 0.12432 -0.79601
-0.047613 -0.062968 0.374 -0.66567 0.10966 -0.73814
-0.047867 -0.061913 0.376 -0.5001 0.083598 -0.86192
-0.047867 -0.061217 0.376 -0.53922 0.082753 -0.83809
-0.047867 -0.060522 0.376 -0.54344 0.090744 -0.83453
-0.047994 -0.059985 0.377 -0.50288 0.098898 -0.85868
-0.047994 -0.059288 0.377 -0.4708 0.096982 -0.87689
-0.048122 -0.058746 0.378 -0.46894 0.062819 -0.88099
-0.048122 -0.058046 0.378 -0.41573 0.065787 -0.90711
-0.048122 -0.057347 0.378 -0.33397 0.09413 -0.93787
-0.048249 -0.056797 0.379 -0.39628 -0.00752 -0.9181
-0.048249 -0.056096 0.379 -0.3529 0.031558 -0.93513
-0.048249 -0.055395 0.379 -0.2833 0.046057 -0.95792
-0.048249 -0.054694 0.379 -0.21317 0.066397 -0.97476
-0.048249 -0.053993 0.379 -0.12744 0.094641 -0.98732
-0.045919 -0.069069 0.366 -0.11965 -0.22382 -0.96726
-0.045919 -0.068392 0.366 -0.1732 -0.22386 -0.95911
-0.045919 -0.067038 0.366 -0.24279 -0.25813 -0.93511
-0.046044 -0.066542 0.367 -0.22242 -0.20385 -0.9534
-0.046044 -0.065863 0.367 -0.29731 -0.20401 -0.93273
-0.046044 -0.065184 0.367 -0.34057 -0.23083 -0.91144
-0.046923 -0.065043 0.374 -0.30081 0.19228 -0.9341
-0.046923 -0.06366 0.374 -0.56826 0.15131 -0.80882
-0.046923 -0.062968 0.374 -0.65837 0.12901 -0.74156
-0.047173 -0.061913 0.376 -0.48206 0.082686 -0.87223
-0.047173 -0.061217 0.376 -0.53587 0.08337 -0.84018
-0.047173 -0.060522 0.376 -0.54337 0.092091 -0.83443
-0.047299 -0.059985 0.377 -0.50933 0.09226 -0.85561
-0.047299 -0.059288 0.377 -0.47717 0.097732 -0.87336
-0.047424 -0.058746 0.378 -0.48933 0.044956 -0.87094
-0.047424 -0.058046 0.378 -0.434 0.052215 -0.8994
-0.047424 -0.057347 0.378 -0.34353 0.095613 -0.93426
-0.04755 -0.056797 0.379 -0.42162 -0.028012 -0.90634
-0.04755 -0.056096 0.379 -0.37759 0.019311 -0.92577
-0.04755 -0.054694 0.379 -0.22771 0.063888 -0.97163
-0.04755 -0.053993 0.379 -0.15191 0.098644 -0.98346
-0.045244 -0.069069 0.366 -0.19225 -0.1989 -0.96098
-0.045244 -0.068392 0.366 -0.2431 -0.20553 -0.94798
-0.045244 -0.067715 0.366 -0.28984 -0.22616 -0.92997
-0.04512 -0.066855 0.365 -0.45463 -0.25898 -0.8522
-0.045367 -0.066542 0.367 -0.21808 -0.22646 -0.94929
-0.045367 -0.065863 0.367 -0.28431 -0.22988 -0.93077
-0.045367 -0.065184 0.367 -0.31721 -0.256 -0.91315
-0.045367 -0.064505 0.367 -0.30262 -0.28821 -0.90849
-0.045367 -0.063826 0.367 -0.25068 -0.34087 -0.90607
-0.045491 -0.063319 0.368 -0.41846 -0.24826 -0.87365
-0.046232 -0.06366 0.374 -0.5394 0.18971 -0.8204
-0.046356 -0.063136 0.375 -0.45738 0.097448 -0.88392
-0.046356 -0.062442 0.375 -0.5536 0.10819 -0.82572
-0.046356 -0.061748 0.375 -0.60691 0.12117 -0.78548
-0.04648 -0.061217 0.376 -0.52957 0.07826 -0.84465
-0.04648 -0.060522 0.376 -0.5417 0.088899 -0.83586
-0.046603 -0.059985 0.377 -0.51224 0.077111 -0.85537
-0.046603 -0.059288 0.377 -0.47949 0.091628 -0.87275
-0.046603 -0.05859 0.377 -0.4164 0.11836 -0.90144
-0.046727 -0.058046 0.378 -0.44874 0.040148 -0.89276
-0.046727 -0.057347 0.378 -0.3582 0.086167 -0.92966
-0.046851 -0.056797 0.379 -0.44759 -0.047956 -0.89295
-0.046851 -0.055395 0.379 -0.32232 0.040777 -0.94575
-0.04469 -0.069258 0.367 0.16011 -0.19737 -0.96717
-0.044568 -0.068392 0.366 -0.28659 -0.18884 -0.93926
-0.044568 -0.067715 0.366 -0.331 -0.221 -0.91739
-0.044568 -0.067038 0.366 -0.35295 -0.25761 -0.89948
-0.04469 -0.066542 0.367 -0.23881 -0.22132 -0.94551
-0.04469 -0.065863 0.367 -0.29452 -0.23336 -0.92672
-0.04469 -0.065184 0.367 -0.32618 -0.27639 -0.904
-0.04469 -0.064505 0.367 -0.31315 -0.3222 -0.89338
-0.044812 -0.064 0.368 -0.46404 -0.19559 -0.86395
-0.044812 -0.063319 0.368 -0.39293 -0.26591 -0.88028
-0.045055 -0.062979 0.37 -0.72001 0.051285 -0.69207
-0.045542 -0.062968 0.374 -0.63803 0.19801 -0.74412
-0.045664 -0.061748 0.375 -0.60411 0.1038 -0.79011
-0.045786 -0.061217 0.376 -0.51891 0.063034 -0.8525
-0.045786 -0.060522 0.376 -0.53812 0.06964 -0.83998
-0.045908 -0.059985 0.377 -0.50817 0.055529 -0.85946
-0.045908 -0.059288 0.377 -0.47775 0.074153 -0.87536
-0.04603 -0.058746 0.378 -0.5226 0.0072658 -0.85255
-0.04603 -0.058046 0.378 -0.46575 0.024879 -0.88457
-0.04603 -0.057347 0.378 -0.37832 0.065087 -0.92338
-0.04603 -0.056648 0.378 -0.25899 0.1149 -0.95902
-0.044013 -0.069258 0.367 0.11357 -0.21977 -0.96892
-0.044013 -0.068579 0.367 0.036543 -0.22829 -0.97291
-0.043893 -0.067715 0.366 -0.38219 -0.17803 -0.90677
-0.043893 -0.067038 0.366 -0.41416 -0.19889 -0.88821
-0.044013 -0.066542 0.367 -0.2701 -0.21729 -0.93799
-0.044013 -0.065863 0.367 -0.31147 -0.21892 -0.92469
-0.044013 -0.065184 0.367 -0.33524 -0.26945 -0.90278
-0.044133 -0.064681 0.368 -0.45072 -0.15341 -0.87939
-0.044133 -0.064 0.368 -0.43866 -0.20323 -0.87537
-0.044133 -0.063319 0.368 -0.36155 -0.25302 -0.89736
-0.044253 -0.062809 0.369 -0.53578 -0.15362 -0.83026
-0.044852 -0.062968 0.374 -0.62323 0.22563 -0.74879
-0.044972 -0.062442 0.375 -0.53409 0.045554 -0.8442
-0.044972 -0.061748 0.375 -0.5971 0.086996 -0.79744
-0.045092 -0.061217 0.376 -0.51217 0.031373 -0.85831
-0.045092 -0.060522 0.376 -0.53633 0.04457 -0.84283
-0.045212 -0.059985 0.377 -0.50941 0.020737 -0.86027
-0.045212 -0.059288 0.377 -0.48698 0.046023 -0.8722
-0.045332 -0.058746 0.378 -0.53865 -0.013732 -0.84242
-0.045332 -0.058046 0.378 -0.47973 0.0003539 -0.87742
-0.045332 -0.057347 0.378 -0.39999 0.03529 -0.91584
-0.043336 -0.068579 0.367 -0.026881 -0.24808 -0.96837
-0.043336 -0.0679 0.367 -0.12049 -0.23555 -0.96436
-0.043218 -0.067038 0.366 -0.46985 -0.13555 -0.87228
-0.043336 -0.066542 0.367 -0.29793 -0.20787 -0.93168
-0.043336 -0.065863 0.367 -0.32882 -0.19393 -0.92427
-0.043336 -0.065184 0.367 -0.34676 -0.24013 -0.9067
-0.043572 -0.064857 0.369 -0.51793 -0.060847 -0.85325
-0.043454 -0.064 0.368 -0.4101 -0.22451 -0.88398
-0.043454 -0.063319 0.368 -0.33118 -0.26342 -0.90605
-0.043454 -0.062638 0.368 -0.23718 -0.32757 -0.91457
-0.044162 -0.062968 0.374 -0.6009 0.25012 -0.75919
-0.04428 -0.062442 0.375 -0.52288 0.045432 -0.8512
-0.04428 -0.061748 0.375 -0.59299 0.09327 -0.79979
-0.044399 -0.061217 0.376 -0.50876 0.039409 -0.86
-0.044399 -0.060522 0.376 -0.54543 0.058197 -0.83614
-0.044517 -0.059985 0.377 -0.51206 0.006802 -0.85892
-0.044517 -0.059288 0.377 -0.49964 0.037364 -0.86543
-0.044517 -0.05859 0.377 -0.42711 0.063087 -0.90199
-0.044635 -0.058046 0.378 -0.50031 0.0074077 -0.86581
-0.044635 -0.057347 0.378 -0.41742 0.030122 -0.90822
-0.042659 -0.068579 0.367 -0.094243 -0.23088 -0.96841
-0.042659 -0.0679 0.367 -0.17957 -0.20625 -0.96188
-0.042659 -0.067221 0.367 -0.28532 -0.19166 -0.93907
-0.042659 -0.066542 0.367 -0.33907 -0.17296 -0.92473
-0.042659 -0.065863 0.367 -0.36218 -0.15175 -0.91967
-0.042775 -0.065362 0.368 -0.37357 -0.16406 -0.91298
-0.042775 -0.064681 0.368 -0.40412 -0.1703 -0.89871
-0.042775 -0.064 0.368 -0.39304 -0.21771 -0.89338
-0.042775 -0.063319 0.368 -0.31195 -0.24576 -0.91776
-0.042891 -0.062809 0.369 -0.47506 -0.15221 -0.86669
-0.043124 -0.062463 0.371 -0.76205 0.17309 -0.62395
-0.043472 -0.062276 0.374 -0.68611 0.22444 -0.69201
-0.043589 -0.061748 0.375 -0.5894 0.10816 -0.80057
-0.043705 -0.061217 0.376 -0.49725 0.068093 -0.86493
-0.043705 -0.060522 0.376 -0.55019 0.084245 -0.83078
-0.043821 -0.059985 0.377 -0.5084 0.0087446 -0.86108
-0.043821 -0.059288 0.377 -0.50747 0.043482 -0.86057
-0.043821 -0.05859 0.377 -0.43253 0.068592 -0.89901
-0.043937 -0.058046 0.378 -0.5231 0.027149 -0.85184
-0.047358 -0.1126 0.414 -0.28944 0.70181 -0.65091
-0.047358 -0.11183 0.414 -0.33278 0.65268 -0.68063
-0.041982 -0.0679 0.367 -0.21264 -0.19307 -0.95787
-0.041982 -0.067221 0.367 -0.31736 -0.17346 -0.93231
-0.041982 -0.066542 0.367 -0.37014 -0.14842 -0.91704
-0.042096 -0.066043 0.368 -0.27432 -0.20727 -0.93904
-0.042096 -0.065362 0.368 -0.36958 -0.17364 -0.91283
-0.042096 -0.064681 0.368 -0.4017 -0.17029 -0.8998
-0.04221 -0.064174 0.369 -0.49771 -0.12463 -0.85834
-0.04221 -0.063491 0.369 -0.49602 -0.12298 -0.85956
-0.04221 -0.062809 0.369 -0.45633 -0.15733 -0.87579
-0.04221 -0.062126 0.369 -0.35878 -0.20398 -0.91086
-0.042325 -0.06161 0.37 -0.49339 0.017538 -0.86963
-0.042897 -0.061748 0.375 -0.58609 0.11532 -0.802
-0.043011 -0.061217 0.376 -0.47565 0.061997 -0.87745
-0.043011 -0.060522 0.376 -0.54536 0.082671 -0.83412
-0.043125 -0.059985 0.377 -0.50197 0.0066095 -0.86486
-0.043125 -0.059288 0.377 -0.51662 0.044599 -0.85505
-0.043125 -0.05859 0.377 -0.43912 0.066015 -0.896
-0.04324 -0.058046 0.378 -0.54446 0.043968 -0.83763
-0.046482 -0.11309 0.413 -0.20889 0.72741 -0.65363
-0.046482 -0.11232 0.413 -0.29295 0.68172 -0.6704
-0.046482 -0.11156 0.413 -0.33583 0.63349 -0.69707
-0.046482 -0.1108 0.413 -0.39384 0.56419 -0.72566
-0.046594 -0.1103 0.414 -0.37924 0.64757 -0.66093
-0.046594 -0.10953 0.414 -0.39106 0.5812 -0.71364
-0.046707 -0.10903 0.415 -0.39859 0.64892 -0.64809
-0.041304 -0.0679 0.367 -0.27732 -0.19722 -0.94032
-0.041304 -0.067221 0.367 -0.3711 -0.16566 -0.9137
-0.041304 -0.066542 0.367 -0.40549 -0.1426 -0.90291
-0.041304 -0.065863 0.367 -0.4283 -0.11479 -0.89632
-0.041417 -0.065362 0.368 -0.36244 -0.17778 -0.9149
-0.041417 -0.064681 0.368 -0.38219 -0.18027 -0.90633
-0.04153 -0.064174 0.369 -0.44456 -0.14967 -0.88316
-0.04153 -0.063491 0.369 -0.46186 -0.1501 -0.87416
-0.04153 -0.062809 0.369 -0.423 -0.17365 -0.88934
-0.041642 -0.062294 0.37 -0.58102 -0.0017808 -0.81389
-0.041642 -0.06161 0.37 -0.47832 -0.0038658 -0.87818
-0.042317 -0.061913 0.376 -0.31564 0.053979 -0.94734
-0.042317 -0.061217 0.376 -0.45844 0.089806 -0.88417
-0.042317 -0.060522 0.376 -0.54956 0.10277 -0.82911
-0.04243 -0.059985 0.377 -0.50685 0.03837 -0.86118
-0.04243 -0.059288 0.377 -0.53633 0.078626 -0.84034
-0.04243 -0.05859 0.377 -0.46482 0.095572 -0.88023
-0.042542 -0.058046 0.378 -0.5628 0.070408 -0.82359
-0.042542 -0.057347 0.378 -0.47144 0.073155 -0.87886
-0.045498 -0.11406 0.411 -0.20729 0.61772 -0.75858
-0.045498 -0.1133 0.411 -0.26527 0.57938 -0.77069
-0.045609 -0.11281 0.412 -0.21942 0.69343 -0.6863
-0.045609 -0.11205 0.412 -0.30262 0.65035 -0.69676
-0.04572 -0.11156 0.413 -0.29232 0.73356 -0.61355
-0.04572 -0.1108 0.413 -0.3519 0.68663 -0.63617
-0.04572 -0.11003 0.413 -0.37573 0.63613 -0.67392
-0.04583 -0.10953 0.414 -0.3831 0.69751 -0.60557
-0.045941 -0.10903 0.415 -0.41668 0.73741 -0.53161
-0.045941 -0.10826 0.415 -0.41292 0.68925 -0.59534
-0.045941 -0.10749 0.415 -0.38436 0.64489 -0.66059
-0.040738 -0.067404 0.368 -0.10479 -0.26497 -0.95854
-0.040627 -0.066542 0.367 -0.45028 -0.1487 -0.88042
-0.040627 -0.065863 0.367 -0.45214 -0.13735 -0.88131
-0.040738 -0.065362 0.368 -0.35233 -0.19129 -0.91612
-0.040738 -0.064681 0.368 -0.36327 -0.19824 -0.91035
-0.040849 -0.064174 0.369 -0.39919 -0.17753 -0.89952
-0.040849 -0.063491 0.369 -0.42508 -0.17665 -0.88775
-0.040849 -0.062809 0.369 -0.387 -0.19351 -0.90155
-0.040959 -0.062294 0.37 -0.5556 -0.040991 -0.83044
-0.040959 -0.06161 0.37 -0.46596 -0.057011 -0.88297
-0.041624 -0.061217 0.376 -0.43287 0.11436 -0.89417
-0.041624 -0.060522 0.376 -0.54485 0.12787 -0.82873
-0.041734 -0.059985 0.377 -0.50574 0.051866 -0.86113
-0.041734 -0.059288 0.377 -0.5587 0.098454 -0.82351
-0.041734 -0.05859 0.377 -0.48797 0.11649 -0.86505
-0.041845 -0.058046 0.378 -0.58787 0.095575 -0.80329
-0.041845 -0.057347 0.378 -0.49824 0.097101 -0.86158
-0.044631 -0.11378 0.41 -0.24372 0.57275 -0.78266
-0.04474 -0.1133 0.411 -0.17093 0.68953 -0.7038
-0.04474 -0.11254 0.411 -0.23471 0.66206 -0.71175
-0.04474 -0.11178 0.411 -0.30627 0.62728 -0.71604
-0.04474 -0.11102 0.411 -0.32785 0.59858 -0.7309
-0.044849 -0.11053 0.412 -0.34255 0.66932 -0.65929
-0.044958 -0.11003 0.413 -0.34994 0.72591 -0.59211
-0.044958 -0.10927 0.413 -0.36883 0.69397 -0.61836
-0.045066 -0.10877 0.414 -0.40392 0.72912 -0.55248
-0.045066 -0.108 0.414 -0.38832 0.69541 -0.60466
-0.045175 -0.10749 0.415 -0.45252 0.70253 -0.54925
-0.045175 -0.10673 0.415 -0.39704 0.68073 -0.6156
-0.040059 -0.067404 0.368 -0.14906 -0.25081 -0.95649
-0.040059 -0.066723 0.368 -0.24116 -0.23215 -0.94231
-0.040059 -0.066043 0.368 -0.31155 -0.21414 -0.92579
-0.040059 -0.065362 0.368 -0.36665 -0.17936 -0.91291
-0.040059 -0.064681 0.368 -0.36599 -0.1806 -0.91293
-0.040168 -0.064174 0.369 -0.37133 -0.17678 -0.91152
-0.040168 -0.063491 0.369 -0.39604 -0.17824 -0.90077
-0.040168 -0.062809 0.369 -0.37038 -0.19696 -0.90776
-0.040277 -0.062294 0.37 -0.53492 -0.069501 -0.84204
-0.040277 -0.06161 0.37 -0.46262 -0.097701 -0.88116
-0.040494 -0.061254 0.372 -0.77343 0.15074 -0.6157
-0.040821 -0.061055 0.375 -0.62126 0.1897 -0.7603
-0.04093 -0.060522 0.376 -0.52875 0.14553 -0.83621
-0.041039 -0.059985 0.377 -0.48663 0.080632 -0.86988
-0.041039 -0.059288 0.377 -0.58436 0.12713 -0.80147
-0.041039 -0.05859 0.377 -0.52718 0.1517 -0.8361
-0.041039 -0.057893 0.377 -0.40438 0.16943 -0.89876
-0.041148 -0.057347 0.378 -0.52445 0.11093 -0.84418
-0.043875 -0.11378 0.41 -0.13077 0.67149 -0.72939
-0.043875 -0.11302 0.41 -0.18631 0.65304 -0.73404
-0.043875 -0.11227 0.41 -0.24114 0.63652 -0.73259
-0.043875 -0.11151 0.41 -0.28362 0.61821 -0.73306
-0.043982 -0.11102 0.411 -0.28026 0.68662 -0.67083
-0.043982 -0.11026 0.411 -0.32509 0.65994 -0.67735
-0.044089 -0.10977 0.412 -0.33931 0.70856 -0.61871
-0.044089 -0.109 0.412 -0.3491 0.69261 -0.63121
-0.044196 -0.1085 0.413 -0.38165 0.72071 -0.57872
-0.044196 -0.10774 0.413 -0.35722 0.70392 -0.61391
-0.044303 -0.10723 0.414 -0.42663 0.71055 -0.55955
-0.044303 -0.10647 0.414 -0.36186 0.70924 -0.60501
-0.04441 -0.10596 0.415 -0.45049 0.68558 -0.57188
-0.03938 -0.067404 0.368 -0.20275 -0.25279 -0.94604
-0.03938 -0.066723 0.368 -0.28885 -0.22928 -0.92951
-0.03938 -0.066043 0.368 -0.35407 -0.20333 -0.91285
-0.03938 -0.065362 0.368 -0.4003 -0.1606 -0.9022
-0.03938 -0.064681 0.368 -0.38714 -0.15095 -0.90958
-0.039487 -0.064174 0.369 -0.35644 -0.16918 -0.91887
-0.039487 -0.063491 0.369 -0.38564 -0.1779 -0.90534
-0.039487 -0.062809 0.369 -0.36278 -0.20568 -0.90889
-0.039487 -0.062126 0.369 -0.25975 -0.23296 -0.93716
-0.039594 -0.06161 0.37 -0.45771 -0.14781 -0.87673
-0.039808 -0.061254 0.372 -0.76708 0.12189 -0.62987
-0.040129 -0.061055 0.375 -0.60379 0.22608 -0.76441
-0.040129 -0.060361 0.375 -0.69283 0.21697 -0.68768
-0.040343 -0.059985 0.377 -0.45618 0.1294 -0.88043
-0.040343 -0.059288 0.377 -0.61714 0.16187 -0.77003
-0.040343 -0.05859 0.377 -0.57243 0.19208 -0.79714
-0.040343 -0.057893 0.377 -0.4572 0.20843 -0.86459
-0.048369 -0.022579 0.452 -0.27847 0.44611 -0.85055
-0.048369 -0.021743 0.452 -0.29485 0.38247 -0.87566
-0.043013 -0.11351 0.409 -0.15716 0.63802 -0.75381
-0.043013 -0.11275 0.409 -0.19045 0.62568 -0.75648
-0.043013 -0.11199 0.409 -0.22112 0.61846 -0.75407
-0.043013 -0.11124 0.409 -0.2434 0.61048 -0.7537
-0.043118 -0.11075 0.41 -0.2616 0.67469 -0.69019
-0.043118 -0.10999 0.41 -0.29035 0.66035 -0.69255
-0.043223 -0.1095 0.411 -0.32662 0.69693 -0.63844
-0.043223 -0.10874 0.411 -0.33287 0.6967 -0.63546
-0.043328 -0.10824 0.412 -0.35561 0.71361 -0.60358
-0.043328 -0.10748 0.412 -0.32721 0.71348 -0.61958
-0.043434 -0.10698 0.413 -0.39935 0.72019 -0.56732
-0.043434 -0.10621 0.413 -0.33613 0.72786 -0.59769
-0.043539 -0.1057 0.414 -0.42946 0.70632 -0.56274
-0.038701 -0.066723 0.368 -0.34897 -0.23185 -0.908
-0.038701 -0.066043 0.368 -0.39823 -0.20543 -0.89399
-0.038701 -0.065362 0.368 -0.41681 -0.17485 -0.89202
-0.038701 -0.064681 0.368 -0.39803 -0.15571 -0.90406
-0.038806 -0.064174 0.369 -0.33721 -0.18612 -0.92285
-0.038806 -0.063491 0.369 -0.36054 -0.19485 -0.91216
-0.038911 -0.062979 0.37 -0.455 -0.16024 -0.87596
-0.038911 -0.062294 0.37 -0.46564 -0.1727 -0.86796
-0.038911 -0.06161 0.37 -0.41896 -0.194 -0.88704
-0.039017 -0.06109 0.371 -0.58632 -0.070737 -0.80699
-0.039437 -0.061055 0.375 -0.57002 0.28467 -0.77074
-0.039542 -0.060522 0.376 -0.47958 0.20919 -0.8522
-0.039542 -0.059826 0.376 -0.63453 0.20568 -0.74503
-0.039648 -0.059288 0.377 -0.6084 0.15372 -0.7786
-0.039648 -0.05859 0.377 -0.59895 0.18581 -0.77893
-0.039648 -0.057893 0.377 -0.4928 0.20295 -0.84614
-0.047325 -0.03247 0.45 0.17279 0.11552 -0.97816
-0.047325 -0.031637 0.45 0.1357 0.18791 -0.97277
-0.047325 -0.029972 0.45 0.070155 0.27093 -0.96004
-0.047325 -0.02914 0.45 0.0081875 0.28566 -0.95829
-0.047325 -0.028307 0.45 -0.024318 0.28072 -0.95948
-0.047325 -0.027475 0.45 -0.076006 0.25932 -0.9628
-0.047325 -0.026642 0.45 -0.14135 0.22856 -0.96321
-0.047325 -0.025809 0.45 -0.19103 0.19663 -0.96169
-0.04743 -0.025032 0.451 -0.1823 0.46762 -0.86493
-0.04743 -0.024198 0.451 -0.24335 0.41165 -0.87825
-0.04743 -0.023364 0.451 -0.27521 0.34954 -0.89559
-0.04743 -0.022529 0.451 -0.26845 0.28527 -0.92008
-0.047535 -0.021743 0.452 -0.3237 0.45394 -0.83016
-0.047535 -0.020907 0.452 -0.31408 0.37976 -0.87013
-0.042155 -0.11323 0.408 -0.15373 0.57923 -0.80054
-0.042155 -0.11247 0.408 -0.14789 0.57197 -0.80683
-0.042155 -0.11172 0.408 -0.1638 0.57348 -0.80268
-0.042258 -0.11124 0.409 -0.20884 0.65984 -0.7218
-0.042258 -0.11048 0.409 -0.22482 0.66 -0.71683
-0.042362 -0.10999 0.41 -0.27896 0.68143 -0.67663
-0.042362 -0.10923 0.41 -0.29165 0.68617 -0.66642
-0.042362 -0.10847 0.41 -0.28746 0.69081 -0.66343
-0.042465 -0.10798 0.411 -0.32986 0.71385 -0.61775
-0.042465 -0.10722 0.411 -0.29904 0.72186 -0.62409
-0.042568 -0.10672 0.412 -0.37323 0.72158 -0.58312
-0.042672 -0.10621 0.413 -0.47328 0.69437 -0.54208
-0.042672 -0.10545 0.413 -0.41427 0.71951 -0.55739
-0.038125 -0.067587 0.369 0.036923 -0.35156 -0.93544
-0.038125 -0.066905 0.369 -0.050851 -0.32686 -0.9437
-0.038125 -0.066222 0.369 -0.14497 -0.29793 -0.94352
-0.038125 -0.065539 0.369 -0.23601 -0.25056 -0.93889
-0.038125 -0.064857 0.369 -0.2943 -0.21992 -0.93007
-0.038125 -0.064174 0.369 -0.32839 -0.192 -0.92482
-0.038125 -0.063491 0.369 -0.35152 -0.20605 -0.91322
-0.038229 -0.062979 0.37 -0.42852 -0.18072 -0.88527
-0.038229 -0.062294 0.37 -0.45145 -0.18905 -0.87204
-0.038229 -0.06161 0.37 -0.40908 -0.20737 -0.88862
-0.038229 -0.060925 0.37 -0.28373 -0.24384 -0.92738
-0.038539 -0.060729 0.373 -0.79954 0.11734 -0.58905
-0.038745 -0.060361 0.375 -0.67458 0.24699 -0.69566
-0.038849 -0.059826 0.376 -0.6459 0.20388 -0.7357
-0.038952 -0.059288 0.377 -0.61212 0.13407 -0.77931
-0.038952 -0.05859 0.377 -0.63152 0.17321 -0.75577
-0.038952 -0.057893 0.377 -0.53447 0.19352 -0.82273
-0.039055 -0.057347 0.378 -0.60486 0.14096 -0.78376
-0.046494 -0.03247 0.45 0.18225 0.19259 -0.96421
-0.046494 -0.031637 0.45 0.14965 0.27324 -0.95024
-0.046494 -0.030805 0.45 0.11077 0.32723 -0.93843
-0.046494 -0.029972 0.45 0.086275 0.36113 -0.92851
-0.046494 -0.02914 0.45 0.01935 0.38133 -0.92424
-0.046494 -0.028307 0.45 -0.019935 0.38004 -0.92475
-0.046391 -0.027414 0.449 -0.087933 -0.01676 -0.99599
-0.046494 -0.026642 0.45 -0.12931 0.34127 -0.93103
-0.046494 -0.025809 0.45 -0.17763 0.32356 -0.92939
-0.046494 -0.024977 0.45 -0.21075 0.28192 -0.936
-0.046494 -0.024144 0.45 -0.26324 0.21563 -0.94032
-0.046598 -0.023364 0.451 -0.27528 0.44233 -0.85356
-0.046598 -0.022529 0.451 -0.27803 0.39112 -0.87734
-0.046598 -0.021695 0.451 -0.28295 0.29587 -0.91236
-0.046598 -0.02086 0.451 -0.22926 0.20665 -0.95117
-0.046701 -0.02007 0.452 -0.3437 0.39036 -0.8541
-0.041402 -0.11323 0.408 -0.089269 0.62437 -0.77601
-0.041402 -0.11247 0.408 -0.11384 0.6216 -0.77502
-0.041402 -0.11172 0.408 -0.15181 0.62687 -0.76419
-0.041402 -0.11096 0.408 -0.17323 0.63 -0.75703
-0.041504 -0.11048 0.409 -0.22873 0.66666 -0.7094
-0.041504 -0.10972 0.409 -0.2538 0.66919 -0.69841
-0.041504 -0.10897 0.409 -0.26041 0.67684 -0.68853
-0.041605 -0.10847 0.41 -0.29376 0.70991 -0.64011
-0.041605 -0.10772 0.41 -0.28381 0.71453 -0.63945
-0.041605 -0.10696 0.41 -0.24601 0.71978 -0.64915
-0.041707 -0.10646 0.411 -0.32191 0.74001 -0.59055
-0.041707 -0.1057 0.411 -0.279 0.75126 -0.59813
-0.041808 -0.10519 0.412 -0.38245 0.73983 -0.55352
-0.037445 -0.067587 0.369 -0.02498 -0.3319 -0.94298
-0.037445 -0.066905 0.369 -0.094212 -0.30618 -0.9473
-0.037445 -0.066222 0.369 -0.1792 -0.28245 -0.9424
-0.037445 -0.065539 0.369 -0.25031 -0.24463 -0.93675
-0.037445 -0.064857 0.369 -0.29621 -0.21864 -0.92976
-0.037445 -0.064174 0.369 -0.32733 -0.18324 -0.92697
-0.037546 -0.063663 0.37 -0.3562 -0.20192 -0.91233
-0.037546 -0.062979 0.37 -0.40664 -0.19112 -0.89337
-0.037546 -0.062294 0.37 -0.43887 -0.20772 -0.87421
-0.037546 -0.06161 0.37 -0.39804 -0.22457 -0.88946
-0.037546 -0.060925 0.37 -0.27366 -0.25836 -0.92648
-0.037749 -0.060566 0.372 -0.70304 0.032098 -0.71043
-0.037952 -0.0602 0.374 -0.80022 0.10828 -0.58986
-0.038155 -0.059826 0.376 -0.67942 0.182 -0.71082
-0.038256 -0.059288 0.377 -0.64497 0.10384 -0.75712
-0.038256 -0.05859 0.377 -0.68568 0.14529 -0.71325
-0.038256 -0.057893 0.377 -0.57697 0.17406 -0.798
-0.045867 -0.036796 0.452 0.4733 0.37813 -0.79562
-0.045766 -0.03588 0.451 0.39303 0.21475 -0.8941
-0.045664 -0.03247 0.45 0.20345 0.31461 -0.92716
-0.045664 -0.031637 0.45 0.1768 0.34341 -0.9224
-0.045664 -0.030805 0.45 0.14227 0.35391 -0.92439
-0.045563 -0.029906 0.449 0.025546 0.23895 -0.97069
-0.045664 -0.02914 0.45 0.033262 0.35581 -0.93397
-0.045563 -0.028244 0.449 -0.0207 0.31416 -0.94914
-0.045563 -0.027414 0.449 -0.077735 0.33535 -0.93888
-0.045563 -0.026583 0.449 -0.14097 0.36449 -0.92048
-0.045563 -0.025752 0.449 -0.17773 0.41562 -0.89201
-0.045664 -0.024977 0.45 -0.19587 0.38303 -0.90273
-0.045664 -0.024144 0.45 -0.248 0.3787 -0.89168
-0.045664 -0.023312 0.45 -0.25641 0.38116 -0.88824
-0.045766 -0.022529 0.451 -0.31335 0.39182 -0.86504
-0.045766 -0.021695 0.451 -0.31666 0.37992 -0.86913
-0.045766 -0.02086 0.451 -0.27105 0.34097 -0.90015
-0.045867 -0.02007 0.452 -0.40876 0.42895 -0.80555
-0.04055 -0.11295 0.407 -0.11188 0.59373 -0.79685
-0.04055 -0.1122 0.407 -0.10348 0.59346 -0.79818
-0.04055 -0.11144 0.407 -0.12227 0.59883 -0.79148
-0.040649 -0.11096 0.408 -0.17073 0.63196 -0.75596
-0.040649 -0.11021 0.408 -0.19463 0.64173 -0.74182
-0.040649 -0.10945 0.408 -0.20998 0.64906 -0.73119
-0.040649 -0.1087 0.408 -0.20468 0.65585 -0.72662
-0.040749 -0.10821 0.409 -0.24987 0.69914 -0.6699
-0.040749 -0.10745 0.409 -0.23745 0.70617 -0.66704
-0.040749 -0.1067 0.409 -0.20531 0.71229 -0.67119
-0.040849 -0.1062 0.41 -0.2686 0.74323 -0.61275
-0.040849 -0.10544 0.41 -0.23902 0.75122 -0.61525
-0.040849 -0.10468 0.41 -0.20034 0.74899 -0.63157
-0.036764 -0.066905 0.369 -0.17009 -0.30684 -0.93644
-0.036764 -0.066222 0.369 -0.24014 -0.27836 -0.92997
-0.036764 -0.065539 0.369 -0.28564 -0.24489 -0.92652
-0.036764 -0.064857 0.369 -0.31279 -0.21935 -0.92415
-0.036764 -0.064174 0.369 -0.34335 -0.17691 -0.9224
-0.036863 -0.063663 0.37 -0.33359 -0.21787 -0.9172
-0.036863 -0.062979 0.37 -0.38578 -0.20398 -0.89976
-0.036863 -0.062294 0.37 -0.42238 -0.22109 -0.87904
-0.036863 -0.06161 0.37 -0.36851 -0.24439 -0.89692
-0.036863 -0.060925 0.37 -0.24502 -0.26668 -0.93212
-0.036963 -0.060403 0.371 -0.44529 -0.089303 -0.89092
-0.037162 -0.060039 0.373 -0.78849 0.085981 -0.60901
-0.037262 -0.059508 0.374 -0.79176 0.11203 -0.60047
-0.037561 -0.059288 0.377 -0.67618 0.089659 -0.73126
-0.037561 -0.05859 0.377 -0.73568 0.13601 -0.66354
-0.037561 -0.057893 0.377 -0.6308 0.1631 -0.75861
-0.045033 -0.038468 0.452 0.48812 0.1345 -0.86235
-0.045033 -0.037632 0.452 0.51084 0.35921 -0.78103
-0.044934 -0.036714 0.451 0.42456 0.2254 -0.8769
-0.044934 -0.03588 0.451 0.41828 0.34229 -0.84136
-0.044834 -0.034968 0.45 0.25013 0.5409 -0.80303
-0.044834 -0.034135 0.45 0.27552 0.37248 -0.8862
-0.044834 -0.033302 0.45 0.25157 0.34386 -0.90469
-0.044734 -0.032398 0.449 0.17318 0.47063 -0.86517
-0.044734 -0.031567 0.449 0.12249 0.43079 -0.8941
-0.044734 -0.030736 0.449 0.079223 0.39733 -0.91425
-0.044734 -0.029906 0.449 0.063169 0.39117 -0.91815
-0.044734 -0.029075 0.449 0.0079587 0.40452 -0.9145
-0.044734 -0.028244 0.449 -0.016773 0.42105 -0.90688
-0.044734 -0.027414 0.449 -0.068453 0.44859 -0.89111
-0.044734 -0.026583 0.449 -0.11806 0.48076 -0.86887
-0.044734 -0.025752 0.449 -0.15412 0.51721 -0.84187
-0.044834 -0.024977 0.45 -0.20562 0.26916 -0.94089
-0.044834 -0.024144 0.45 -0.25447 0.31979 -0.91268
-0.044834 -0.023312 0.45 -0.27323 0.38214 -0.88279
-0.044834 -0.022479 0.45 -0.25594 0.4531 -0.85393
-0.044834 -0.021647 0.45 -0.25645 0.49034 -0.83295
-0.044934 -0.02086 0.451 -0.32481 0.35907 -0.87497
-0.044934 -0.020026 0.451 -0.29863 0.39381 -0.86933
-0.039799 -0.11295 0.407 -0.065949 0.57624 -0.81461
-0.039799 -0.1122 0.407 -0.08789 0.58142 -0.80884
-0.039701 -0.11117 0.406 -0.075816 0.55624 -0.82755
-0.039799 -0.11069 0.407 -0.1359 0.59645 -0.79106
-0.039799 -0.10994 0.407 -0.15106 0.60934 -0.77839
-0.039799 -0.10919 0.407 -0.16162 0.61553 -0.77136
-0.039897 -0.1087 0.408 -0.20649 0.65837 -0.72381
-0.039897 -0.10794 0.408 -0.2009 0.67431 -0.71059
-0.039897 -0.10719 0.408 -0.18641 0.68321 -0.70602
-0.039897 -0.10643 0.408 -0.15092 0.6857 -0.71207
-0.039994 -0.10594 0.409 -0.20594 0.73162 -0.64987
-0.039994 -0.10518 0.409 -0.18915 0.73644 -0.64952
-0.039994 -0.10443 0.409 -0.1667 0.73441 -0.65791
-0.040092 -0.10392 0.41 -0.29085 0.76668 -0.57237
-0.036083 -0.066222 0.369 -0.30345 -0.26365 -0.91564
-0.036181 -0.065717 0.37 -0.038716 -0.34898 -0.93633
-0.036083 -0.064857 0.369 -0.34972 -0.2153 -0.91178
-0.036181 -0.064348 0.37 -0.22813 -0.27714 -0.93335
-0.036181 -0.063663 0.37 -0.31726 -0.24017 -0.91742
-0.036181 -0.062979 0.37 -0.36834 -0.21933 -0.90345
-0.036181 -0.062294 0.37 -0.40591 -0.23355 -0.88357
-0.036181 -0.06161 0.37 -0.33891 -0.26479 -0.90279
-0.036279 -0.06109 0.371 -0.51118 -0.11514 -0.85173
-0.036376 -0.060566 0.372 -0.66372 -0.02361 -0.74761
-0.036474 -0.060039 0.373 -0.77942 0.065608 -0.62306
-0.036572 -0.059508 0.374 -0.79078 0.090328 -0.6054
-0.036768 -0.05913 0.376 -0.79614 0.15506 -0.58491
-0.036865 -0.05859 0.377 -0.78216 0.14289 -0.60647
-0.036865 -0.057893 0.377 -0.68022 0.16727 -0.71367
-0.044395 -0.041158 0.454 0.5537 0.43134 -0.71229
-0.044395 -0.040318 0.454 0.63567 0.38467 -0.66929
-0.044297 -0.039391 0.453 0.59231 0.35954 -0.72105
-0.044101 -0.036714 0.451 0.45417 0.37622 -0.80758
-0.044004 -0.0358 0.45 0.34043 0.61632 -0.71011
-0.044004 -0.034968 0.45 0.29986 0.52811 -0.79447
-0.044004 -0.034135 0.45 0.30481 0.31615 -0.89841
-0.043906 -0.032398 0.449 0.20723 0.4857 -0.84921
-0.043906 -0.031567 0.449 0.15382 0.4013 -0.90294
-0.043906 -0.030736 0.449 0.10195 0.34467 -0.93317
-0.043906 -0.029906 0.449 0.075108 0.31784 -0.94517
-0.043906 -0.029075 0.449 0.01205 0.31766 -0.94813
-0.043906 -0.028244 0.449 -0.022242 0.33053 -0.94353
-0.043906 -0.027414 0.449 -0.071582 0.35388 -0.93255
-0.043906 -0.026583 0.449 -0.12439 0.38875 -0.91291
-0.043906 -0.025752 0.449 -0.16375 0.42601 -0.88977
-0.043906 -0.024921 0.449 -0.18636 0.46321 -0.86643
-0.043906 -0.024091 0.449 -0.23104 0.50144 -0.83378
-0.044004 -0.023312 0.45 -0.28867 0.27483 -0.91714
-0.044004 -0.022479 0.45 -0.28474 0.35766 -0.88938
-0.044004 -0.021647 0.45 -0.2994 0.43536 -0.84901
-0.044004 -0.020814 0.45 -0.28095 0.50269 -0.81754
-0.044101 -0.020026 0.451 -0.35198 0.34405 -0.87048
-0.044101 -0.019191 0.451 -0.31528 0.40298 -0.85919
-0.044101 -0.018357 0.451 -0.26304 0.42882 -0.86425
-0.044199 -0.017562 0.452 -0.41596 0.41634 -0.80848
-0.038952 -0.11267 0.406 -0.079851 0.5455 -0.8343
-0.038952 -0.11192 0.406 -0.070411 0.54913 -0.83277
-0.038952 -0.11117 0.406 -0.084764 0.55307 -0.82881
-0.038952 -0.11042 0.406 -0.097701 0.56266 -0.82089
-0.038952 -0.10967 0.406 -0.11028 0.57798 -0.80856
-0.039048 -0.10919 0.407 -0.16339 0.62333 -0.7647
