0.011081 -0.042067 0.429 0.039422 -0.66397 -0.74672
0.011081 -0.041273 0.429 -0.0072376 -0.67048 -0.7419
0.011081 -0.040479 0.429 -0.039732 -0.6705 -0.74085
0.011081 -0.039685 0.429 -0.05451 -0.67371 -0.73699
0.011081 -0.038892 0.429 -0.058771 -0.66966 -0.74034
0.011107 -0.038187 0.43 -0.034747 -0.68774 -0.72512
0.011107 -0.037391 0.43 -0.012263 -0.67716 -0.73573
0.011107 -0.036596 0.43 0.021904 -0.65998 -0.75096
0.011107 -0.0358 0.43 0.073395 -0.63884 -0.76583
0.011107 -0.035005 0.43 0.14241 -0.60783 -0.78119
0.011107 -0.034209 0.43 0.21567 -0.56942 -0.79325
0.011107 -0.033414 0.43 0.2876 -0.52622 -0.80024
0.011081 -0.032542 0.429 0.34487 -0.47922 -0.8071
0.011081 -0.031748 0.429 0.39866 -0.43209 -0.80893
0.011055 -0.030883 0.428 0.43396 -0.38428 -0.81487
0.011055 -0.030091 0.428 0.46254 -0.34807 -0.81542
0.01103 -0.02923 0.427 0.47307 -0.30953 -0.82486
0.01103 -0.02844 0.427 0.47229 -0.28608 -0.83373
0.011004 -0.027586 0.426 0.45039 -0.27359 -0.84988
0.011004 -0.026797 0.426 0.4264 -0.26565 -0.86465
0.010978 -0.025948 0.425 0.39589 -0.27027 -0.87762
0.010978 -0.025162 0.425 0.35619 -0.27929 -0.8917
0.010978 -0.024376 0.425 0.30595 -0.2889 -0.90715
0.010978 -0.023589 0.425 0.25825 -0.3019 -0.9177
0.010952 -0.022749 0.424 0.21363 -0.31907 -0.92334
0.010952 -0.021965 0.424 0.17125 -0.33569 -0.92627
0.010952 -0.02118 0.424 0.12653 -0.3492 -0.92846
0.010952 -0.020396 0.424 0.080423 -0.36286 -0.92837
0.010952 -0.019611 0.424 0.033095 -0.3873 -0.92136
0.010952 -0.018827 0.424 -0.016428 -0.40378 -0.91471
0.010952 -0.018043 0.424 -0.067759 -0.42351 -0.90335
0.010952 -0.017258 0.424 -0.11567 -0.44076 -0.89014
0.010952 -0.016474 0.424 -0.15629 -0.45744 -0.8754
0.010952 -0.015689 0.424 -0.20077 -0.46928 -0.85992
0.010978 -0.01494 0.425 -0.23148 -0.47682 -0.84797
0.010978 -0.014154 0.425 -0.2557 -0.48449 -0.83659
0.010978 -0.013367 0.425 -0.27403 -0.49362 -0.82538
0.010978 -0.012581 0.425 -0.28358 -0.50475 -0.81536
0.011004 -0.011822 0.426 -0.30125 -0.515 -0.80251
0.011004 -0.011034 0.426 -0.31963 -0.51116 -0.79784
0.011004 -0.010246 0.426 -0.3296 -0.51099 -0.79388
0.01103 -0.0094801 0.427 -0.35497 -0.50757 -0.7851
0.01103 -0.0086901 0.427 -0.37644 -0.50021 -0.7798
0.01103 -0.0079001 0.427 -0.38915 -0.48863 -0.7809
0.011055 -0.0071267 0.428 -0.41837 -0.48684 -0.76678
0.011055 -0.0063349 0.428 -0.42652 -0.47917 -0.76712
0.011081 -0.005556 0.429 -0.42324 -0.47909 -0.76899
0.011081 -0.0047623 0.429 -0.42129 -0.48021 -0.76936
0.011107 -0.0039778 0.43 -0.41088 -0.48051 -0.77478
0.011107 -0.0031822 0.43 -0.39671 -0.48928 -0.77668
0.011133 -0.0023922 0.431 -0.38719 -0.50106 -0.77397
0.011133 -0.0015948 0.431 -0.37769 -0.50944 -0.77319
0.011133 -0.00079741 0.431 -0.36552 -0.51186 -0.77743
0.011133 0 0.431 -0.35193 -0.50228 -0.78985
0.011159 0.00079926 0.432 -0.38294 -0.53308 -0.75444
0.011159 0.0015985 0.432 -0.3843 -0.51773 -0.76437
0.011185 0.0024033 0.433 -0.43277 -0.55677 -0.70903
0.011185 0.0032044 0.433 -0.41354 -0.53499 -0.73673
0.01121 0.0040148 0.434 -0.46783 -0.5675 -0.67756
0.011236 0.0048289 0.435 -0.51846 -0.59292 -0.61615
0.011262 0.0056466 0.436 -0.54768 -0.61979 -0.56205
0.012648 -0.096389 0.457 -0.39671 0.19781 -0.89638
0.012648 -0.095543 0.457 -0.42887 0.20057 -0.88082
0.012675 -0.094905 0.458 -0.27405 0.20973 -0.93857
0.012675 -0.094057 0.458 -0.29827 0.19754 -0.93382
0.012675 -0.09321 0.458 -0.2829 0.19519 -0.93908
0.012675 -0.092363 0.458 -0.23054 0.18988 -0.95436
0.012703 -0.091715 0.459 -0.1947 0.18197 -0.96383
0.012703 -0.090866 0.459 -0.1418 0.16988 -0.97521
0.012703 -0.090017 0.459 -0.046282 0.14712 -0.98804
0.012703 -0.089167 0.459 0.034794 0.13397 -0.99037
0.012703 -0.088318 0.459 0.14872 0.1062 -0.98316
0.012703 -0.087469 0.459 0.27856 0.069914 -0.95787
0.012703 -0.08662 0.459 0.40406 0.036469 -0.914
0.012675 -0.085584 0.458 0.49388 0.025431 -0.86916
0.012675 -0.084736 0.458 0.55827 0.015511 -0.82951
0.012648 -0.083706 0.457 0.61208 -0.0021649 -0.7908
0.01262 -0.082679 0.456 0.6559 -0.023651 -0.75448
0.012592 -0.081656 0.455 0.67454 -0.045638 -0.73683
0.012565 -0.080636 0.454 0.66602 -0.05573 -0.74385
0.012565 -0.079796 0.454 0.66953 -0.064074 -0.74002
0.012537 -0.078783 0.453 0.63984 -0.067537 -0.76554
0.012509 -0.077772 0.452 0.60675 -0.076158 -0.79124
0.012482 -0.076766 0.451 0.56474 -0.09698 -0.81955
0.012482 -0.075932 0.451 0.55515 -0.11904 -0.82319
0.012482 -0.075097 0.451 0.52173 -0.15376 -0.83914
0.012454 -0.074098 0.45 0.50146 -0.19098 -0.84384
0.012454 -0.073265 0.45 0.48754 -0.21191 -0.84699
0.012426 -0.072272 0.449 0.49901 -0.24592 -0.83097
0.012426 -0.071441 0.449 0.50182 -0.25463 -0.82664
0.012399 -0.070453 0.448 0.52835 -0.2931 -0.79683
0.012399 -0.069624 0.448 0.53163 -0.29182 -0.79512
0.012371 -0.068642 0.447 0.56578 -0.34223 -0.75018
0.012343 -0.067663 0.446 0.59915 -0.39053 -0.69893
0.012343 -0.066838 0.446 0.5838 -0.38713 -0.71366
0.012315 -0.065865 0.445 0.59221 -0.44237 -0.67349
0.012288 -0.064895 0.444 0.59167 -0.48164 -0.64649
0.01226 -0.06393 0.443 0.58033 -0.51078 -0.63428
0.012232 -0.062968 0.442 0.55793 -0.52937 -0.63913
0.012232 -0.06215 0.442 0.54667 -0.53518 -0.644
0.012205 -0.061193 0.441 0.54383 -0.55357 -0.63072
0.012177 -0.060241 0.44 0.54814 -0.56529 -0.61644
0.012177 -0.059426 0.44 0.53473 -0.55835 -0.63427
0.012149 -0.058479 0.439 0.53615 -0.58485 -0.60868
0.012122 -0.057536 0.438 0.51434 -0.59479 -0.61779
0.012094 -0.056596 0.437 0.47423 -0.59535 -0.64859
0.012094 -0.055787 0.437 0.45095 -0.61796 -0.64402
0.012066 -0.054853 0.436 0.40273 -0.62429 -0.66938
0.012066 -0.054046 0.436 0.3705 -0.64224 -0.67101
0.012039 -0.053117 0.435 0.34175 -0.64869 -0.68001
0.012039 -0.052313 0.435 0.33243 -0.65768 -0.67598
0.012039 -0.051508 0.435 0.31916 -0.65246 -0.68733
0.012011 -0.050586 0.434 0.35149 -0.67108 -0.65277
0.012011 -0.049784 0.434 0.35112 -0.66843 -0.65568
0.011983 -0.048868 0.433 0.38369 -0.68334 -0.62115
0.011956 -0.047956 0.432 0.3728 -0.66907 -0.64294
0.011956 -0.047156 0.432 0.35771 -0.69561 -0.62303
0.011928 -0.04625 0.431 0.30181 -0.65666 -0.69116
0.011928 -0.045452 0.431 0.26126 -0.69164 -0.67333
0.0119 -0.044551 0.43 0.18636 -0.63052 -0.75347
0.0119 -0.043756 0.43 0.13713 -0.65981 -0.73882
0.0119 -0.04296 0.43 0.087365 -0.67891 -0.72901
0.0119 -0.042165 0.43 0.037406 -0.68922 -0.72359
0.0119 -0.041369 0.43 -0.001729 -0.69452 -0.71948
0.0119 -0.040574 0.43 -0.039907 -0.69212 -0.72068
0.0119 -0.039778 0.43 -0.057809 -0.6879 -0.7235
0.0119 -0.038982 0.43 -0.051257 -0.68116 -0.73033
0.0119 -0.038187 0.43 -0.034387 -0.67123 -0.74045
0.011928 -0.037478 0.431 0.018 -0.67192 -0.74041
0.011928 -0.036681 0.431 0.059681 -0.65232 -0.75559
0.011928 -0.035883 0.431 0.11713 -0.62483 -0.77193
0.011928 -0.035086 0.431 0.19298 -0.58629 -0.78678
0.011928 -0.034289 0.431 0.27258 -0.53869 -0.79719
0.0119 -0.033414 0.43 0.34233 -0.48892 -0.80235
0.0119 -0.032618 0.43 0.40011 -0.44074 -0.80353
0.011873 -0.031748 0.429 0.44327 -0.39167 -0.8063
0.011873 -0.030955 0.429 0.47745 -0.35206 -0.80504
0.011845 -0.030091 0.428 0.49284 -0.31543 -0.81093
0.011817 -0.02923 0.427 0.49112 -0.28532 -0.82304
0.011817 -0.02844 0.427 0.48521 -0.27835 -0.82891
0.011817 -0.02765 0.427 0.46087 -0.26655 -0.84649
0.01179 -0.026797 0.426 0.43031 -0.26345 -0.86338
0.01179 -0.026009 0.426 0.3942 -0.27159 -0.87798
0.011762 -0.025162 0.425 0.3537 -0.28723 -0.89017
0.011762 -0.024376 0.425 0.30242 -0.29873 -0.90516
0.011762 -0.023589 0.425 0.24913 -0.31392 -0.91618
0.011762 -0.022803 0.425 0.19944 -0.32889 -0.92307
0.011762 -0.022017 0.425 0.154 -0.34797 -0.92477
0.011734 -0.02118 0.424 0.10359 -0.36546 -0.92505
0.011734 -0.020396 0.424 0.058509 -0.38023 -0.92304
0.011734 -0.019611 0.424 0.0087215 -0.39815 -0.91728
0.011734 -0.018827 0.424 -0.046013 -0.41776 -0.90739
0.011734 -0.018043 0.424 -0.09437 -0.43949 -0.89328
0.011734 -0.017258 0.424 -0.13744 -0.45655 -0.87902
0.011762 -0.016512 0.425 -0.17572 -0.47213 -0.86384
0.011762 -0.015726 0.425 -0.2158 -0.4813 -0.84958
0.011762 -0.01494 0.425 -0.24047 -0.49366 -0.83575
0.011762 -0.014154 0.425 -0.25694 -0.50115 -0.82634
0.011762 -0.013367 0.425 -0.27333 -0.50379 -0.81944
0.01179 -0.012611 0.426 -0.29573 -0.52009 -0.80128
0.01179 -0.011822 0.426 -0.30225 -0.5257 -0.79516
0.01179 -0.011034 0.426 -0.31186 -0.52367 -0.79279
0.011817 -0.01027 0.427 -0.32839 -0.52887 -0.7826
0.011817 -0.0094801 0.427 -0.34972 -0.52067 -0.77884
0.011845 -0.0087105 0.428 -0.3678 -0.51399 -0.77494
0.011845 -0.0079186 0.428 -0.38883 -0.50443 -0.77095
0.011845 -0.0071267 0.428 -0.40899 -0.49588 -0.76605
0.011873 -0.0063497 0.429 -0.4208 -0.49111 -0.76272
0.011873 -0.005556 0.429 -0.42084 -0.48683 -0.76544
0.0119 -0.0047734 0.43 -0.41702 -0.48707 -0.76737
0.0119 -0.0039778 0.43 -0.41111 -0.49113 -0.76797
0.011928 -0.0031896 0.431 -0.4063 -0.50188 -0.76357
0.011928 -0.0023922 0.431 -0.39375 -0.51208 -0.76337
0.011928 -0.0015948 0.431 -0.37152 -0.51044 -0.77552
0.011956 -0.00079926 0.432 -0.3878 -0.53589 -0.74995
0.011956 0 0.432 -0.37269 -0.53364 -0.75917
0.011956 0.00079926 0.432 -0.35886 -0.51734 -0.7769
0.011983 0.0016022 0.433 -0.40219 -0.55948 -0.72472
0.011983 0.0024033 0.433 -0.38762 -0.53975 -0.74728
0.012011 0.0032118 0.434 -0.43705 -0.57846 -0.68875
0.012039 0.0040241 0.435 -0.48993 -0.60419 -0.62844
0.012066 0.00484 0.436 -0.53517 -0.62733 -0.56572
0.013461 -0.097021 0.456 -0.53536 0.12112 -0.83589
0.013491 -0.096389 0.457 -0.35898 0.14715 -0.92167
0.013491 -0.095543 0.457 -0.39454 0.15406 -0.90587
0.01352 -0.094905 0.458 -0.24337 0.16779 -0.95531
0.01352 -0.094057 0.458 -0.28445 0.15612 -0.94589
0.01352 -0.09321 0.458 -0.27727 0.14931 -0.94912
0.01352 -0.092363 0.458 -0.23752 0.14886 -0.95991
0.01352 -0.091515 0.458 -0.20364 0.14357 -0.96846
0.01355 -0.090866 0.459 -0.15106 0.13158 -0.97973
0.01355 -0.090017 0.459 -0.060083 0.10147 -0.99302
0.01355 -0.089167 0.459 0.0077784 0.085326 -0.99632
0.01355 -0.088318 0.459 0.11704 0.061736 -0.99121
0.01355 -0.087469 0.459 0.24672 0.029223 -0.96865
0.01355 -0.08662 0.459 0.38002 -0.0063011 -0.92496
0.01352 -0.085584 0.458 0.47763 -0.018847 -0.87836
0.01352 -0.084736 0.458 0.54564 -0.023366 -0.83769
0.013491 -0.083706 0.457 0.60345 -0.036967 -0.79654
0.013461 -0.082679 0.456 0.64856 -0.058729 -0.75889
0.013432 -0.081656 0.455 0.66979 -0.075424 -0.73871
0.013402 -0.080636 0.454 0.66018 -0.07474 -0.74738
0.013402 -0.079796 0.454 0.66214 -0.090904 -0.74385
0.013373 -0.078783 0.453 0.63044 -0.093549 -0.77058
0.013343 -0.077772 0.452 0.59198 -0.10273 -0.79938
0.013343 -0.076936 0.452 0.56791 -0.12933 -0.81286
0.013314 -0.075932 0.451 0.53919 -0.14223 -0.83009
0.013314 -0.075097 0.451 0.50464 -0.175 -0.84541
0.013284 -0.074098 0.45 0.48212 -0.2134 -0.84972
0.013284 -0.073265 0.45 0.46732 -0.23689 -0.85176
0.013255 -0.072272 0.449 0.47512 -0.26875 -0.83787
0.013255 -0.071441 0.449 0.47925 -0.28225 -0.83106
0.013255 -0.070611 0.449 0.47277 -0.288 -0.83279
0.013225 -0.069624 0.448 0.51817 -0.32649 -0.79051
0.013225 -0.068796 0.448 0.51127 -0.32636 -0.79505
0.013196 -0.067815 0.447 0.54865 -0.36574 -0.75181
0.013166 -0.066838 0.446 0.57379 -0.4171 -0.70483
0.013137 -0.065865 0.445 0.58671 -0.46147 -0.66545
0.013107 -0.064895 0.444 0.58035 -0.48896 -0.65124
0.013107 -0.064074 0.444 0.5623 -0.50352 -0.65596
0.013077 -0.06311 0.443 0.54931 -0.53225 -0.64418
0.013048 -0.06215 0.442 0.54087 -0.54948 -0.63682
0.013048 -0.061332 0.442 0.51774 -0.55832 -0.64825
0.013018 -0.060377 0.441 0.52585 -0.57827 -0.62377
0.012989 -0.059426 0.44 0.5329 -0.5905 -0.60608
0.012989 -0.058612 0.44 0.5171 -0.58706 -0.62287
0.012959 -0.057667 0.439 0.50977 -0.61122 -0.60543
0.01293 -0.056725 0.438 0.4794 -0.61236 -0.62864
0.0129 -0.055787 0.437 0.42606 -0.60597 -0.67177
0.0129 -0.054979 0.437 0.40886 -0.6316 -0.65872
0.012871 -0.054046 0.436 0.35636 -0.63087 -0.68921
0.012871 -0.05324 0.436 0.34301 -0.64939 -0.6787
0.012871 -0.052433 0.436 0.32842 -0.65553 -0.68001
0.012841 -0.051508 0.435 0.32763 -0.6653 -0.67084
0.012841 -0.050703 0.435 0.32185 -0.66983 -0.66913
0.012841 -0.049898 0.435 0.31478 -0.66313 -0.67909
0.012812 -0.048981 0.434 0.35218 -0.69341 -0.62861
0.012782 -0.048067 0.433 0.36067 -0.6999 -0.61649
0.012782 -0.047265 0.433 0.34664 -0.71896 -0.60244
0.012753 -0.046357 0.432 0.30247 -0.70179 -0.64498
0.012753 -0.045558 0.432 0.26569 -0.72774 -0.6323
0.012723 -0.044655 0.431 0.18019 -0.67476 -0.7157
0.012723 -0.043858 0.431 0.13399 -0.70071 -0.70075
0.012723 -0.04306 0.431 0.10034 -0.71781 -0.68897
0.012723 -0.042263 0.431 0.053612 -0.72711 -0.68443
0.012723 -0.041465 0.431 0.01569 -0.72736 -0.68608
0.012723 -0.040668 0.431 -0.016387 -0.72215 -0.69154
0.012723 -0.03987 0.431 -0.032466 -0.71369 -0.69971
0.012723 -0.039073 0.431 -0.023312 -0.70123 -0.71255
0.012723 -0.038276 0.431 -0.0068529 -0.68576 -0.72779
0.012753 -0.037565 0.432 0.068885 -0.65729 -0.75048
0.012753 -0.036766 0.432 0.12911 -0.62521 -0.7697
0.012753 -0.035967 0.432 0.19675 -0.58862 -0.7841
0.012723 -0.035086 0.431 0.24351 -0.56279 -0.78992
0.012723 -0.034289 0.431 0.32743 -0.51317 -0.79337
0.012723 -0.033491 0.431 0.3977 -0.45995 -0.7939
0.012694 -0.032618 0.43 0.44342 -0.40803 -0.79805
0.012694 -0.031822 0.43 0.48292 -0.36411 -0.79637
0.012664 -0.030955 0.429 0.5044 -0.32747 -0.79897
0.012635 -0.030091 0.428 0.50866 -0.29945 -0.80722
0.012635 -0.029299 0.428 0.50929 -0.2878 -0.81104
0.012605 -0.02844 0.427 0.49033 -0.28286 -0.82436
0.012605 -0.02765 0.427 0.46212 -0.28231 -0.84069
0.012576 -0.026797 0.426 0.42397 -0.28487 -0.85971
0.012576 -0.026009 0.426 0.38422 -0.29699 -0.87417
0.012546 -0.025162 0.425 0.3409 -0.31388 -0.88615
0.012546 -0.024376 0.425 0.28701 -0.33155 -0.89872
0.012546 -0.023589 0.425 0.23264 -0.34752 -0.90835
0.012546 -0.022803 0.425 0.18251 -0.36881 -0.91141
0.012546 -0.022017 0.425 0.1383 -0.3879 -0.91127
0.012546 -0.02123 0.425 0.090299 -0.40139 -0.91145
0.012546 -0.020444 0.425 0.043944 -0.42013 -0.9064
0.012546 -0.019658 0.425 -0.0047365 -0.43833 -0.8988
0.012546 -0.018871 0.425 -0.056227 -0.45418 -0.88914
0.012546 -0.018085 0.425 -0.10949 -0.47529 -0.87299
0.012546 -0.017299 0.425 -0.15553 -0.48964 -0.85794
0.012546 -0.016512 0.425 -0.19569 -0.49941 -0.84397
0.012546 -0.015726 0.425 -0.22946 -0.50296 -0.8333
0.012546 -0.01494 0.425 -0.24877 -0.50982 -0.82353
0.012576 -0.014187 0.426 -0.27633 -0.52324 -0.80614
0.012576 -0.013399 0.426 -0.28823 -0.52786 -0.79893
0.012576 -0.012611 0.426 -0.29486 -0.53402 -0.79239
0.012605 -0.01185 0.427 -0.30785 -0.54113 -0.78256
0.012605 -0.01106 0.427 -0.31476 -0.54075 -0.78008
0.012605 -0.01027 0.427 -0.32083 -0.5398 -0.77826
0.012635 -0.0095023 0.428 -0.34422 -0.53424 -0.77207
0.012635 -0.0087105 0.428 -0.3627 -0.52639 -0.769
0.012635 -0.0079186 0.428 -0.37524 -0.51478 -0.77084
0.012664 -0.0071434 0.429 -0.40566 -0.51178 -0.75731
0.012664 -0.0063497 0.429 -0.40963 -0.50215 -0.76161
0.012694 -0.0055689 0.43 -0.41033 -0.50165 -0.76156
0.012694 -0.0047734 0.43 -0.41078 -0.49927 -0.76288
0.012694 -0.0039778 0.43 -0.39851 -0.49207 -0.77398
0.012723 -0.0031896 0.431 -0.40416 -0.51191 -0.75803
0.012723 -0.0023922 0.431 -0.38423 -0.50859 -0.77052
0.012753 -0.0015985 0.432 -0.38965 -0.53575 -0.7491
0.012753 -0.00079926 0.432 -0.37781 -0.52785 -0.76068
0.012782 0 0.433 -0.40773 -0.56496 -0.71733
0.012782 0.00080111 0.433 -0.38802 -0.5567 -0.73452
0.012812 0.0016059 0.434 -0.43931 -0.59625 -0.67193
0.012812 0.0024089 0.434 -0.4109 -0.58622 -0.69822
0.012841 0.0032192 0.435 -0.46826 -0.61363 -0.63576
0.013491 0.018601 0.457 -0.083936 -0.7519 -0.65391
0.013491 0.019447 0.457 -0.11436 -0.75918 -0.64076
0.013491 0.020292 0.457 -0.10497 -0.7763 -0.62156
0.013491 0.021138 0.457 -0.053848 -0.78466 -0.61758
0.01352 0.022031 0.458 -0.23352 -0.71885 -0.65477
0.014303 -0.097021 0.456 -0.51397 0.074246 -0.85459
0.014334 -0.096389 0.457 -0.32249 0.099758 -0.9413
0.014334 -0.095543 0.457 -0.35421 0.10548 -0.9292
0.014334 -0.094698 0.457 -0.37298 0.098555 -0.92259
0.014365 -0.094057 0.458 -0.26738 0.10876 -0.95743
0.014365 -0.09321 0.458 -0.27292 0.10513 -0.95627
0.014365 -0.092363 0.458 -0.24059 0.10726 -0.96468
0.014365 -0.091515 0.458 -0.2093 0.099619 -0.97276
0.014365 -0.090668 0.458 -0.16429 0.089106 -0.98238
0.014397 -0.090017 0.459 -0.078664 0.059077 -0.99515
0.014397 -0.089167 0.459 -0.019497 0.041803 -0.99894
0.014397 -0.088318 0.459 0.083617 0.019392 -0.99631
0.014397 -0.087469 0.459 0.21172 -0.011413 -0.97726
0.014397 -0.08662 0.459 0.34893 -0.046456 -0.936
0.014365 -0.085584 0.458 0.45253 -0.059013 -0.8898
0.014365 -0.084736 0.458 0.52661 -0.061547 -0.84788
0.014334 -0.083706 0.457 0.59054 -0.073541 -0.80365
0.014303 -0.082679 0.456 0.63788 -0.097289 -0.76396
0.014271 -0.081656 0.455 0.66231 -0.11129 -0.74092
0.01424 -0.080636 0.454 0.65247 -0.10611 -0.75035
0.01424 -0.079796 0.454 0.65642 -0.12521 -0.74393
0.014208 -0.078783 0.453 0.62015 -0.12519 -0.77443
0.014177 -0.077772 0.452 0.57633 -0.12944 -0.8069
0.014177 -0.076936 0.452 0.55728 -0.16131 -0.8145
0.014146 -0.075932 0.451 0.52209 -0.17234 -0.8353
0.014146 -0.075097 0.451 0.48647 -0.20683 -0.84887
0.014114 -0.074098 0.45 0.46103 -0.23921 -0.85453
0.014114 -0.073265 0.45 0.44694 -0.26233 -0.85524
0.014114 -0.072433 0.45 0.43555 -0.27959 -0.85565
0.014083 -0.071441 0.449 0.45283 -0.30624 -0.83735
0.014083 -0.070611 0.449 0.45576 -0.32277 -0.82952
0.014052 -0.069624 0.448 0.49608 -0.35438 -0.79267
0.014052 -0.068796 0.448 0.50415 -0.35936 -0.7853
0.01402 -0.067815 0.447 0.53897 -0.39355 -0.74473
0.01402 -0.066988 0.447 0.53044 -0.38949 -0.75295
0.013989 -0.066013 0.446 0.55678 -0.44577 -0.70092
0.013958 -0.065042 0.445 0.56244 -0.48203 -0.6718
0.013926 -0.064074 0.444 0.55533 -0.50623 -0.65981
0.013926 -0.063253 0.444 0.53088 -0.52347 -0.66644
0.013895 -0.06229 0.443 0.5266 -0.54983 -0.64837
0.013895 -0.061471 0.443 0.48867 -0.55517 -0.67304
0.013863 -0.060514 0.442 0.49806 -0.57899 -0.64553
0.013832 -0.059562 0.441 0.51486 -0.59691 -0.61532
0.013801 -0.058612 0.44 0.51192 -0.60663 -0.60823
0.013769 -0.057667 0.439 0.49028 -0.5998 -0.63234
0.013769 -0.056855 0.439 0.48725 -0.62062 -0.61435
0.013738 -0.055915 0.438 0.43957 -0.61537 -0.65429
0.013707 -0.054979 0.437 0.3801 -0.60292 -0.70143
0.013707 -0.05417 0.437 0.3671 -0.63276 -0.6818
0.013707 -0.053362 0.437 0.34438 -0.64974 -0.67767
0.013675 -0.052433 0.436 0.32467 -0.65342 -0.68384
0.013675 -0.051626 0.436 0.31709 -0.66516 -0.67603
0.013675 -0.05082 0.436 0.29532 -0.67049 -0.68061
0.013675 -0.050013 0.436 0.28182 -0.66264 -0.69389
0.013644 -0.049093 0.435 0.31496 -0.69101 -0.65062
0.013613 -0.048178 0.434 0.33764 -0.71476 -0.61248
0.013613 -0.047375 0.434 0.31959 -0.72933 -0.60493
0.013581 -0.046464 0.433 0.30819 -0.72352 -0.61769
0.013581 -0.045663 0.433 0.26915 -0.7466 -0.6084
0.01355 -0.044759 0.432 0.17978 -0.70793 -0.68302
0.01355 -0.043959 0.432 0.13968 -0.72806 -0.67113
0.01355 -0.04316 0.432 0.10501 -0.7417 -0.66246
0.01355 -0.042361 0.432 0.061914 -0.74818 -0.6606
0.01355 -0.041562 0.432 0.030624 -0.74611 -0.66512
0.01355 -0.040762 0.432 0.00789 -0.74027 -0.67226
0.01355 -0.039963 0.432 0.0021899 -0.72783 -0.68576
0.01355 -0.039164 0.432 0.014484 -0.71374 -0.70026
0.01355 -0.038364 0.432 0.034836 -0.69147 -0.72156
0.01355 -0.037565 0.432 0.086786 -0.66288 -0.74368
0.01355 -0.036766 0.432 0.15057 -0.63225 -0.75999
0.01355 -0.035967 0.432 0.22447 -0.59527 -0.77153
0.01355 -0.035167 0.432 0.31033 -0.54475 -0.77907
0.01355 -0.034368 0.432 0.38483 -0.49049 -0.78187
0.013518 -0.033491 0.431 0.44489 -0.43392 -0.78345
0.013518 -0.032694 0.431 0.48665 -0.38881 -0.7823
0.013487 -0.031822 0.43 0.51372 -0.33763 -0.78874
0.013456 -0.030955 0.429 0.52488 -0.30606 -0.79425
0.013424 -0.030091 0.428 0.51866 -0.28557 -0.80588
0.013424 -0.029299 0.428 0.51317 -0.28628 -0.80913
0.013393 -0.02844 0.427 0.48277 -0.2876 -0.82717
0.013393 -0.02765 0.427 0.45422 -0.29464 -0.84076
0.013362 -0.026797 0.426 0.41516 -0.30151 -0.85833
0.013362 -0.026009 0.426 0.37086 -0.31673 -0.87301
0.013362 -0.025221 0.426 0.32315 -0.3334 -0.88567
0.01333 -0.024376 0.425 0.27195 -0.35124 -0.89592
0.01333 -0.023589 0.425 0.21152 -0.37151 -0.90401
0.01333 -0.022803 0.425 0.1628 -0.39686 -0.90332
0.01333 -0.022017 0.425 0.11766 -0.41917 -0.90025
0.01333 -0.02123 0.425 0.071045 -0.43264 -0.89876
0.01333 -0.020444 0.425 0.022588 -0.44956 -0.89296
0.01333 -0.019658 0.425 -0.031678 -0.46642 -0.884
0.01333 -0.018871 0.425 -0.080975 -0.48084 -0.87306
0.01333 -0.018085 0.425 -0.12939 -0.49626 -0.85848
0.01333 -0.017299 0.425 -0.17006 -0.50491 -0.84625
0.01333 -0.016512 0.425 -0.20117 -0.51085 -0.8358
0.013362 -0.015763 0.426 -0.24572 -0.52594 -0.81425
0.013362 -0.014975 0.426 -0.26716 -0.53116 -0.80405
0.013362 -0.014187 0.426 -0.28037 -0.53319 -0.79818
0.013393 -0.01343 0.427 -0.29556 -0.53831 -0.78922
0.013393 -0.01264 0.427 -0.30189 -0.54222 -0.78413
0.013393 -0.01185 0.427 -0.30283 -0.54559 -0.78142
0.013393 -0.01106 0.427 -0.30517 -0.53865 -0.78532
0.013424 -0.010294 0.428 -0.31862 -0.54649 -0.77448
0.013424 -0.0095023 0.428 -0.33551 -0.53743 -0.77369
0.013456 -0.0087308 0.429 -0.36105 -0.53434 -0.76428
0.013456 -0.0079371 0.429 -0.37784 -0.52547 -0.76231
0.013456 -0.0071434 0.429 -0.39613 -0.51457 -0.76046
0.013487 -0.0063645 0.43 -0.40664 -0.51369 -0.75549
0.013487 -0.0055689 0.43 -0.40516 -0.50792 -0.76018
0.013518 -0.0047845 0.431 -0.41277 -0.51532 -0.75104
0.013518 -0.003987 0.431 -0.40879 -0.51934 -0.75045
0.01355 -0.003197 0.432 -0.41511 -0.53137 -0.73846
0.01355 -0.0023978 0.432 -0.40228 -0.53327 -0.74417
0.01355 -0.0015985 0.432 -0.3754 -0.52487 -0.76393
0.013581 -0.00080111 0.433 -0.41336 -0.55875 -0.71898
0.013581 0 0.433 -0.38593 -0.54766 -0.74238
0.013613 0.00080296 0.434 -0.42554 -0.58932 -0.68674
0.013613 0.0016059 0.434 -0.39118 -0.57611 -0.71768
0.013644 0.0024144 0.435 -0.4429 -0.61635 -0.65111
0.013675 0.0032266 0.436 -0.48628 -0.63256 -0.60283
0.014365 0.018642 0.458 -0.072625 -0.75593 -0.65061
0.014365 0.019489 0.458 -0.11466 -0.75866 -0.64132
0.014365 0.020337 0.458 -0.095441 -0.77233 -0.62801
0.014365 0.021184 0.458 -0.022721 -0.77449 -0.63218
0.015144 -0.097021 0.456 -0.49477 0.019472 -0.8688
0.015177 -0.096389 0.457 -0.29743 0.047961 -0.95354
0.015177 -0.095543 0.457 -0.3224 0.051359 -0.94521
0.015177 -0.094698 0.457 -0.34493 0.042224 -0.93768
0.01521 -0.094057 0.458 -0.25566 0.053674 -0.96528
0.01521 -0.09321 0.458 -0.26784 0.050321 -0.96215
0.01521 -0.092363 0.458 -0.24075 0.052932 -0.96914
0.01521 -0.091515 0.458 -0.21466 0.048522 -0.97548
0.015244 -0.090866 0.459 -0.1738 0.040218 -0.98396
0.015244 -0.090017 0.459 -0.097111 0.0184 -0.9951
0.015244 -0.089167 0.459 -0.044846 0.0019444 -0.99899
0.015244 -0.088318 0.459 0.048724 -0.022351 -0.99856
0.015244 -0.087469 0.459 0.17183 -0.053608 -0.98367
0.015244 -0.08662 0.459 0.31462 -0.084648 -0.94544
0.01521 -0.085584 0.458 0.42589 -0.095647 -0.89971
0.01521 -0.084736 0.458 0.50781 -0.094804 -0.85623
0.015177 -0.083706 0.457 0.57643 -0.10817 -0.80996
0.015177 -0.08286 0.457 0.60439 -0.10533 -0.7897
0.015144 -0.081835 0.456 0.64894 -0.13895 -0.74804
0.015111 -0.080814 0.455 0.6544 -0.15825 -0.7394
0.015077 -0.079796 0.454 0.64775 -0.15507 -0.74591
0.015044 -0.078783 0.453 0.6071 -0.15384 -0.77959
0.015044 -0.077944 0.453 0.58748 -0.18421 -0.78799
0.015011 -0.076936 0.452 0.54433 -0.19213 -0.81657
0.015011 -0.0761 0.452 0.51184 -0.20993 -0.83304
0.014978 -0.075097 0.451 0.47014 -0.23273 -0.85136
0.014978 -0.074263 0.451 0.43966 -0.26051 -0.85955
0.014945 -0.073265 0.45 0.42487 -0.27561 -0.86228
0.014945 -0.072433 0.45 0.41482 -0.2949 -0.86079
0.014945 -0.0716 0.45 0.41224 -0.30624 -0.85807
0.014911 -0.070611 0.449 0.43536 -0.34038 -0.83343
0.014911 -0.06978 0.449 0.44348 -0.34667 -0.82653
0.014878 -0.068796 0.448 0.48956 -0.38228 -0.7837
0.014878 -0.067967 0.448 0.49697 -0.3798 -0.78024
0.014845 -0.066988 0.447 0.52843 -0.4186 -0.7386
0.014812 -0.066013 0.446 0.55161 -0.45818 -0.697
0.014812 -0.065188 0.446 0.53501 -0.46638 -0.70445
0.014779 -0.064218 0.445 0.53644 -0.50314 -0.67756
0.014745 -0.063253 0.444 0.52127 -0.52877 -0.66983
0.014745 -0.062431 0.444 0.50618 -0.54083 -0.67178
0.014712 -0.061471 0.443 0.49089 -0.5721 -0.65706
0.014712 -0.060651 0.443 0.46285 -0.57329 -0.6761
0.014679 -0.059697 0.442 0.48718 -0.59535 -0.63892
0.014646 -0.058746 0.441 0.501 -0.61336 -0.61057
0.014613 -0.057798 0.44 0.4893 -0.61435 -0.619
0.014613 -0.056984 0.44 0.48304 -0.62744 -0.61074
0.014579 -0.056043 0.439 0.4508 -0.62619 -0.63614
0.014546 -0.055105 0.438 0.39828 -0.614 -0.68145
0.014546 -0.054294 0.438 0.38124 -0.63871 -0.66835
0.014546 -0.053484 0.438 0.35089 -0.65189 -0.67225
0.014513 -0.052553 0.437 0.31658 -0.65655 -0.68463
0.014513 -0.051745 0.437 0.30728 -0.66376 -0.68191
0.014513 -0.050936 0.437 0.2727 -0.66504 -0.69524
0.01448 -0.050013 0.436 0.30065 -0.68487 -0.66375
0.01448 -0.049206 0.436 0.28418 -0.6878 -0.66796
0.01448 -0.0484 0.436 0.25655 -0.68521 -0.68167
0.014446 -0.047484 0.435 0.28962 -0.72282 -0.62742
0.014446 -0.046679 0.435 0.26565 -0.72662 -0.6336
0.014413 -0.045769 0.434 0.26644 -0.75462 -0.59963
0.014413 -0.044966 0.434 0.22691 -0.76929 -0.59725
0.01438 -0.044061 0.433 0.15735 -0.74358 -0.64986
0.01438 -0.04326 0.433 0.11695 -0.75549 -0.64464
0.01438 -0.042459 0.433 0.073587 -0.76277 -0.64247
0.01438 -0.041658 0.433 0.044797 -0.75735 -0.65147
0.01438 -0.040857 0.433 0.026861 -0.74904 -0.66198
0.01438 -0.040056 0.433 0.027307 -0.73515 -0.67735
0.01438 -0.039254 0.433 0.046857 -0.7182 -0.69425
0.01438 -0.038453 0.433 0.083865 -0.69399 -0.71509
0.01438 -0.037652 0.433 0.14183 -0.66514 -0.73313
0.01438 -0.036851 0.433 0.21249 -0.62747 -0.74909
0.01438 -0.03605 0.433 0.29006 -0.58183 -0.75983
0.014347 -0.035167 0.432 0.36181 -0.51772 -0.77528
0.014347 -0.034368 0.432 0.43728 -0.46631 -0.76899
0.014314 -0.033491 0.431 0.48193 -0.40493 -0.77703
0.014314 -0.032694 0.431 0.51961 -0.37042 -0.76993
0.01428 -0.031822 0.43 0.52999 -0.32281 -0.78416
0.014247 -0.030955 0.429 0.53318 -0.28981 -0.79481
0.014247 -0.030161 0.429 0.53653 -0.28717 -0.79352
0.014214 -0.029299 0.428 0.51568 -0.28394 -0.80836
0.014214 -0.028507 0.428 0.4851 -0.29472 -0.82329
0.014181 -0.02765 0.427 0.44634 -0.30612 -0.84087
0.014181 -0.02686 0.427 0.40282 -0.32101 -0.85714
0.014148 -0.026009 0.426 0.357 -0.33866 -0.87055
0.014148 -0.025221 0.426 0.30347 -0.35908 -0.88259
0.014148 -0.024433 0.426 0.24799 -0.3747 -0.89336
0.014148 -0.023645 0.426 0.18527 -0.39686 -0.89899
0.014114 -0.022803 0.425 0.13216 -0.42458 -0.89569
0.014114 -0.022017 0.425 0.090007 -0.44785 -0.88957
0.014114 -0.02123 0.425 0.043846 -0.46329 -0.88512
0.014114 -0.020444 0.425 -0.00092648 -0.47674 -0.87904
0.014114 -0.019658 0.425 -0.054074 -0.49081 -0.86959
0.014114 -0.018871 0.425 -0.090336 -0.49871 -0.86205
0.014114 -0.018085 0.425 -0.12842 -0.50544 -0.85325
0.014114 -0.017299 0.425 -0.15775 -0.50431 -0.84899
0.014148 -0.016551 0.426 -0.21903 -0.53363 -0.81686
0.014148 -0.015763 0.426 -0.24518 -0.53796 -0.80652
0.014148 -0.014975 0.426 -0.26015 -0.54164 -0.79934
0.014181 -0.01422 0.427 -0.28454 -0.54524 -0.78851
0.014181 -0.01343 0.427 -0.29469 -0.54579 -0.78439
0.014214 -0.01267 0.428 -0.30268 -0.54836 -0.77954
0.014214 -0.011878 0.428 -0.3067 -0.55189 -0.77547
0.014214 -0.011086 0.428 -0.3115 -0.55074 -0.77437
0.014214 -0.010294 0.428 -0.31195 -0.54548 -0.77791
0.014247 -0.0095245 0.429 -0.34005 -0.54767 -0.76448
0.014247 -0.0087308 0.429 -0.35613 -0.53891 -0.76338
0.014247 -0.0079371 0.429 -0.36328 -0.52908 -0.76688
0.01428 -0.00716 0.43 -0.39474 -0.52879 -0.75138
0.01428 -0.0063645 0.43 -0.39254 -0.51995 -0.75866
0.014314 -0.0055819 0.431 -0.40366 -0.52846 -0.74685
0.014314 -0.0047845 0.431 -0.40277 -0.52634 -0.74882
0.014347 -0.0039963 0.432 -0.41612 -0.53805 -0.73304
0.014347 -0.003197 0.432 -0.41056 -0.53585 -0.73777
0.014347 -0.0023978 0.432 -0.38399 -0.52165 -0.76186
0.01438 -0.0016022 0.433 -0.41396 -0.55442 -0.72198
0.01438 -0.00080111 0.433 -0.39657 -0.53472 -0.7462
0.014413 0 0.434 -0.43107 -0.58003 -0.69119
0.014446 0.00080481 0.435 -0.4691 -0.61125 -0.63743
0.014446 0.0016096 0.435 -0.42476 -0.61137 -0.66769
0.01448 0.00242 0.436 -0.46734 -0.6327 -0.61748
0.014513 0.003234 0.437 -0.5083 -0.63593 -0.58072
0.015244 0.018683 0.459 -0.070137 -0.76302 -0.64256
0.015244 0.019532 0.459 -0.11521 -0.75773 -0.64232
0.015244 0.020381 0.459 -0.092858 -0.74963 -0.65532
0.015244 0.02123 0.459 -0.01812 -0.75119 -0.65984
0.01602 -0.096389 0.457 -0.28145 -0.013602 -0.95948
0.01602 -0.095543 0.457 -0.31027 -0.017013 -0.9505
0.01602 -0.094698 0.457 -0.33434 -0.025079 -0.94212
0.016055 -0.094057 0.458 -0.26265 0.0049722 -0.96488
0.016055 -0.09321 0.458 -0.27648 0.0041515 -0.96101
0.016055 -0.092363 0.458 -0.25176 0.011326 -0.96772
0.016055 -0.091515 0.458 -0.22851 0.0066464 -0.97352
0.01609 -0.090866 0.459 -0.18879 -0.0028671 -0.98201
0.01609 -0.090017 0.459 -0.122 -0.025106 -0.99221
0.01609 -0.089167 0.459 -0.07196 -0.043638 -0.99645
0.01609 -0.088318 0.459 0.022389 -0.066982 -0.9975
0.01609 -0.087469 0.459 0.14424 -0.091098 -0.98534
0.01609 -0.08662 0.459 0.28491 -0.12031 -0.95097
0.016055 -0.085584 0.458 0.40121 -0.13778 -0.90557
0.016055 -0.084736 0.458 0.48939 -0.14141 -0.86052
0.016055 -0.083889 0.458 0.5276 -0.1336 -0.83892
0.01602 -0.08286 0.457 0.60397 -0.16059 -0.78066
0.015985 -0.081835 0.456 0.64138 -0.18397 -0.74484
0.01595 -0.080814 0.455 0.64608 -0.19431 -0.73813
0.015915 -0.079796 0.454 0.63513 -0.18666 -0.74951
0.01588 -0.078783 0.453 0.58826 -0.17611 -0.78926
0.01588 -0.077944 0.453 0.57647 -0.21066 -0.7895
0.015845 -0.076936 0.452 0.52783 -0.21541 -0.82158
0.015845 -0.0761 0.452 0.49591 -0.23875 -0.83491
0.01581 -0.075097 0.451 0.45488 -0.25229 -0.85407
0.01581 -0.074263 0.451 0.42787 -0.27849 -0.85987
0.01581 -0.073428 0.451 0.40447 -0.29264 -0.86647
0.015775 -0.072433 0.45 0.39416 -0.31685 -0.8627
0.015775 -0.0716 0.45 0.39389 -0.33153 -0.85728
0.015775 -0.070768 0.45 0.3914 -0.34211 -0.85426
0.01574 -0.06978 0.449 0.42755 -0.37177 -0.82401
0.01574 -0.068949 0.449 0.43811 -0.37414 -0.81736
0.015705 -0.067967 0.448 0.48661 -0.40791 -0.77254
0.015705 -0.067138 0.448 0.49009 -0.40867 -0.76993
0.01567 -0.066161 0.447 0.51779 -0.44364 -0.73149
0.015635 -0.065188 0.446 0.52951 -0.48123 -0.69859
0.015635 -0.064363 0.446 0.51264 -0.48995 -0.70509
0.0156 -0.063395 0.445 0.50808 -0.52411 -0.68349
0.015565 -0.062431 0.444 0.49823 -0.54744 -0.67237
0.015565 -0.06161 0.444 0.4713 -0.56724 -0.67537
0.01553 -0.060651 0.443 0.46645 -0.59278 -0.65654
0.01553 -0.059832 0.443 0.45301 -0.59269 -0.66596
0.015494 -0.058879 0.442 0.47831 -0.61149 -0.63032
0.015459 -0.05793 0.441 0.48016 -0.62731 -0.61314
0.015424 -0.056984 0.44 0.4651 -0.61165 -0.63997
0.015424 -0.05617 0.44 0.45668 -0.63983 -0.61811
0.015389 -0.05523 0.439 0.41092 -0.62561 -0.66314
0.015389 -0.054418 0.439 0.3934 -0.64608 -0.65408
0.015354 -0.053484 0.438 0.33332 -0.64305 -0.68948
0.015354 -0.052673 0.438 0.32216 -0.66055 -0.67815
0.015354 -0.051863 0.438 0.30154 -0.66456 -0.68369
0.015319 -0.050936 0.437 0.27938 -0.67568 -0.6822
0.015319 -0.050128 0.437 0.27984 -0.68066 -0.67704
0.015319 -0.049319 0.437 0.25406 -0.68153 -0.68627
0.015319 -0.048511 0.437 0.22044 -0.67465 -0.70445
0.015284 -0.047593 0.436 0.25505 -0.71898 -0.64654
0.015284 -0.046786 0.436 0.23018 -0.72373 -0.65056
0.015249 -0.045874 0.435 0.25294 -0.74741 -0.61433
0.015249 -0.045069 0.435 0.21876 -0.76311 -0.60811
0.015249 -0.044265 0.435 0.18055 -0.77095 -0.61077
0.015249 -0.04346 0.435 0.14438 -0.77242 -0.61848
0.015214 -0.042557 0.434 0.093275 -0.77725 -0.62225
0.015214 -0.041754 0.434 0.063497 -0.76896 -0.63613
0.015214 -0.040951 0.434 0.054231 -0.75651 -0.65173
0.015214 -0.040148 0.434 0.064558 -0.73576 -0.67416
0.015214 -0.039345 0.434 0.095663 -0.71054 -0.69712
0.015214 -0.038542 0.434 0.14442 -0.67594 -0.72267
0.015214 -0.037739 0.434 0.22454 -0.63379 -0.7402
0.015214 -0.036936 0.434 0.30856 -0.58442 -0.7505
0.015179 -0.03605 0.433 0.3386 -0.54568 -0.76654
0.015179 -0.035249 0.433 0.42533 -0.49377 -0.75848
0.015144 -0.034368 0.432 0.48204 -0.42337 -0.76707
0.015144 -0.033569 0.432 0.53173 -0.3821 -0.75582
0.015109 -0.032694 0.431 0.5486 -0.34047 -0.76362
0.015074 -0.031822 0.43 0.54617 -0.29751 -0.78306
0.015039 -0.030955 0.429 0.53933 -0.27425 -0.79619
0.015039 -0.030161 0.429 0.53973 -0.2861 -0.79174
0.015039 -0.029367 0.429 0.5142 -0.30031 -0.80337
0.015004 -0.028507 0.428 0.47878 -0.31403 -0.81985
0.014969 -0.02765 0.427 0.43307 -0.32363 -0.84126
0.014969 -0.02686 0.427 0.38704 -0.34755 -0.85405
0.014969 -0.02607 0.427 0.33378 -0.37004 -0.86698
0.014934 -0.025221 0.426 0.28041 -0.39607 -0.87436
0.014934 -0.024433 0.426 0.22242 -0.4168 -0.88136
0.014934 -0.023645 0.426 0.15994 -0.43861 -0.88433
0.014934 -0.022857 0.426 0.10452 -0.46397 -0.87967
0.014934 -0.022068 0.426 0.063402 -0.48199 -0.87388
0.014934 -0.02128 0.426 0.015469 -0.50089 -0.86537
0.014934 -0.020492 0.426 -0.02887 -0.51282 -0.85801
0.014934 -0.019704 0.426 -0.073946 -0.52596 -0.84729
0.014934 -0.018916 0.426 -0.11483 -0.54022 -0.83365
0.014934 -0.018128 0.426 -0.15217 -0.54837 -0.82227
0.014934 -0.01734 0.426 -0.1862 -0.55212 -0.81271
0.014934 -0.016551 0.426 -0.21349 -0.55155 -0.80636
0.014969 -0.0158 0.427 -0.24898 -0.55865 -0.79115
0.014969 -0.01501 0.427 -0.26418 -0.56 -0.78524
0.015004 -0.014253 0.428 -0.2833 -0.56097 -0.77785
0.015004 -0.013462 0.428 -0.29649 -0.56234 -0.77192
0.015004 -0.01267 0.428 -0.30391 -0.55589 -0.77371
0.015004 -0.011878 0.428 -0.30237 -0.55327 -0.77619
0.015039 -0.011112 0.429 -0.31851 -0.55977 -0.76499
0.015039 -0.010318 0.429 -0.32405 -0.5567 -0.7649
0.015039 -0.0095245 0.429 -0.33603 -0.54938 -0.76502
0.015074 -0.0087512 0.43 -0.35791 -0.54847 -0.7557
0.015074 -0.0079556 0.43 -0.36631 -0.54354 -0.75523
0.015074 -0.00716 0.43 -0.37506 -0.53235 -0.7589
0.015109 -0.0063793 0.431 -0.3912 -0.53753 -0.74701
0.015109 -0.0055819 0.431 -0.3871 -0.53035 -0.75425
0.015144 -0.0047956 0.432 -0.41067 -0.54081 -0.73408
0.015144 -0.0039963 0.432 -0.40652 -0.53652 -0.73952
0.015179 -0.0032044 0.433 -0.43342 -0.55838 -0.70736
0.015179 -0.0024033 0.433 -0.41865 -0.54766 -0.72443
0.015179 -0.0016022 0.433 -0.38837 -0.52529 -0.75713
0.015214 -0.00080296 0.434 -0.43384 -0.57256 -0.69567
0.015249 0 0.435 -0.45734 -0.61626 -0.64114
0.015284 0.00080666 0.436 -0.4952 -0.63337 -0.59466
0.015319 0.001617 0.437 -0.5382 -0.62359 -0.56699
0.015319 0.0024255 0.437 -0.48203 -0.6455 -0.59244
0.015354 0.0032414 0.438 -0.5214 -0.63021 -0.57531
0.016125 0.019574 0.46 -0.11515 -0.75665 -0.6436
0.016125 0.020426 0.46 -0.10265 -0.73931 -0.6655
0.016161 0.021323 0.461 -0.24063 -0.78392 -0.57233
0.016863 -0.096389 0.457 -0.27635 -0.078733 -0.95783
0.016863 -0.095543 0.457 -0.30158 -0.081649 -0.94994
0.016863 -0.094698 0.457 -0.32329 -0.080455 -0.94287
0.0169 -0.094057 0.458 -0.26413 -0.044126 -0.96348
0.0169 -0.09321 0.458 -0.27738 -0.046226 -0.95965
0.0169 -0.092363 0.458 -0.25422 -0.040525 -0.9663
0.0169 -0.091515 0.458 -0.23727 -0.044484 -0.97042
0.016937 -0.090866 0.459 -0.19869 -0.048583 -0.97886
0.016937 -0.090017 0.459 -0.13694 -0.06924 -0.98816
0.016937 -0.089167 0.459 -0.089998 -0.092644 -0.99162
0.016937 -0.088318 0.459 -0.0077524 -0.1179 -0.993
0.016937 -0.087469 0.459 0.11046 -0.13793 -0.98426
0.016937 -0.08662 0.459 0.25228 -0.16246 -0.95392
0.016937 -0.085771 0.459 0.3444 -0.15683 -0.92563
0.0169 -0.084736 0.458 0.47517 -0.19339 -0.85838
0.0169 -0.083889 0.458 0.52332 -0.18924 -0.83086
0.016863 -0.08286 0.457 0.59403 -0.20811 -0.77706
0.016827 -0.081835 0.456 0.62982 -0.22105 -0.74462
0.01679 -0.080814 0.455 0.6332 -0.22186 -0.7415
0.016753 -0.079796 0.454 0.6165 -0.20429 -0.76039
0.016753 -0.078957 0.454 0.60873 -0.23439 -0.75796
0.016716 -0.077944 0.453 0.55968 -0.23265 -0.79538
0.016679 -0.076936 0.452 0.50807 -0.23397 -0.82893
0.016679 -0.0761 0.452 0.48508 -0.2642 -0.8336
0.016642 -0.075097 0.451 0.43977 -0.26412 -0.8584
0.016642 -0.074263 0.451 0.41305 -0.29768 -0.86068
0.016642 -0.073428 0.451 0.39009 -0.31532 -0.8651
0.016642 -0.072594 0.451 0.37061 -0.33003 -0.86817
0.016605 -0.0716 0.45 0.37501 -0.35528 -0.85624
0.016605 -0.070768 0.45 0.38002 -0.36776 -0.84872
0.016605 -0.069935 0.45 0.38684 -0.37569 -0.84215
0.016568 -0.068949 0.449 0.43053 -0.40125 -0.80848
0.016568 -0.068118 0.449 0.43521 -0.40081 -0.80619
0.016531 -0.067138 0.448 0.48195 -0.43729 -0.75928
0.016531 -0.066309 0.448 0.48409 -0.43762 -0.75772
0.016494 -0.065334 0.447 0.50069 -0.4757 -0.7232
0.016458 -0.064363 0.446 0.50351 -0.50601 -0.70031
0.016458 -0.063537 0.446 0.48129 -0.52075 -0.70511
0.016421 -0.062572 0.445 0.47614 -0.55107 -0.68528
0.016384 -0.06161 0.444 0.45594 -0.57654 -0.67802
0.016384 -0.060788 0.444 0.43891 -0.59535 -0.67299
0.016384 -0.059967 0.444 0.41764 -0.59114 -0.69002
0.016347 -0.059012 0.443 0.44635 -0.61726 -0.64789
0.01631 -0.058061 0.442 0.45972 -0.6344 -0.62144
0.01631 -0.057243 0.442 0.45395 -0.6322 -0.6279
0.016273 -0.056298 0.441 0.45285 -0.65307 -0.60699
0.016236 -0.055356 0.44 0.42499 -0.63914 -0.641
0.016236 -0.054542 0.44 0.40509 -0.65751 -0.63528
0.016199 -0.053606 0.439 0.34415 -0.65276 -0.67489
0.016199 -0.052794 0.439 0.32995 -0.66527 -0.66974
0.016162 -0.051863 0.438 0.28953 -0.65956 -0.69365
0.016162 -0.051053 0.438 0.26958 -0.67409 -0.6877
0.016162 -0.050242 0.438 0.26256 -0.67778 -0.68679
0.016162 -0.049432 0.438 0.23851 -0.67769 -0.69559
0.016125 -0.048511 0.437 0.23871 -0.7059 -0.66687
0.016125 -0.047702 0.437 0.22187 -0.71305 -0.66508
0.016125 -0.046894 0.437 0.19866 -0.71677 -0.66842
0.016089 -0.04598 0.436 0.2247 -0.74695 -0.62576
0.016089 -0.045173 0.436 0.19358 -0.76396 -0.61555
0.016089 -0.044366 0.436 0.16305 -0.77027 -0.61653
0.016089 -0.04356 0.436 0.13923 -0.77122 -0.62115
0.016052 -0.042655 0.435 0.11093 -0.77719 -0.61941
0.016052 -0.04185 0.435 0.082915 -0.76894 -0.63392
0.016052 -0.041045 0.435 0.083776 -0.75501 -0.65034
0.016052 -0.040241 0.435 0.10115 -0.73265 -0.67305
0.016052 -0.039436 0.435 0.14069 -0.7054 -0.69471
0.016052 -0.038631 0.435 0.20372 -0.66892 -0.71487
0.016052 -0.037826 0.435 0.29262 -0.62171 -0.72653
0.016015 -0.036936 0.434 0.32356 -0.58601 -0.7429
0.016015 -0.036133 0.434 0.40718 -0.53873 -0.73755
0.015978 -0.035249 0.433 0.46594 -0.46096 -0.75526
0.015978 -0.034448 0.433 0.52932 -0.4176 -0.73853
0.015941 -0.033569 0.432 0.56116 -0.35994 -0.74535
0.015904 -0.032694 0.431 0.56498 -0.31757 -0.76154
0.015904 -0.031896 0.431 0.57958 -0.30974 -0.75375
0.015867 -0.031027 0.43 0.55858 -0.29427 -0.77549
0.01583 -0.030161 0.429 0.53172 -0.28603 -0.79716
0.01583 -0.029367 0.429 0.50637 -0.31157 -0.80406
0.015793 -0.028507 0.428 0.46633 -0.32692 -0.82199
0.015793 -0.027715 0.428 0.42236 -0.35143 -0.83553
0.015756 -0.02686 0.427 0.3687 -0.37392 -0.85103
0.015756 -0.02607 0.427 0.31279 -0.39938 -0.86178
0.015756 -0.02528 0.427 0.25868 -0.42328 -0.86828
0.015756 -0.02449 0.427 0.20205 -0.44675 -0.87154
0.01572 -0.023645 0.426 0.14399 -0.46737 -0.87225
0.01572 -0.022857 0.426 0.084636 -0.4937 -0.8655
0.01572 -0.022068 0.426 0.041578 -0.50927 -0.8596
0.01572 -0.02128 0.426 -0.0062416 -0.52996 -0.848
0.01572 -0.020492 0.426 -0.048614 -0.53945 -0.84061
0.01572 -0.019704 0.426 -0.090128 -0.54713 -0.83218
0.01572 -0.018916 0.426 -0.11869 -0.55516 -0.82323
0.015756 -0.01817 0.427 -0.16116 -0.56589 -0.80858
0.015756 -0.01738 0.427 -0.19808 -0.57094 -0.79674
0.015756 -0.01659 0.427 -0.22621 -0.56949 -0.79026
0.015756 -0.0158 0.427 -0.24688 -0.56866 -0.78465
0.015793 -0.015045 0.428 -0.26551 -0.57556 -0.77346
0.015793 -0.014253 0.428 -0.28366 -0.57141 -0.77008
0.015793 -0.013462 0.428 -0.29207 -0.56843 -0.76914
0.01583 -0.012699 0.429 -0.30917 -0.56675 -0.76368
0.01583 -0.011906 0.429 -0.3133 -0.56721 -0.76166
0.01583 -0.011112 0.429 -0.31334 -0.56587 -0.76263
0.015867 -0.010342 0.43 -0.32528 -0.56555 -0.75785
0.015867 -0.0095467 0.43 -0.33838 -0.56392 -0.75332
0.015867 -0.0087512 0.43 -0.34859 -0.55563 -0.75482
0.015904 -0.0079741 0.431 -0.36553 -0.55941 -0.74394
0.015904 -0.0071767 0.431 -0.37955 -0.55205 -0.74242
0.015904 -0.0063793 0.431 -0.36894 -0.54258 -0.75465
0.015941 -0.0055948 0.432 -0.3902 -0.55688 -0.73324
0.015941 -0.0047956 0.432 -0.38818 -0.54208 -0.7453
0.015978 -0.0040056 0.433 -0.42575 -0.56693 -0.70522
0.015978 -0.0032044 0.433 -0.41594 -0.55269 -0.72217
0.016015 -0.0024089 0.434 -0.45547 -0.57942 -0.67589
0.016052 -0.0016096 0.435 -0.47542 -0.61501 -0.62907
0.016052 -0.00080481 0.435 -0.46417 -0.6095 -0.64269
0.016089 0 0.436 -0.48158 -0.63944 -0.59933
0.016125 0.00080851 0.437 -0.51009 -0.63644 -0.57858
0.016162 0.0016207 0.438 -0.53734 -0.61428 -0.57786
0.016162 0.0024311 0.438 -0.47805 -0.64849 -0.59239
0.017011 0.019617 0.461 -0.11483 -0.75581 -0.64464
0.017011 0.02047 0.461 -0.10831 -0.74065 -0.6631
0.017707 -0.097234 0.457 -0.22124 -0.14157 -0.96489
0.017707 -0.096389 0.457 -0.27004 -0.14879 -0.95128
0.017707 -0.095543 0.457 -0.28653 -0.14668 -0.94678
0.017707 -0.094698 0.457 -0.30286 -0.13403 -0.94356
0.017745 -0.094057 0.458 -0.26034 -0.096537 -0.96068
0.017745 -0.09321 0.458 -0.27276 -0.094341 -0.95744
0.017745 -0.092363 0.458 -0.25348 -0.086451 -0.96347
0.017745 -0.091515 0.458 -0.23923 -0.089581 -0.96682
0.017745 -0.090668 0.458 -0.20843 -0.097759 -0.97314
0.017784 -0.090017 0.459 -0.15224 -0.11935 -0.98111
0.017784 -0.089167 0.459 -0.11413 -0.14538 -0.98277
0.017784 -0.088318 0.459 -0.039394 -0.17055 -0.98456
0.017784 -0.087469 0.459 0.068756 -0.19427 -0.97854
0.017784 -0.08662 0.459 0.21117 -0.21615 -0.95325
0.017784 -0.085771 0.459 0.3208 -0.22106 -0.92099
0.017784 -0.084921 0.459 0.37616 -0.20638 -0.90328
0.017745 -0.083889 0.458 0.50897 -0.24551 -0.82503
0.017707 -0.08286 0.457 0.57902 -0.26344 -0.77158
0.017668 -0.081835 0.456 0.6141 -0.26455 -0.74357
0.017629 -0.080814 0.455 0.61557 -0.24625 -0.74862
0.01759 -0.079796 0.454 0.59075 -0.22402 -0.77514
0.01759 -0.078957 0.454 0.59344 -0.26644 -0.7595
0.017552 -0.077944 0.453 0.53929 -0.26069 -0.80075
0.017552 -0.077106 0.453 0.51773 -0.29324 -0.80372
0.017513 -0.0761 0.452 0.46583 -0.29943 -0.83267
0.017513 -0.075264 0.452 0.43877 -0.31795 -0.84047
0.017474 -0.074263 0.451 0.39289 -0.32266 -0.86112
0.017474 -0.073428 0.451 0.37345 -0.3434 -0.86175
0.017474 -0.072594 0.451 0.35566 -0.36405 -0.8608
0.017435 -0.0716 0.45 0.35142 -0.38184 -0.85481
0.017435 -0.070768 0.45 0.3601 -0.39764 -0.84393
0.017435 -0.069935 0.45 0.37795 -0.40583 -0.83214
0.017435 -0.069103 0.45 0.39163 -0.40291 -0.82722
0.017397 -0.068118 0.449 0.4283 -0.43266 -0.79332
0.017397 -0.067288 0.449 0.43513 -0.43074 -0.79065
0.017358 -0.066309 0.448 0.47462 -0.46809 -0.74541
0.017319 -0.065334 0.447 0.48574 -0.49671 -0.71926
0.017319 -0.064507 0.447 0.47752 -0.50801 -0.71687
0.01728 -0.063537 0.446 0.46886 -0.53828 -0.7003
0.01728 -0.062712 0.446 0.4451 -0.55322 -0.70415
0.017242 -0.061748 0.445 0.43223 -0.58248 -0.68839
0.017242 -0.060925 0.445 0.40209 -0.59243 -0.69811
0.017203 -0.059967 0.444 0.42342 -0.618 -0.66241
0.017203 -0.059145 0.444 0.41646 -0.61658 -0.66812
0.017164 -0.058192 0.443 0.43708 -0.64345 -0.62844
0.017164 -0.057373 0.443 0.43331 -0.63578 -0.63877
0.017125 -0.056426 0.442 0.44125 -0.65962 -0.60844
0.017087 -0.055482 0.441 0.42812 -0.66138 -0.61586
0.017048 -0.054542 0.44 0.37044 -0.63932 -0.67383
0.017048 -0.053728 0.44 0.3581 -0.66605 -0.65432
0.017009 -0.052794 0.439 0.2985 -0.64504 -0.70344
0.017009 -0.051981 0.439 0.29213 -0.66852 -0.68391
0.017009 -0.051169 0.439 0.26686 -0.67915 -0.68377
0.01697 -0.050242 0.438 0.24626 -0.6773 -0.69326
0.01697 -0.049432 0.438 0.23796 -0.69361 -0.67991
0.01697 -0.048622 0.438 0.21139 -0.70453 -0.67746
0.01697 -0.047811 0.438 0.19116 -0.70943 -0.67836
0.01697 -0.047001 0.438 0.16721 -0.71135 -0.68266
0.016932 -0.046085 0.437 0.19739 -0.7428 -0.63976
0.016932 -0.045277 0.437 0.17732 -0.75675 -0.6292
0.016932 -0.044468 0.437 0.15175 -0.76397 -0.62716
0.016893 -0.04356 0.436 0.13879 -0.76477 -0.62918
0.016893 -0.042753 0.436 0.11636 -0.774 -0.62241
0.016893 -0.041946 0.436 0.10405 -0.7675 -0.63255
0.016893 -0.04114 0.436 0.12263 -0.75156 -0.64817
0.016893 -0.040333 0.436 0.15415 -0.72774 -0.6683
0.016893 -0.039526 0.436 0.20798 -0.69843 -0.68479
0.016893 -0.03872 0.436 0.28122 -0.65749 -0.69901
0.016854 -0.037826 0.435 0.30565 -0.62215 -0.72077
0.016854 -0.037021 0.435 0.39929 -0.57703 -0.71246
0.016854 -0.036216 0.435 0.46758 -0.52604 -0.71039
0.016815 -0.03533 0.434 0.52182 -0.45891 -0.7191
0.016777 -0.034448 0.433 0.55965 -0.39779 -0.72702
0.016738 -0.033569 0.432 0.57351 -0.34273 -0.74406
0.016699 -0.032694 0.431 0.5626 -0.3054 -0.76825
0.016699 -0.031896 0.431 0.58177 -0.31272 -0.75083
0.016661 -0.031027 0.43 0.5499 -0.30394 -0.77797
0.016661 -0.030231 0.43 0.5362 -0.31963 -0.78123
0.016622 -0.029367 0.429 0.49248 -0.33491 -0.8033
0.016622 -0.028574 0.429 0.45533 -0.35816 -0.81511
0.016583 -0.027715 0.428 0.40648 -0.37669 -0.83239
0.016583 -0.026923 0.428 0.35398 -0.40406 -0.84346
0.016583 -0.026131 0.428 0.30167 -0.42633 -0.85279
0.016544 -0.02528 0.427 0.24388 -0.45231 -0.85787
0.016544 -0.02449 0.427 0.1804 -0.47763 -0.85984
0.016544 -0.0237 0.427 0.11744 -0.49458 -0.86116
0.016544 -0.02291 0.427 0.060957 -0.51581 -0.85453
0.016544 -0.02212 0.427 0.017817 -0.52771 -0.84924
0.016544 -0.02133 0.427 -0.032516 -0.54511 -0.83774
0.016544 -0.02054 0.427 -0.07562 -0.55475 -0.82858
0.016544 -0.01975 0.427 -0.11168 -0.56287 -0.81896
0.016544 -0.01896 0.427 -0.14056 -0.57334 -0.80717
0.016544 -0.01817 0.427 -0.16743 -0.57498 -0.80086
0.016544 -0.01738 0.427 -0.19562 -0.57468 -0.79466
0.016583 -0.016629 0.428 -0.23228 -0.57908 -0.78148
0.016583 -0.015837 0.428 -0.2542 -0.57802 -0.77542
0.016583 -0.015045 0.428 -0.26631 -0.57798 -0.77137
0.016622 -0.014287 0.429 -0.28622 -0.57881 -0.76358
0.016622 -0.013493 0.429 -0.29859 -0.579 -0.75868
0.016622 -0.012699 0.429 -0.3052 -0.57116 -0.76199
0.016661 -0.011933 0.43 -0.31307 -0.57291 -0.75747
0.016661 -0.011138 0.43 -0.31774 -0.57486 -0.75404
0.016661 -0.010342 0.43 -0.31711 -0.57061 -0.75753
0.016699 -0.0095689 0.431 -0.33737 -0.57261 -0.7472
0.016699 -0.0087715 0.431 -0.34968 -0.57027 -0.74331
0.016699 -0.0079741 0.431 -0.3514 -0.56508 -0.74646
0.016738 -0.0071933 0.432 -0.38022 -0.57243 -0.72647
0.016738 -0.0063941 0.432 -0.37491 -0.56914 -0.7318
0.016777 -0.0056078 0.433 -0.40001 -0.58489 -0.70561
0.016777 -0.0048067 0.433 -0.40509 -0.57852 -0.70797
0.016777 -0.0040056 0.433 -0.39807 -0.56065 -0.7261
0.016815 -0.0032118 0.434 -0.4453 -0.58265 -0.67988
0.016815 -0.0024089 0.434 -0.42932 -0.55475 -0.71269
0.016854 -0.0016096 0.435 -0.46679 -0.60108 -0.6487
0.016893 -0.00080666 0.436 -0.48202 -0.63608 -0.60255
0.016932 0 0.437 -0.49098 -0.65235 -0.57739
0.01697 0.00081036 0.438 -0.50561 -0.6401 -0.57847
0.01697 0.0016207 0.438 -0.44622 -0.67136 -0.59175
0.017009 0.0024366 0.439 -0.47668 -0.65044 -0.59136
0.017009 0.0032488 0.439 -0.37462 -0.67822 -0.6322
0.01855 -0.09808 0.457 -0.16528 -0.19671 -0.96643
0.01855 -0.097234 0.457 -0.22556 -0.20391 -0.95265
0.01855 -0.096389 0.457 -0.27523 -0.21104 -0.93793
0.01855 -0.095543 0.457 -0.29241 -0.20785 -0.93343
0.01855 -0.094698 0.457 -0.30281 -0.19279 -0.93335
0.01859 -0.094057 0.458 -0.26412 -0.14991 -0.95277
0.01859 -0.09321 0.458 -0.27108 -0.14451 -0.95165
0.01859 -0.092363 0.458 -0.2571 -0.14172 -0.95594
0.01859 -0.091515 0.458 -0.24459 -0.14859 -0.95817
0.018631 -0.090866 0.459 -0.21441 -0.15943 -0.96364
0.018631 -0.090017 0.459 -0.16391 -0.17479 -0.97087
0.018631 -0.089167 0.459 -0.12887 -0.20128 -0.97102
0.018631 -0.088318 0.459 -0.060682 -0.22882 -0.97158
0.018631 -0.087469 0.459 0.033025 -0.25312 -0.96687
0.018631 -0.08662 0.459 0.16546 -0.27469 -0.94719
0.018631 -0.085771 0.459 0.28657 -0.28756 -0.91389
0.018631 -0.084921 0.459 0.36186 -0.27963 -0.88931
0.01859 -0.083889 0.458 0.48736 -0.30853 -0.81688
0.01859 -0.083042 0.458 0.53565 -0.29975 -0.78945
0.01855 -0.082015 0.457 0.59488 -0.31948 -0.73759
0.018509 -0.080992 0.456 0.6151 -0.31758 -0.72166
0.018469 -0.079972 0.455 0.60648 -0.30036 -0.73619
0.018428 -0.078957 0.454 0.57128 -0.29167 -0.76718
0.018428 -0.078117 0.454 0.55395 -0.32614 -0.76601
0.018387 -0.077106 0.453 0.49862 -0.32211 -0.80475
0.018347 -0.0761 0.452 0.43992 -0.32268 -0.83806
0.018347 -0.075264 0.452 0.42136 -0.35156 -0.83598
