-0.033057 -0.031532 0.437 0.44443 0.31914 -0.83704
-0.032982 -0.030653 0.436 0.49005 0.26772 -0.82956
-0.032982 -0.029846 0.436 0.50848 0.23273 -0.82903
-0.032906 -0.028973 0.435 0.51889 0.20937 -0.8288
-0.032906 -0.028168 0.435 0.52104 0.19538 -0.83087
-0.03283 -0.027301 0.434 0.51531 0.19335 -0.83491
-0.032755 -0.026437 0.433 0.50598 0.1942 -0.8404
-0.032755 -0.025636 0.433 0.49042 0.20698 -0.84655
-0.032755 -0.024834 0.433 0.45341 0.23008 -0.86109
-0.032679 -0.023978 0.432 0.39468 0.24622 -0.88521
-0.032679 -0.023179 0.432 0.32299 0.25711 -0.91081
-0.032603 -0.022327 0.431 0.24185 0.27398 -0.93083
-0.032603 -0.02153 0.431 0.16788 0.28196 -0.94463
-0.032603 -0.020733 0.431 0.087153 0.29037 -0.95294
-0.032603 -0.019935 0.431 0.011901 0.29869 -0.95428
-0.032603 -0.019138 0.431 -0.037585 0.30478 -0.95168
-0.032603 -0.01834 0.431 -0.06611 0.307 -0.94941
-0.032603 -0.017543 0.431 -0.094278 0.31339 -0.94493
-0.032603 -0.016746 0.431 -0.12178 0.30361 -0.94498
-0.032603 -0.015948 0.431 -0.13934 0.29847 -0.94419
-0.032603 -0.015151 0.431 -0.14833 0.28226 -0.9478
-0.032679 -0.014387 0.432 -0.19552 0.29226 -0.93614
-0.032679 -0.013587 0.432 -0.22538 0.28763 -0.93084
-0.032679 -0.012788 0.432 -0.25911 0.27362 -0.92628
-0.032679 -0.011989 0.432 -0.27267 0.23825 -0.93214
-0.032755 -0.011216 0.433 -0.35575 0.28253 -0.89085
-0.032755 -0.010414 0.433 -0.36408 0.22457 -0.90389
-0.03283 -0.0096355 0.434 -0.42892 0.28992 -0.85556
-0.03283 -0.0088326 0.434 -0.45207 0.19861 -0.86959
-0.032906 -0.0080481 0.435 -0.51732 0.28703 -0.80623
-0.032906 -0.0072433 0.435 -0.56203 0.14718 -0.81392
-0.032906 -0.0064385 0.435 -0.56897 -0.0096846 -0.8223
-0.032982 -0.0056466 0.436 -0.61931 0.059629 -0.78288
-0.033057 -0.0048511 0.437 -0.66725 0.10384 -0.73756
-0.033133 -0.0040518 0.438 -0.68916 0.15265 -0.70835
-0.033208 -0.0032488 0.439 -0.7141 0.18856 -0.67417
-0.033284 -0.0024422 0.44 -0.7378 0.20387 -0.6435
-0.03336 -0.0016318 0.441 -0.74818 0.20149 -0.63216
-0.029004 -0.1047 0.393 -0.15904 -0.078194 -0.98417
-0.029004 -0.10398 0.393 -0.15789 -0.072495 -0.98479
-0.029004 -0.10325 0.393 -0.18912 -0.063122 -0.97992
-0.029077 -0.10278 0.394 -0.22667 -0.051825 -0.97259
-0.029077 -0.10205 0.394 -0.26822 -0.028385 -0.96294
-0.029077 -0.10132 0.394 -0.30726 0.0010789 -0.95163
-0.029077 -0.1006 0.394 -0.32556 0.02893 -0.94508
-0.029151 -0.10012 0.395 -0.34622 0.057968 -0.93636
-0.029151 -0.099389 0.395 -0.34301 0.076798 -0.93619
-0.029151 -0.098659 0.395 -0.34738 0.084716 -0.93389
-0.029225 -0.098176 0.396 -0.45114 0.14041 -0.88134
-0.029225 -0.097443 0.396 -0.43031 0.13474 -0.89257
-0.029225 -0.09671 0.396 -0.35832 0.10582 -0.92758
-0.029225 -0.095978 0.396 -0.28268 0.068739 -0.95675
-0.032472 -0.058612 0.44 0.1319 0.59614 -0.79197
-0.032472 -0.057798 0.44 0.18743 0.58987 -0.78544
-0.032472 -0.056984 0.44 0.22727 0.5841 -0.77922
-0.032472 -0.05617 0.44 0.25488 0.57873 -0.77467
-0.032472 -0.055356 0.44 0.2523 0.57388 -0.7791
-0.032399 -0.054418 0.439 0.22987 0.57867 -0.7825
-0.032399 -0.053606 0.439 0.24145 0.57246 -0.78357
-0.032399 -0.052794 0.439 0.24072 0.56522 -0.78904
-0.032399 -0.051981 0.439 0.23554 0.55858 -0.7953
-0.032325 -0.051053 0.438 0.23274 0.55914 -0.79573
-0.032325 -0.050242 0.438 0.21972 0.55595 -0.80165
-0.032325 -0.049432 0.438 0.19587 0.55549 -0.80813
-0.032325 -0.048622 0.438 0.16652 0.55629 -0.81413
-0.032325 -0.047811 0.438 0.13306 0.55915 -0.81832
-0.032251 -0.046894 0.437 0.10302 0.56715 -0.81715
-0.032251 -0.046085 0.437 0.075641 0.58024 -0.81093
-0.032251 -0.045277 0.437 0.049255 0.59679 -0.80088
-0.032251 -0.044468 0.437 0.030836 0.61016 -0.79167
-0.032251 -0.04366 0.437 0.013569 0.62724 -0.77871
-0.032251 -0.042851 0.437 -0.0086409 0.64235 -0.76636
-0.032251 -0.042043 0.437 -0.024753 0.65567 -0.75464
-0.032251 -0.041234 0.437 -0.038076 0.66828 -0.74293
-0.032251 -0.040426 0.437 -0.048027 0.6795 -0.7321
-0.032251 -0.039617 0.437 -0.054235 0.68681 -0.72481
-0.032251 -0.038809 0.437 -0.052754 0.68686 -0.72487
-0.032325 -0.038087 0.438 -0.037544 0.65556 -0.75421
-0.032325 -0.037277 0.438 -0.016939 0.64295 -0.76572
-0.032325 -0.036466 0.438 0.01392 0.62282 -0.78224
-0.032325 -0.035656 0.438 0.075728 0.59233 -0.80213
-0.032325 -0.034846 0.438 0.15367 0.55047 -0.82059
-0.032325 -0.034035 0.438 0.22487 0.50337 -0.8343
-0.032325 -0.033225 0.438 0.29395 0.45462 -0.84078
-0.032251 -0.03234 0.437 0.3366 0.42582 -0.83987
-0.032251 -0.031532 0.437 0.39622 0.36148 -0.844
-0.032177 -0.030653 0.436 0.45396 0.30152 -0.83846
-0.032177 -0.029846 0.436 0.48262 0.25181 -0.83885
-0.032103 -0.028973 0.435 0.50432 0.21713 -0.83577
-0.03203 -0.028104 0.434 0.51269 0.17848 -0.83982
-0.03203 -0.027301 0.434 0.51142 0.16827 -0.8427
-0.031956 -0.026437 0.433 0.50644 0.16165 -0.84699
-0.031956 -0.025636 0.433 0.49228 0.16658 -0.85435
-0.031882 -0.024777 0.432 0.45808 0.1757 -0.87137
-0.031808 -0.023922 0.431 0.40024 0.18422 -0.8977
-0.031808 -0.023125 0.431 0.32858 0.19354 -0.92444
-0.031734 -0.022276 0.43 0.24776 0.20179 -0.94757
-0.031734 -0.02148 0.43 0.17341 0.20991 -0.96222
-0.031734 -0.020685 0.43 0.092062 0.21993 -0.97116
-0.031808 -0.019935 0.431 0.021269 0.22322 -0.97454
-0.031808 -0.019138 0.431 -0.024262 0.23086 -0.97269
-0.031808 -0.01834 0.431 -0.055478 0.23438 -0.97056
-0.031808 -0.017543 0.431 -0.08234 0.24433 -0.96619
-0.031808 -0.016746 0.431 -0.11428 0.23792 -0.96454
-0.031808 -0.015948 0.431 -0.13123 0.23176 -0.96388
-0.031808 -0.015151 0.431 -0.15066 0.2208 -0.96361
-0.031808 -0.014353 0.431 -0.17925 0.2156 -0.95989
-0.031882 -0.013587 0.432 -0.2381 0.2351 -0.94236
-0.031882 -0.012788 0.432 -0.281 0.23097 -0.9315
-0.031882 -0.011989 0.432 -0.31059 0.20858 -0.92738
-0.031956 -0.011216 0.433 -0.37669 0.24805 -0.89251
-0.031956 -0.010414 0.433 -0.39379 0.20941 -0.89503
-0.031956 -0.0096133 0.433 -0.40672 0.15821 -0.89975
-0.03203 -0.0088326 0.434 -0.46927 0.1994 -0.86025
-0.03203 -0.0080296 0.434 -0.50141 0.12661 -0.85589
-0.032103 -0.0072433 0.435 -0.56336 0.183 -0.80569
-0.032103 -0.0064385 0.435 -0.57207 0.062548 -0.81782
-0.032177 -0.0056466 0.436 -0.61651 0.11895 -0.77831
-0.032251 -0.0048511 0.437 -0.66718 0.14755 -0.73014
-0.032325 -0.0040518 0.438 -0.69253 0.17689 -0.69936
-0.032472 -0.0024422 0.44 -0.74874 0.22443 -0.62371
-0.032546 -0.0016318 0.441 -0.75877 0.21724 -0.61406
-0.032546 -0.00081591 0.441 -0.73731 0.012457 -0.67544
-0.03476 0.013943 0.471 -0.39866 0.86548 -0.30334
-0.028279 -0.1047 0.393 -0.16498 -0.090328 -0.98215
-0.028279 -0.10398 0.393 -0.1449 -0.08959 -0.98538
-0.028279 -0.10325 0.393 -0.16351 -0.077699 -0.98348
-0.028351 -0.10278 0.394 -0.19802 -0.057687 -0.9785
-0.028351 -0.10205 0.394 -0.23315 -0.030854 -0.97195
-0.028351 -0.10132 0.394 -0.2744 0.0010902 -0.96161
-0.028351 -0.1006 0.394 -0.29627 0.032467 -0.95455
-0.028423 -0.10012 0.395 -0.31936 0.067517 -0.94523
-0.028423 -0.099389 0.395 -0.32146 0.094853 -0.94216
-0.028423 -0.098659 0.395 -0.34193 0.10341 -0.93402
-0.028423 -0.097928 0.395 -0.34042 0.088776 -0.93607
-0.028494 -0.097443 0.396 -0.44128 0.1549 -0.8839
-0.028494 -0.09671 0.396 -0.39486 0.13199 -0.90921
-0.028566 -0.09622 0.397 -0.53901 0.19865 -0.81854
-0.031661 -0.057798 0.44 0.32411 0.5726 -0.75305
-0.031589 -0.056855 0.439 0.15835 0.60014 -0.78406
-0.031589 -0.056043 0.439 0.21308 0.59488 -0.77505
-0.031589 -0.05523 0.439 0.24059 0.58766 -0.77251
-0.031589 -0.054418 0.439 0.22982 0.58316 -0.77917
-0.031589 -0.053606 0.439 0.22864 0.57633 -0.78459
-0.031517 -0.052673 0.438 0.231 0.57948 -0.78157
-0.031517 -0.051863 0.438 0.22881 0.57564 -0.78504
-0.031517 -0.051053 0.438 0.22355 0.57401 -0.78774
-0.031517 -0.050242 0.438 0.20646 0.56927 -0.7958
-0.031445 -0.049319 0.437 0.19415 0.57352 -0.79585
-0.031445 -0.048511 0.437 0.16909 0.57461 -0.80077
-0.031445 -0.047702 0.437 0.14004 0.57834 -0.80368
-0.031445 -0.046894 0.437 0.1094 0.58652 -0.80251
-0.031445 -0.046085 0.437 0.087878 0.59428 -0.79944
-0.031445 -0.045277 0.437 0.061252 0.60342 -0.79507
-0.031445 -0.044468 0.437 0.043751 0.61289 -0.78896
-0.031445 -0.04366 0.437 0.02351 0.62664 -0.77896
-0.031445 -0.042851 0.437 -0.0029285 0.64015 -0.76824
-0.031373 -0.041946 0.436 0.0070137 0.66341 -0.74822
-0.031373 -0.04114 0.436 -0.0057462 0.67489 -0.7379
-0.031373 -0.040333 0.436 -0.018227 0.68641 -0.72699
-0.031373 -0.039526 0.436 -0.036304 0.69393 -0.71912
-0.031445 -0.038809 0.437 -0.054275 0.68711 -0.72452
-0.031445 -0.038 0.437 -0.055427 0.68161 -0.72961
-0.031445 -0.037191 0.437 -0.044529 0.67451 -0.73692
-0.031445 -0.036383 0.437 -0.026385 0.65819 -0.75239
-0.031445 -0.035574 0.437 0.022933 0.63173 -0.77485
-0.031445 -0.034766 0.437 0.08716 0.59587 -0.79834
-0.031445 -0.033957 0.437 0.14726 0.55453 -0.81903
-0.031445 -0.033149 0.437 0.21465 0.5051 -0.83594
-0.031445 -0.03234 0.437 0.28015 0.45267 -0.84652
-0.031373 -0.03146 0.436 0.33221 0.4021 -0.8532
-0.031373 -0.030653 0.436 0.39769 0.33893 -0.85263
-0.031373 -0.029846 0.436 0.4346 0.27899 -0.85632
-0.031301 -0.028973 0.435 0.47143 0.23157 -0.85096
-0.031229 -0.028104 0.434 0.49453 0.18362 -0.84954
-0.031229 -0.027301 0.434 0.49643 0.15388 -0.85433
-0.031157 -0.026437 0.433 0.50126 0.13577 -0.85458
-0.031157 -0.025636 0.433 0.4945 0.12772 -0.85974
-0.031085 -0.024777 0.432 0.46472 0.12153 -0.87708
-0.031013 -0.023922 0.431 0.41122 0.12171 -0.90337
-0.030941 -0.023071 0.43 0.32683 0.10944 -0.93873
-0.030941 -0.022276 0.43 0.26225 0.12231 -0.95722
-0.030941 -0.02148 0.43 0.19057 0.12939 -0.97311
-0.030941 -0.020685 0.43 0.10469 0.13511 -0.98528
-0.031013 -0.019935 0.431 0.039054 0.14348 -0.98888
-0.031013 -0.019138 0.431 -0.0082114 0.15661 -0.98763
-0.031013 -0.01834 0.431 -0.048117 0.16539 -0.98505
-0.031013 -0.017543 0.431 -0.078568 0.17298 -0.98179
-0.031013 -0.016746 0.431 -0.11393 0.17042 -0.97876
-0.031013 -0.015948 0.431 -0.13398 0.16802 -0.97664
-0.031013 -0.015151 0.431 -0.16347 0.16604 -0.97247
-0.031013 -0.014353 0.431 -0.20065 0.17249 -0.96436
-0.031085 -0.013587 0.432 -0.25685 0.19108 -0.94737
-0.031085 -0.012788 0.432 -0.2997 0.19263 -0.93438
-0.031085 -0.011989 0.432 -0.3392 0.18445 -0.92246
-0.031085 -0.01119 0.432 -0.36702 0.16433 -0.91559
-0.031157 -0.010414 0.433 -0.40877 0.17669 -0.89537
-0.031157 -0.0096133 0.433 -0.42649 0.151 -0.8918
-0.031229 -0.0088326 0.434 -0.47941 0.18216 -0.85848
-0.031229 -0.0080296 0.434 -0.50984 0.14962 -0.84716
-0.031301 -0.0072433 0.435 -0.56583 0.19047 -0.80222
-0.031301 -0.0064385 0.435 -0.58044 0.10628 -0.80734
-0.031373 -0.0056466 0.436 -0.62001 0.14414 -0.77124
-0.031445 -0.0048511 0.437 -0.66627 0.16971 -0.72614
-0.031445 -0.0040426 0.437 -0.6663 0.047387 -0.74418
-0.031589 -0.0032488 0.439 -0.72633 0.21746 -0.65203
-0.031589 -0.0024366 0.439 -0.71999 0.077217 -0.68967
-0.031661 -0.0016281 0.44 -0.73931 0.081125 -0.66846
-0.031732 -0.00081591 0.441 -0.74549 0.048773 -0.66473
-0.031804 0 0.442 -0.7541 0.051225 -0.65475
-0.032236 0.0033154 0.448 -0.72643 0.3299 -0.60289
-0.032236 0.0041443 0.448 -0.76625 0.15019 -0.62474
-0.032956 0.0084736 0.458 -0.70803 0.51925 -0.47861
-0.027554 -0.1047 0.393 -0.16694 -0.088419 -0.98199
-0.027554 -0.10398 0.393 -0.13945 -0.092381 -0.98591
-0.027554 -0.10325 0.393 -0.14252 -0.07957 -0.98659
-0.027624 -0.10278 0.394 -0.17221 -0.053527 -0.9836
-0.027624 -0.10205 0.394 -0.19934 -0.026654 -0.97957
-0.027624 -0.10132 0.394 -0.2416 0.0055007 -0.97036
-0.027624 -0.1006 0.394 -0.26609 0.03822 -0.96319
-0.027694 -0.10012 0.395 -0.28864 0.073743 -0.95459
-0.027694 -0.099389 0.395 -0.29484 0.10586 -0.94966
-0.027694 -0.098659 0.395 -0.32885 0.11136 -0.93779
-0.027694 -0.097928 0.395 -0.34009 0.10294 -0.93474
-0.027694 -0.097197 0.395 -0.30855 0.077102 -0.94808
-0.027764 -0.09671 0.396 -0.41387 0.15519 -0.89701
-0.027764 -0.095978 0.396 -0.36926 0.11285 -0.92245
-0.027834 -0.095486 0.397 -0.51586 0.1926 -0.83474
-0.024328 -0.065484 0.347 -0.62427 -0.10141 -0.7746
-0.030779 -0.058479 0.439 0.18752 0.5899 -0.7854
-0.030779 -0.057667 0.439 0.23776 0.58409 -0.77608
-0.030779 -0.056855 0.439 0.27363 0.57736 -0.76927
-0.030708 -0.055915 0.438 0.16124 0.60241 -0.78173
-0.030708 -0.055105 0.438 0.21536 0.59387 -0.7752
-0.030708 -0.054294 0.438 0.22793 0.5882 -0.77593
-0.030708 -0.053484 0.438 0.23389 0.58433 -0.77708
-0.030708 -0.052673 0.438 0.22439 0.58173 -0.78182
-0.030638 -0.051745 0.437 0.22334 0.58702 -0.77816
-0.030638 -0.050936 0.437 0.21665 0.59096 -0.77706
-0.030638 -0.050128 0.437 0.20398 0.59109 -0.78039
-0.030638 -0.049319 0.437 0.18583 0.59123 -0.7848
-0.030638 -0.048511 0.437 0.15705 0.59191 -0.79056
-0.030638 -0.047702 0.437 0.12856 0.59144 -0.79603
-0.030568 -0.046786 0.436 0.11985 0.61044 -0.78295
-0.030568 -0.04598 0.436 0.10782 0.61967 -0.77742
-0.030568 -0.045173 0.436 0.088643 0.63141 -0.77037
-0.030568 -0.044366 0.436 0.073926 0.63918 -0.7655
-0.030568 -0.04356 0.436 0.056668 0.65259 -0.75559
-0.030568 -0.042753 0.436 0.034509 0.66456 -0.74644
-0.030568 -0.041946 0.436 0.01817 0.67573 -0.73693
-0.030568 -0.04114 0.436 0.00074723 0.68629 -0.72732
-0.030568 -0.040333 0.436 -0.012553 0.69515 -0.71876
-0.030568 -0.039526 0.436 -0.032212 0.70085 -0.71258
-0.030568 -0.03872 0.436 -0.048866 0.70259 -0.70991
-0.030568 -0.037913 0.436 -0.062076 0.70061 -0.71084
-0.030568 -0.037106 0.436 -0.059498 0.69662 -0.71497
-0.030568 -0.0363 0.436 -0.056698 0.68519 -0.72615
-0.030568 -0.035493 0.436 -0.034282 0.67006 -0.74152
-0.030568 -0.034686 0.436 0.0055174 0.64139 -0.7672
-0.030638 -0.033957 0.437 0.12629 0.53245 -0.83699
-0.030638 -0.033149 0.437 0.19464 0.48096 -0.85486
-0.030638 -0.03234 0.437 0.26354 0.43255 -0.86223
-0.030568 -0.03146 0.436 0.26269 0.45232 -0.85229
-0.030568 -0.030653 0.436 0.33318 0.38602 -0.86022
-0.030498 -0.029778 0.435 0.38083 0.31826 -0.86815
-0.030498 -0.028973 0.435 0.42801 0.25876 -0.86594
-0.030428 -0.028104 0.434 0.46523 0.19464 -0.86352
-0.030428 -0.027301 0.434 0.47549 0.14555 -0.8676
-0.030358 -0.026437 0.433 0.4834 0.10931 -0.86855
-0.030358 -0.025636 0.433 0.48069 0.094433 -0.87179
-0.030288 -0.024777 0.432 0.45612 0.073364 -0.88689
-0.030218 -0.023922 0.431 0.40461 0.07087 -0.91174
-0.030218 -0.023125 0.431 0.33593 0.065247 -0.93962
-0.030218 -0.022327 0.431 0.26319 0.059877 -0.96288
-0.030148 -0.02148 0.43 0.19276 0.065094 -0.97908
-0.030148 -0.020685 0.43 0.11249 0.07616 -0.99073
-0.030148 -0.019889 0.43 0.051858 0.077572 -0.99564
-0.030218 -0.019138 0.431 0.0082812 0.088777 -0.99602
-0.030218 -0.01834 0.431 -0.028936 0.10203 -0.99436
-0.030218 -0.017543 0.431 -0.069027 0.11199 -0.99131
-0.030218 -0.016746 0.431 -0.10879 0.11361 -0.98755
-0.030218 -0.015948 0.431 -0.133 0.11529 -0.98439
-0.030218 -0.015151 0.431 -0.16978 0.11963 -0.97819
-0.030218 -0.014353 0.431 -0.21722 0.12837 -0.96764
-0.030218 -0.013556 0.431 -0.26934 0.14022 -0.95278
-0.030288 -0.012788 0.432 -0.31494 0.14831 -0.93745
-0.030288 -0.011989 0.432 -0.35681 0.14394 -0.92302
-0.030288 -0.01119 0.432 -0.38515 0.1437 -0.91159
-0.030288 -0.01039 0.432 -0.40677 0.12813 -0.9045
-0.030358 -0.0096133 0.433 -0.43278 0.14136 -0.89035
-0.030358 -0.0088122 0.433 -0.46568 0.12515 -0.87606
-0.030428 -0.0080296 0.434 -0.51047 0.15136 -0.84647
-0.030428 -0.0072266 0.434 -0.52729 0.11232 -0.84223
-0.030498 -0.0064385 0.435 -0.57852 0.13402 -0.80459
-0.030568 -0.0056466 0.436 -0.61951 0.15847 -0.76883
-0.030638 -0.0048511 0.437 -0.66438 0.17602 -0.72637
-0.030638 -0.0040426 0.437 -0.66662 0.097541 -0.73899
-0.030708 -0.0032414 0.438 -0.69258 0.1243 -0.71055
-0.030779 -0.0024366 0.439 -0.72369 0.11244 -0.6809
-0.030849 -0.0016281 0.44 -0.74936 0.12023 -0.65116
-0.030919 -0.00081591 0.441 -0.75965 0.095185 -0.64333
-0.030989 0 0.442 -0.76692 0.081428 -0.63655
-0.031339 0.003308 0.447 -0.76752 0.18259 -0.61448
-0.03141 0.0041443 0.448 -0.76025 0.17897 -0.62449
-0.03169 0.0075264 0.452 -0.77631 0.12331 -0.61817
-0.032391 0.011967 0.462 -0.54045 0.62094 -0.56776
-0.032531 0.013735 0.464 -0.453 0.71228 -0.53614
-0.032742 0.014688 0.467 -0.39786 0.86413 -0.3082
-0.032882 0.015619 0.469 -0.32123 0.90079 -0.29222
-0.032882 0.016487 0.469 -0.36827 0.87476 -0.31491
-0.033092 0.018339 0.472 -0.40281 0.86912 -0.28701
-0.026897 -0.10497 0.394 -0.041947 -0.14391 -0.9887
-0.026897 -0.10424 0.394 -0.071996 -0.12382 -0.98969
-0.026897 -0.10351 0.394 -0.10844 -0.089202 -0.99009
-0.026897 -0.10278 0.394 -0.14601 -0.051523 -0.98794
-0.026897 -0.10205 0.394 -0.17133 -0.021218 -0.98498
-0.026897 -0.10132 0.394 -0.21431 0.0088588 -0.97672
-0.026897 -0.1006 0.394 -0.2414 0.040672 -0.96957
-0.026897 -0.099867 0.394 -0.25871 0.06791 -0.96357
-0.026965 -0.099389 0.395 -0.27435 0.10812 -0.95553
-0.026965 -0.098659 0.395 -0.31535 0.11532 -0.94194
-0.026965 -0.097928 0.395 -0.33686 0.11261 -0.9348
-0.026965 -0.097197 0.395 -0.3272 0.089973 -0.94066
-0.027033 -0.09671 0.396 -0.42375 0.17022 -0.88964
-0.027033 -0.095978 0.396 -0.39378 0.13075 -0.90986
-0.027101 -0.095486 0.397 -0.52585 0.21434 -0.82313
-0.023688 -0.066126 0.347 -0.62964 0.040709 -0.77582
-0.023688 -0.065484 0.347 -0.629 -0.12327 -0.76757
-0.023688 -0.064842 0.347 -0.61202 -0.27908 -0.73996
-0.0299 -0.058346 0.438 0.077145 0.59166 -0.80249
-0.0299 -0.057536 0.438 0.14428 0.59025 -0.79422
-0.0299 -0.056725 0.438 0.20828 0.58366 -0.78483
-0.0299 -0.055915 0.438 0.25061 0.57831 -0.77637
-0.029832 -0.054979 0.437 0.19349 0.5879 -0.78545
-0.029832 -0.05417 0.437 0.22709 0.58487 -0.77869
-0.029832 -0.053362 0.437 0.23905 0.58528 -0.7748
-0.029832 -0.052553 0.437 0.22906 0.58773 -0.77595
-0.029764 -0.051626 0.436 0.21438 0.58801 -0.77993
-0.029764 -0.05082 0.436 0.21022 0.59505 -0.7757
-0.029764 -0.050013 0.436 0.19901 0.59897 -0.77565
-0.029764 -0.049206 0.436 0.19047 0.60163 -0.77573
-0.029764 -0.0484 0.436 0.16937 0.60549 -0.77762
-0.029764 -0.047593 0.436 0.14841 0.61036 -0.77809
-0.029764 -0.046786 0.436 0.1246 0.61741 -0.77671
-0.029764 -0.04598 0.436 0.11439 0.62352 -0.77339
-0.029696 -0.045069 0.435 0.10553 0.64233 -0.75912
-0.029696 -0.044265 0.435 0.08854 0.6506 -0.75424
-0.029696 -0.04346 0.435 0.071452 0.66197 -0.74611
-0.029696 -0.042655 0.435 0.051803 0.67082 -0.73981
-0.029696 -0.04185 0.435 0.036164 0.68071 -0.73166
-0.029696 -0.041045 0.435 0.017879 0.69015 -0.72345
-0.029696 -0.040241 0.435 0.002209 0.69905 -0.71507
-0.029696 -0.039436 0.435 -0.021153 0.70556 -0.70834
-0.029696 -0.038631 0.435 -0.042039 0.70907 -0.70388
-0.029696 -0.037826 0.435 -0.059352 0.70881 -0.7029
-0.029696 -0.037021 0.435 -0.064728 0.70496 -0.70628
-0.029696 -0.036216 0.435 -0.072778 0.69645 -0.71391
-0.029696 -0.035412 0.435 -0.064273 0.68492 -0.72578
-0.029764 -0.034686 0.436 -0.02466 0.6373 -0.77023
-0.029764 -0.03388 0.436 0.017247 0.61133 -0.79119
-0.029764 -0.033073 0.436 0.072985 0.57002 -0.81838
-0.029764 -0.032266 0.436 0.14632 0.52198 -0.84031
-0.029764 -0.03146 0.436 0.22118 0.46494 -0.85727
-0.029696 -0.030583 0.435 0.25612 0.44012 -0.86064
-0.029696 -0.029778 0.435 0.30729 0.36773 -0.8777
-0.029696 -0.028973 0.435 0.37049 0.2981 -0.8797
-0.029627 -0.028104 0.434 0.42323 0.22323 -0.87809
-0.029627 -0.027301 0.434 0.44339 0.15889 -0.88213
-0.029559 -0.026437 0.433 0.46059 0.10278 -0.88164
-0.029559 -0.025636 0.433 0.46123 0.068446 -0.88463
-0.029491 -0.024777 0.432 0.44456 0.034245 -0.89509
-0.029491 -0.023978 0.432 0.39759 0.01992 -0.91735
-0.029423 -0.023125 0.431 0.33664 0.0078071 -0.9416
-0.029423 -0.022327 0.431 0.26738 -0.005992 -0.96357
-0.029354 -0.02148 0.43 0.20103 -0.0030528 -0.97958
-0.029354 -0.020685 0.43 0.11895 0.0010314 -0.9929
-0.029423 -0.019935 0.431 0.061203 0 -0.99813
-0.029423 -0.019138 0.431 0.020779 0.014505 -0.99968
-0.029423 -0.01834 0.431 -0.024927 0.025894 -0.99935
-0.029423 -0.017543 0.431 -0.068385 0.037198 -0.99697
-0.029423 -0.016746 0.431 -0.11243 0.048345 -0.99248
-0.029423 -0.015948 0.431 -0.13571 0.05434 -0.98926
-0.029423 -0.015151 0.431 -0.17167 0.062159 -0.98319
-0.029423 -0.014353 0.431 -0.21855 0.066594 -0.97355
-0.029423 -0.013556 0.431 -0.26569 0.075702 -0.96108
-0.029491 -0.012788 0.432 -0.30757 0.085254 -0.9477
-0.029491 -0.011989 0.432 -0.35426 0.08856 -0.93094
-0.029491 -0.01119 0.432 -0.38614 0.097691 -0.91725
-0.029491 -0.01039 0.432 -0.4148 0.093587 -0.90509
-0.029559 -0.0096133 0.433 -0.44316 0.10199 -0.89062
-0.029559 -0.0088122 0.433 -0.48117 0.10546 -0.87026
-0.029627 -0.0080296 0.434 -0.52049 0.1164 -0.8459
-0.029627 -0.0072266 0.434 -0.54721 0.097673 -0.83128
-0.029696 -0.0064385 0.435 -0.59083 0.10885 -0.79942
-0.029696 -0.0056337 0.435 -0.57685 0.073791 -0.81351
-0.029764 -0.00484 0.436 -0.6173 0.1028 -0.77998
-0.029832 -0.0040426 0.437 -0.66767 0.1074 -0.73667
-0.0299 -0.0032414 0.438 -0.69848 0.1137 -0.70654
-0.029969 -0.0024366 0.439 -0.72625 0.10516 -0.67934
-0.030037 -0.0016281 0.44 -0.75435 0.098336 -0.64907
-0.030105 -0.00081591 0.441 -0.76675 0.086675 -0.63607
-0.030105 0 0.441 -0.70723 -0.033857 -0.70618
-0.030242 0.00081961 0.443 -0.78474 0.067076 -0.61619
-0.03031 0.0016429 0.444 -0.79203 0.051724 -0.60829
-0.030378 0.0024699 0.445 -0.78712 0.023428 -0.61635
-0.030515 0.003308 0.447 -0.75676 0.18676 -0.62645
-0.030583 0.0041443 0.448 -0.74971 0.18362 -0.63578
-0.030651 0.0049843 0.449 -0.75 0.19085 -0.63331
-0.03072 0.0058279 0.45 -0.74409 0.19068 -0.64029
-0.030788 0.0066753 0.451 -0.75981 0.17263 -0.62681
-0.030856 0.0075264 0.452 -0.78217 0.14791 -0.60525
-0.031266 0.009321 0.458 -0.63718 0.52316 -0.56595
-0.031334 0.010191 0.459 -0.61057 0.54125 -0.57815
-0.031539 0.011112 0.462 -0.35876 0.73998 -0.56896
-0.03147 0.011941 0.461 -0.51588 0.59773 -0.61367
-0.031607 0.013706 0.463 -0.43496 0.71205 -0.55118
-0.031675 0.014594 0.464 -0.40623 0.76907 -0.49346
-0.031812 0.015519 0.466 -0.39803 0.85381 -0.33554
-0.03188 0.016416 0.467 -0.41846 0.85836 -0.29683
-0.032017 0.018222 0.469 -0.36902 0.88271 -0.29094
-0.02617 -0.10497 0.394 -0.02128 -0.14515 -0.98918
-0.02617 -0.10424 0.394 -0.046611 -0.12753 -0.99074
-0.02617 -0.10351 0.394 -0.075657 -0.094302 -0.99266
-0.02617 -0.10278 0.394 -0.11392 -0.051742 -0.99214
-0.02617 -0.10205 0.394 -0.14289 -0.014586 -0.98963
-0.02617 -0.10132 0.394 -0.18652 0.011138 -0.98239
-0.02617 -0.1006 0.394 -0.21627 0.039816 -0.97552
-0.02617 -0.099867 0.394 -0.24202 0.071309 -0.96765
-0.026236 -0.099389 0.395 -0.25696 0.10634 -0.96055
-0.026236 -0.098659 0.395 -0.30396 0.11486 -0.94574
-0.026236 -0.097928 0.395 -0.3342 0.1184 -0.93504
-0.026236 -0.097197 0.395 -0.33833 0.10825 -0.93478
-0.026303 -0.09671 0.396 -0.42448 0.17619 -0.88813
-0.026303 -0.095978 0.396 -0.40858 0.14822 -0.90061
-0.026303 -0.095245 0.396 -0.36237 0.095671 -0.92711
-0.026369 -0.094751 0.397 -0.48454 0.1854 -0.8549
-0.022915 -0.06766 0.345 -0.57902 -0.18402 -0.79427
-0.022915 -0.067021 0.345 -0.62118 -0.29596 -0.72563
-0.022982 -0.066575 0.346 -0.64424 -0.14719 -0.75053
-0.023048 -0.066126 0.347 -0.63755 -0.0074773 -0.77038
-0.023048 -0.065484 0.347 -0.63033 -0.16449 -0.7587
-0.023114 -0.065029 0.348 -0.64771 -0.019361 -0.76164
-0.023114 -0.064385 0.348 -0.61659 -0.18782 -0.76455
-0.023181 -0.063924 0.349 -0.63054 -0.033081 -0.77545
-0.023181 -0.063278 0.349 -0.57691 -0.18655 -0.79522
-0.023247 -0.062812 0.35 -0.62341 -0.040359 -0.78085
-0.023247 -0.062165 0.35 -0.56136 -0.19054 -0.80534
-0.023314 -0.061693 0.351 -0.59832 -0.039882 -0.80027
-0.023314 -0.061043 0.351 -0.55735 -0.1608 -0.81456
-0.029092 -0.058346 0.438 0.2377 0.54877 -0.80147
-0.029092 -0.057536 0.438 0.28987 0.54719 -0.78522
-0.029026 -0.056596 0.437 0.13552 0.5743 -0.80735
-0.029026 -0.055787 0.437 0.21088 0.56863 -0.7951
-0.029026 -0.054979 0.437 0.2518 0.56571 -0.78522
-0.029026 -0.05417 0.437 0.24701 0.56883 -0.78449
-0.028959 -0.05324 0.436 0.24636 0.57439 -0.78063
-0.028959 -0.052433 0.436 0.23024 0.58437 -0.77814
-0.028959 -0.051626 0.436 0.21861 0.59456 -0.77376
-0.028959 -0.05082 0.436 0.20765 0.60147 -0.77144
-0.028959 -0.050013 0.436 0.19502 0.60497 -0.772
-0.028893 -0.049093 0.435 0.18765 0.61061 -0.76938
-0.028893 -0.048289 0.435 0.16909 0.61855 -0.76733
-0.028893 -0.047484 0.435 0.15585 0.62561 -0.76441
-0.028893 -0.046679 0.435 0.144 0.63373 -0.76003
-0.028893 -0.045874 0.435 0.13986 0.63993 -0.7556
-0.028893 -0.045069 0.435 0.12091 0.64653 -0.75325
-0.028893 -0.044265 0.435 0.10813 0.65179 -0.75065
-0.028827 -0.04336 0.434 0.097797 0.66516 -0.74027
-0.028827 -0.042557 0.434 0.076719 0.67266 -0.73597
-0.028827 -0.041754 0.434 0.057127 0.68288 -0.72829
-0.028827 -0.040951 0.434 0.037273 0.69061 -0.72227
-0.028827 -0.040148 0.434 0.023048 0.69661 -0.71708
-0.028827 -0.039345 0.434 -0.0027522 0.702 -0.71217
-0.028827 -0.038542 0.434 -0.029017 0.70627 -0.70735
-0.028827 -0.037739 0.434 -0.051636 0.71012 -0.70219
-0.028827 -0.036936 0.434 -0.064777 0.70864 -0.70259
-0.028827 -0.036133 0.434 -0.083283 0.70467 -0.70463
-0.028827 -0.03533 0.434 -0.088649 0.69391 -0.71458
-0.028893 -0.034607 0.435 -0.067772 0.66567 -0.74316
-0.028893 -0.033802 0.435 -0.038817 0.64661 -0.76184
-0.028893 -0.032997 0.435 0.0024403 0.61542 -0.78819
-0.028893 -0.032192 0.435 0.066905 0.57587 -0.8148
-0.028893 -0.031388 0.435 0.13171 0.52508 -0.8408
-0.028893 -0.030583 0.435 0.20772 0.46489 -0.86066
-0.028893 -0.029778 0.435 0.25183 0.40637 -0.87832
-0.028827 -0.028907 0.434 0.30942 0.34953 -0.88436
-0.028827 -0.028104 0.434 0.36856 0.26672 -0.89052
-0.028827 -0.027301 0.434 0.39994 0.18834 -0.89698
-0.02876 -0.026437 0.433 0.42372 0.11676 -0.89824
-0.02876 -0.025636 0.433 0.42891 0.060439 -0.90132
-0.028694 -0.024777 0.432 0.41818 0.0056355 -0.90835
-0.028694 -0.023978 0.432 0.37474 -0.028746 -0.92669
-0.028627 -0.023125 0.431 0.32039 -0.055864 -0.94564
-0.028627 -0.022327 0.431 0.24602 -0.077106 -0.96619
-0.028627 -0.02153 0.431 0.19211 -0.08109 -0.97802
-0.028627 -0.020733 0.431 0.11419 -0.084127 -0.98989
-0.028627 -0.019935 0.431 0.067141 -0.087557 -0.99389
-0.028627 -0.019138 0.431 0.025887 -0.081576 -0.99633
-0.028627 -0.01834 0.431 -0.020727 -0.072343 -0.99716
-0.028627 -0.017543 0.431 -0.065237 -0.05473 -0.99637
-0.028627 -0.016746 0.431 -0.10535 -0.03502 -0.99382
-0.028627 -0.015948 0.431 -0.12576 -0.019532 -0.99187
-0.028627 -0.015151 0.431 -0.16503 -0.0081773 -0.98626
-0.028627 -0.014353 0.431 -0.21032 -0.0030397 -0.97763
-0.028627 -0.013556 0.431 -0.26272 0.0069999 -0.96485
-0.028694 -0.012788 0.432 -0.30061 0.011833 -0.95367
-0.028694 -0.011989 0.432 -0.34882 0.013566 -0.93709
-0.028694 -0.01119 0.432 -0.37397 0.023009 -0.92716
-0.028694 -0.01039 0.432 -0.4055 0.02551 -0.91374
-0.028694 -0.0095911 0.432 -0.43475 0.038144 -0.89974
-0.02876 -0.0088122 0.433 -0.48151 0.051448 -0.87493
-0.028827 -0.0080296 0.434 -0.52226 0.063024 -0.85045
-0.028827 -0.0072266 0.434 -0.5553 0.052702 -0.82998
-0.028893 -0.0064385 0.435 -0.60106 0.065221 -0.79654
-0.028893 -0.0056337 0.435 -0.59398 0.05481 -0.80261
-0.028959 -0.00484 0.436 -0.62916 0.083332 -0.7728
-0.028959 -0.0040333 0.436 -0.55973 0.080022 -0.8248
-0.029092 -0.0032414 0.438 -0.7148 0.073378 -0.69547
-0.029159 -0.0024366 0.439 -0.73805 0.065631 -0.67155
-0.029159 -0.0016244 0.439 -0.68859 0.049504 -0.72346
-0.029292 -0.00081591 0.441 -0.76601 0.057208 -0.64028
-0.029424 0.00081961 0.443 -0.77954 0.042223 -0.62493
-0.029491 0.0016429 0.444 -0.78499 0.039406 -0.61825
-0.029557 0.0024699 0.445 -0.77928 0.01916 -0.62639
-0.02969 0.003308 0.447 -0.74954 0.1824 -0.63633
-0.029756 0.0041443 0.448 -0.74069 0.18894 -0.64473
-0.029823 0.0049843 0.449 -0.74243 0.1946 -0.64104
-0.029823 0.005815 0.449 -0.75127 0.033465 -0.65914
-0.029889 0.0066605 0.45 -0.72598 0.045349 -0.68622
-0.029956 0.0075097 0.451 -0.72123 0.0375 -0.69168
-0.030022 0.0083626 0.452 -0.7474 -0.007396 -0.66434
-0.030288 0.0092803 0.456 -0.76455 0.39608 -0.50851
-0.030354 0.010146 0.457 -0.71625 0.37632 -0.58768
-0.030554 0.011064 0.46 -0.47146 0.61332 -0.63369
-0.030554 0.011915 0.46 -0.53017 0.55863 -0.63785
-0.03062 0.012794 0.461 -0.46575 0.61295 -0.63826
-0.030686 0.013676 0.462 -0.41044 0.6882 -0.59827
-0.030753 0.014562 0.463 -0.38939 0.76012 -0.52019
-0.030753 0.015419 0.463 -0.35514 0.7379 -0.57391
-0.030819 0.016311 0.464 -0.37064 0.79057 -0.48747
-0.030886 0.017206 0.465 -0.36785 0.83673 -0.40567
-0.030952 0.018105 0.466 -0.36228 0.85214 -0.37764
-0.025443 -0.10497 0.394 -0.0014662 -0.13769 -0.99047
-0.025443 -0.10424 0.394 -0.021653 -0.12314 -0.99215
-0.025443 -0.10351 0.394 -0.044011 -0.092353 -0.99475
-0.025443 -0.10278 0.394 -0.07697 -0.053053 -0.99562
-0.025443 -0.10205 0.394 -0.10849 -0.012397 -0.99402
-0.025443 -0.10132 0.394 -0.15827 0.012313 -0.98732
-0.025443 -0.1006 0.394 -0.19071 0.03559 -0.981
-0.025443 -0.099867 0.394 -0.22125 0.065088 -0.97304
-0.025443 -0.099138 0.394 -0.24146 0.098506 -0.9654
-0.025507 -0.098659 0.395 -0.28787 0.11236 -0.95106
-0.025507 -0.097928 0.395 -0.32575 0.11951 -0.93787
-0.025507 -0.097197 0.395 -0.3414 0.11816 -0.93246
-0.025507 -0.096466 0.395 -0.34279 0.098129 -0.93427
-0.025572 -0.095978 0.396 -0.4171 0.15871 -0.8949
-0.025572 -0.095245 0.396 -0.38486 0.11683 -0.91555
-0.025637 -0.094751 0.397 -0.49323 0.20175 -0.84618
-0.025637 -0.094017 0.397 -0.45684 0.17084 -0.87299
-0.025701 -0.093517 0.398 -0.55436 0.26987 -0.78731
-0.022279 -0.068298 0.345 -0.53286 -0.052183 -0.84459
-0.022279 -0.06766 0.345 -0.5809 -0.18048 -0.79371
-0.022343 -0.067216 0.346 -0.59169 -0.02325 -0.80583
-0.022343 -0.066575 0.346 -0.65621 -0.14205 -0.74109
-0.022408 -0.066126 0.347 -0.64471 -0.028146 -0.76391
-0.022408 -0.065484 0.347 -0.64064 -0.17251 -0.74821
-0.022472 -0.065029 0.348 -0.65559 -0.051381 -0.75337
-0.022472 -0.064385 0.348 -0.6237 -0.20667 -0.75385
-0.022537 -0.063924 0.349 -0.63854 -0.076801 -0.76575
-0.022537 -0.063278 0.349 -0.57637 -0.22211 -0.78642
-0.022537 -0.062633 0.349 -0.51399 -0.36662 -0.7755
-0.022666 -0.060394 0.351 -0.46268 -0.31974 -0.82686
-0.02822 -0.058213 0.437 0.11638 0.53808 -0.83482
-0.02822 -0.057404 0.437 0.19301 0.54097 -0.8186
-0.02822 -0.056596 0.437 0.25898 0.54096 -0.80018
-0.02822 -0.055787 0.437 0.29762 0.53763 -0.78891
-0.028155 -0.054853 0.436 0.23774 0.55188 -0.79931
-0.028155 -0.054046 0.436 0.26002 0.55259 -0.79185
-0.028155 -0.05324 0.436 0.25937 0.5639 -0.78405
-0.028155 -0.052433 0.436 0.23891 0.57436 -0.78297
-0.02809 -0.051508 0.435 0.21911 0.58432 -0.78139
-0.02809 -0.050703 0.435 0.21181 0.59324 -0.77666
-0.02809 -0.049898 0.435 0.20442 0.60126 -0.77246
-0.02809 -0.049093 0.435 0.19575 0.60775 -0.76962
-0.02809 -0.048289 0.435 0.17753 0.6133 -0.76964
-0.028026 -0.047375 0.434 0.16364 0.61925 -0.76795
-0.028026 -0.046572 0.434 0.15545 0.63025 -0.76067
-0.028026 -0.045769 0.434 0.15818 0.6364 -0.75497
-0.028026 -0.044966 0.434 0.14222 0.64248 -0.75299
-0.028026 -0.044163 0.434 0.12999 0.64892 -0.74967
-0.028026 -0.04336 0.434 0.11018 0.65618 -0.74652
-0.027961 -0.042459 0.433 0.088506 0.66234 -0.74396
-0.027961 -0.041658 0.433 0.074219 0.66824 -0.74023
-0.027961 -0.040857 0.433 0.056135 0.67311 -0.73741
-0.027961 -0.040056 0.433 0.040045 0.6782 -0.73378
-0.027961 -0.039254 0.433 0.010632 0.6837 -0.72969
-0.027961 -0.038453 0.433 -0.015618 0.68715 -0.72635
-0.027961 -0.037652 0.433 -0.040344 0.69159 -0.72116
-0.027961 -0.036851 0.433 -0.056147 0.69206 -0.71965
-0.027961 -0.03605 0.433 -0.081056 0.69168 -0.71764
-0.028026 -0.03533 0.434 -0.095253 0.69781 -0.70992
-0.028026 -0.034527 0.434 -0.096671 0.68669 -0.72049
-0.028026 -0.033724 0.434 -0.087322 0.67165 -0.7357
-0.028026 -0.032921 0.434 -0.068858 0.64844 -0.75814
-0.02809 -0.032192 0.435 0.042115 0.54937 -0.83452
-0.02809 -0.031388 0.435 0.10348 0.50744 -0.85545
-0.02809 -0.030583 0.435 0.17582 0.45631 -0.87228
-0.028026 -0.02971 0.434 0.15068 0.47135 -0.86898
-0.028026 -0.028907 0.434 0.23304 0.39433 -0.88893
-0.028026 -0.028104 0.434 0.30017 0.30678 -0.90321
-0.027961 -0.027238 0.433 0.34652 0.21656 -0.9127
-0.027961 -0.026437 0.433 0.37565 0.13433 -0.91698
-0.027961 -0.025636 0.433 0.38654 0.059815 -0.92033
-0.027897 -0.024777 0.432 0.37982 -0.0066955 -0.92503
-0.027897 -0.023978 0.432 0.33809 -0.052467 -0.93965
-0.027897 -0.023179 0.432 0.28874 -0.084803 -0.95365
-0.027832 -0.022327 0.431 0.21949 -0.11546 -0.96876
-0.027832 -0.02153 0.431 0.16858 -0.12963 -0.97713
-0.027832 -0.020733 0.431 0.096232 -0.14293 -0.98504
-0.027832 -0.019935 0.431 0.057468 -0.14736 -0.98741
-0.027832 -0.019138 0.431 0.020566 -0.14356 -0.98943
-0.027832 -0.01834 0.431 -0.015441 -0.13654 -0.99051
-0.027832 -0.017543 0.431 -0.055634 -0.11918 -0.99131
-0.027832 -0.016746 0.431 -0.092731 -0.092474 -0.99139
-0.027832 -0.015948 0.431 -0.11632 -0.07391 -0.99046
-0.027832 -0.015151 0.431 -0.1537 -0.065399 -0.98595
-0.027832 -0.014353 0.431 -0.19826 -0.060833 -0.97826
-0.027832 -0.013556 0.431 -0.24642 -0.052156 -0.96776
-0.027897 -0.012788 0.432 -0.28672 -0.04749 -0.95684
-0.027897 -0.011989 0.432 -0.3339 -0.043813 -0.94159
-0.027897 -0.01119 0.432 -0.36385 -0.03561 -0.93078
-0.027897 -0.01039 0.432 -0.40072 -0.027461 -0.91579
-0.027961 -0.0096133 0.433 -0.43042 -0.012104 -0.90255
-0.027961 -0.0088122 0.433 -0.47585 0.0045367 -0.87951
-0.028026 -0.0080296 0.434 -0.51555 0.010582 -0.85679
-0.028026 -0.0072266 0.434 -0.55657 0.0063194 -0.83078
-0.02809 -0.0064385 0.435 -0.59863 0.025419 -0.80062
-0.02809 -0.0056337 0.435 -0.59343 0.024683 -0.80451
-0.028155 -0.00484 0.436 -0.62938 0.040675 -0.77604
-0.028155 -0.0040333 0.436 -0.56357 0.04496 -0.82484
-0.028284 -0.0032414 0.438 -0.71968 0.024582 -0.69387
-0.028478 -0.00081591 0.441 -0.76682 0.015464 -0.64168
-0.028542 0 0.442 -0.772 0.0057884 -0.6356
-0.028607 0.00081961 0.443 -0.77604 0.0041623 -0.63067
-0.028672 0.0016429 0.444 -0.77917 0.014075 -0.62665
-0.028736 0.0024699 0.445 -0.77591 0.013231 -0.6307
-0.028801 0.0033006 0.446 -0.77106 0.020482 -0.63643
-0.02893 0.0041443 0.448 -0.7368 0.16478 -0.65573
-0.02893 0.0049732 0.448 -0.76192 0.047577 -0.64592
-0.028994 0.005815 0.449 -0.75452 0.050594 -0.65433
-0.029124 0.0066753 0.451 -0.77055 0.16339 -0.61608
-0.029124 0.0075097 0.451 -0.73155 0.042327 -0.68047
-0.029188 0.0083626 0.452 -0.74993 0.018168 -0.66126
-0.029253 0.0092192 0.453 -0.76846 -0.038939 -0.63871
-0.029446 0.010124 0.456 -0.76377 0.29712 -0.57304
-0.029576 0.011016 0.458 -0.58518 0.44352 -0.67886
-0.02964 0.011889 0.459 -0.52808 0.50585 -0.68209
-0.029705 0.012766 0.46 -0.47607 0.5687 -0.67077
-0.029705 0.013617 0.46 -0.44172 0.53807 -0.71789
-0.029769 0.0145 0.461 -0.35786 0.62262 -0.6959
-0.029834 0.015386 0.462 -0.3292 0.71489 -0.61689
-0.029899 0.016276 0.463 -0.35096 0.77898 -0.51964
-0.029899 0.017132 0.463 -0.29913 0.76933 -0.5645
-0.029963 0.018028 0.464 -0.3282 0.81685 -0.47438
-0.024716 -0.10497 0.394 -0.001869 -0.15317 -0.9882
-0.024716 -0.10424 0.394 -0.0018144 -0.13791 -0.99044
-0.024716 -0.10351 0.394 -0.010505 -0.11168 -0.99369
-0.024716 -0.10278 0.394 -0.033986 -0.076822 -0.99647
-0.024716 -0.10205 0.394 -0.062366 -0.036185 -0.9974
-0.024716 -0.10132 0.394 -0.11295 -0.015769 -0.99348
-0.024716 -0.1006 0.394 -0.1495 0.0056049 -0.98875
-0.024716 -0.099867 0.394 -0.18748 0.036724 -0.98158
-0.024716 -0.099138 0.394 -0.21795 0.073922 -0.97316
-0.024716 -0.098409 0.394 -0.26388 0.092249 -0.96013
-0.024779 -0.097928 0.395 -0.31748 0.112 -0.94163
-0.024779 -0.097197 0.395 -0.34164 0.11629 -0.93261
-0.024779 -0.096466 0.395 -0.35504 0.11001 -0.92836
-0.024779 -0.095735 0.395 -0.32144 0.070358 -0.94431
-0.024841 -0.095245 0.396 -0.39817 0.13254 -0.90769
-0.024904 -0.094751 0.397 -0.48914 0.21928 -0.84419
-0.024904 -0.094017 0.397 -0.46566 0.20158 -0.8617
-0.024967 -0.093517 0.398 -0.55072 0.31498 -0.77298
-0.021579 -0.070009 0.344 -0.43908 -0.0057763 -0.89843
-0.021642 -0.068298 0.345 -0.5408 -0.042355 -0.84008
-0.021642 -0.06766 0.345 -0.59108 -0.15183 -0.79219
-0.021705 -0.067216 0.346 -0.60018 -0.027433 -0.79939
-0.021705 -0.066575 0.346 -0.67166 -0.12381 -0.73044
-0.021768 -0.066126 0.347 -0.65592 -0.043328 -0.75358
-0.021768 -0.065484 0.347 -0.65563 -0.15669 -0.73864
-0.02183 -0.065029 0.348 -0.65944 -0.080703 -0.74741
-0.021893 -0.06457 0.349 -0.66007 -0.0036462 -0.7512
-0.021893 -0.063924 0.349 -0.63932 -0.11177 -0.76077
-0.021893 -0.063278 0.349 -0.57184 -0.23631 -0.78559
-0.021956 -0.062812 0.35 -0.61131 -0.13796 -0.77928
-0.021956 -0.062165 0.35 -0.53546 -0.27831 -0.79739
-0.022018 -0.061693 0.351 -0.57999 -0.15636 -0.79947
-0.027413 -0.057404 0.437 0.33179 0.49359 -0.80392
-0.027351 -0.056466 0.436 0.18519 0.52333 -0.83176
-0.027351 -0.05566 0.436 0.26284 0.5182 -0.81387
-0.027351 -0.054853 0.436 0.29877 0.51988 -0.80028
-0.027288 -0.053922 0.435 0.27135 0.52423 -0.80719
-0.027288 -0.053117 0.435 0.27066 0.54264 -0.79516
-0.027288 -0.052313 0.435 0.25033 0.55702 -0.79187
-0.027288 -0.051508 0.435 0.23664 0.56976 -0.78701
-0.027225 -0.050586 0.434 0.21309 0.57131 -0.79259
-0.027225 -0.049784 0.434 0.20124 0.58592 -0.78498
-0.027225 -0.048981 0.434 0.19557 0.59645 -0.77846
-0.027225 -0.048178 0.434 0.17915 0.60616 -0.77491
-0.027225 -0.047375 0.434 0.17125 0.61243 -0.77175
-0.027162 -0.046464 0.433 0.15663 0.61844 -0.77006
-0.027162 -0.045663 0.433 0.16157 0.62565 -0.76319
-0.027162 -0.044862 0.433 0.14983 0.63444 -0.75831
-0.027162 -0.044061 0.433 0.142 0.64111 -0.7542
-0.027162 -0.04326 0.433 0.12584 0.64835 -0.75087
-0.027162 -0.042459 0.433 0.10672 0.65554 -0.74758
-0.0271 -0.041562 0.432 0.088599 0.64061 -0.76274
-0.0271 -0.040762 0.432 0.068689 0.64802 -0.75852
-0.027162 -0.040056 0.433 0.046385 0.67641 -0.73506
-0.0271 -0.039164 0.432 0.026108 0.66051 -0.75037
-0.0271 -0.038364 0.432 0.00012805 0.66771 -0.74442
-0.0271 -0.037565 0.432 -0.016017 0.67316 -0.73933
-0.0271 -0.036766 0.432 -0.036493 0.67127 -0.74032
-0.0271 -0.035967 0.432 -0.066464 0.66783 -0.74134
-0.027162 -0.035249 0.433 -0.10477 0.69308 -0.7132
-0.027162 -0.034448 0.433 -0.11993 0.68344 -0.72009
-0.027162 -0.033647 0.433 -0.12283 0.66914 -0.73291
-0.027162 -0.032846 0.433 -0.11406 0.6515 -0.75003
-0.027225 -0.032118 0.434 -0.064422 0.61231 -0.78799
-0.027225 -0.031315 0.434 -0.022269 0.5813 -0.81339
-0.027225 -0.030512 0.434 0.036632 0.54017 -0.84076
-0.027225 -0.02971 0.434 0.081682 0.49406 -0.86558
-0.027225 -0.028907 0.434 0.1504 0.43348 -0.88852
-0.027225 -0.028104 0.434 0.21773 0.3547 -0.90928
-0.027162 -0.027238 0.433 0.2685 0.26202 -0.92696
-0.027162 -0.026437 0.433 0.3049 0.17761 -0.93568
-0.027162 -0.025636 0.433 0.31983 0.096266 -0.94257
-0.0271 -0.024777 0.432 0.31752 0.018626 -0.94807
-0.0271 -0.023978 0.432 0.28864 -0.039566 -0.95662
-0.0271 -0.023179 0.432 0.25192 -0.083741 -0.96412
-0.027037 -0.022327 0.431 0.19427 -0.12007 -0.97357
-0.027037 -0.02153 0.431 0.15347 -0.14189 -0.97791
-0.027037 -0.020733 0.431 0.09391 -0.16287 -0.98217
-0.027037 -0.019935 0.431 0.06436 -0.17217 -0.98296
-0.027037 -0.019138 0.431 0.031702 -0.17541 -0.98399
-0.026974 -0.017502 0.43 -0.036987 -0.16086 -0.98628
-0.027037 -0.016746 0.431 -0.077975 -0.13915 -0.9872
-0.026974 -0.015911 0.43 -0.11304 -0.11887 -0.98645
-0.026974 -0.015116 0.43 -0.14637 -0.11432 -0.9826
-0.027037 -0.014353 0.431 -0.18764 -0.11126 -0.97592
-0.0271 -0.013587 0.432 -0.23827 -0.10483 -0.96552
-0.0271 -0.012788 0.432 -0.27737 -0.10175 -0.95536
-0.0271 -0.011989 0.432 -0.32831 -0.097152 -0.93956
-0.0271 -0.01119 0.432 -0.35754 -0.091299 -0.92943
-0.0271 -0.01039 0.432 -0.39484 -0.078561 -0.91538
-0.027162 -0.0096133 0.433 -0.42571 -0.0661 -0.90244
-0.027162 -0.0088122 0.433 -0.46885 -0.051849 -0.88175
-0.027225 -0.0080296 0.434 -0.50714 -0.047828 -0.86053
-0.027225 -0.0072266 0.434 -0.55437 -0.044238 -0.83109
-0.027288 -0.0064385 0.435 -0.59771 -0.017512 -0.80152
-0.027288 -0.0056337 0.435 -0.59312 -0.0092877 -0.80506
-0.027351 -0.00484 0.436 -0.62531 0.0034994 -0.78037
-0.027351 -0.0040333 0.436 -0.55808 0.021232 -0.82952
-0.027476 -0.0032414 0.438 -0.72094 -0.017249 -0.69278
-0.027539 -0.0024366 0.439 -0.74557 -0.021319 -0.66609
-0.027539 -0.0016244 0.439 -0.70732 -0.036584 -0.70595
-0.027601 -0.00081406 0.44 -0.72259 -0.043815 -0.68989
-0.027664 0 0.441 -0.72754 -0.067709 -0.68272
-0.02779 0.00081961 0.443 -0.7739 -0.025116 -0.63281
-0.027852 0.0016429 0.444 -0.77802 -0.0061322 -0.62821
-0.027915 0.0024699 0.445 -0.77135 0.0010059 -0.63641
-0.027978 0.0033006 0.446 -0.76467 0.019023 -0.64414
-0.028041 0.0041351 0.447 -0.76457 0.039303 -0.64334
-0.028103 0.0049732 0.448 -0.75957 0.055709 -0.64804
-0.028166 0.005815 0.449 -0.7554 0.048226 -0.65349
-0.028229 0.0066605 0.45 -0.74044 0.060696 -0.66938
-0.028292 0.0075097 0.451 -0.74073 0.041047 -0.67055
-0.028354 0.0083626 0.452 -0.75412 0.0312 -0.656
-0.028417 0.0092192 0.453 -0.76733 -0.01583 -0.64105
-0.028605 0.010124 0.456 -0.73374 0.2963 -0.61142
-0.028731 0.011016 0.458 -0.51138 0.45706 -0.72773
-0.028793 0.011889 0.459 -0.46486 0.51856 -0.71763
-0.028793 0.012738 0.459 -0.46658 0.50117 -0.72879
-0.028856 0.013617 0.46 -0.39759 0.58834 -0.70412
-0.028856 0.014468 0.46 -0.33862 0.58944 -0.73342
-0.028982 0.017095 0.462 -0.27482 0.75791 -0.59165
-0.028982 0.01795 0.462 -0.24792 0.74528 -0.61895
-0.029044 0.018846 0.463 -0.26671 0.81282 -0.51787
-0.029232 0.021554 0.466 -0.37498 0.86293 -0.33872
-0.029232 0.022416 0.466 -0.31784 0.86659 -0.3847
-0.023989 -0.10497 0.394 -0.0099352 -0.1445 -0.98945
-0.023989 -0.10424 0.394 0.0048367 -0.13521 -0.9908
-0.023989 -0.10351 0.394 0.014032 -0.11563 -0.99319
-0.023989 -0.10278 0.394 -0.007018 -0.090885 -0.99584
-0.023989 -0.10205 0.394 -0.033513 -0.060904 -0.99758
-0.023989 -0.10132 0.394 -0.090443 -0.038115 -0.99517
-0.023989 -0.1006 0.394 -0.12125 -0.027251 -0.99225
-0.023989 -0.099867 0.394 -0.16544 0.0054332 -0.9862
-0.023989 -0.099138 0.394 -0.20171 0.040498 -0.97861
-0.023989 -0.098409 0.394 -0.24725 0.064599 -0.9668
-0.02405 -0.097928 0.395 -0.30134 0.08089 -0.95008
-0.02405 -0.097197 0.395 -0.32603 0.085458 -0.94149
-0.02405 -0.096466 0.395 -0.35158 0.095535 -0.93127
-0.02405 -0.095735 0.395 -0.32452 0.073034 -0.94305
-0.024111 -0.095245 0.396 -0.39136 0.13039 -0.91096
-0.024111 -0.094512 0.396 -0.35139 0.094512 -0.93145
-0.024172 -0.094017 0.397 -0.47172 0.21097 -0.85614
-0.024172 -0.093282 0.397 -0.43809 0.18196 -0.88032
-0.020945 -0.070646 0.344 -0.29115 0.087705 -0.95265
-0.020945 -0.070009 0.344 -0.43926 0.019062 -0.89816
-0.020945 -0.069373 0.344 -0.52925 -0.062229 -0.84618
-0.021006 -0.068298 0.345 -0.55774 -0.050739 -0.82847
-0.021006 -0.06766 0.345 -0.60986 -0.13549 -0.78084
-0.021066 -0.067216 0.346 -0.61389 -0.058218 -0.78724
-0.021066 -0.066575 0.346 -0.68422 -0.1224 -0.71893
-0.021127 -0.066126 0.347 -0.66829 -0.082623 -0.7393
-0.021127 -0.065484 0.347 -0.66674 -0.15309 -0.7294
-0.021188 -0.065029 0.348 -0.65885 -0.12065 -0.74254
-0.021249 -0.06457 0.349 -0.65518 -0.082964 -0.7509
-0.021249 -0.063924 0.349 -0.62888 -0.15486 -0.76192
-0.02131 -0.06346 0.35 -0.62627 -0.097711 -0.77346
-0.02131 -0.062812 0.35 -0.59568 -0.18256 -0.7822
-0.021371 -0.062342 0.351 -0.62368 -0.091744 -0.77628
-0.021371 -0.061693 0.351 -0.56145 -0.20421 -0.80191
-0.021371 -0.061043 0.351 -0.47318 -0.31651 -0.82214
-0.021371 -0.060394 0.351 -0.37488 -0.4093 -0.83183
-0.026546 -0.057273 0.436 0.22447 0.4762 -0.8502
-0.026546 -0.056466 0.436 0.30375 0.47897 -0.8236
-0.026546 -0.05566 0.436 0.34832 0.4725 -0.80958
-0.026485 -0.054727 0.435 0.28165 0.49156 -0.82404
-0.026485 -0.053922 0.435 0.30027 0.49412 -0.81589
-0.026485 -0.053117 0.435 0.29238 0.51004 -0.80893
-0.026424 -0.052192 0.434 0.26195 0.52536 -0.80956
-0.026424 -0.051389 0.434 0.24812 0.54038 -0.80401
-0.026424 -0.050586 0.434 0.23223 0.55218 -0.80073
-0.026424 -0.049784 0.434 0.21942 0.56382 -0.79622
-0.026363 -0.048868 0.433 0.20466 0.56748 -0.79754
-0.026363 -0.048067 0.433 0.18882 0.58051 -0.79206
-0.026363 -0.047265 0.433 0.18874 0.58817 -0.7864
-0.026363 -0.046464 0.433 0.18244 0.59814 -0.78035
-0.026363 -0.045663 0.433 0.18026 0.6064 -0.77446
-0.026303 -0.044759 0.432 0.15622 0.60695 -0.77924
-0.026303 -0.043959 0.432 0.14735 0.61794 -0.77229
-0.026303 -0.04316 0.432 0.12945 0.62812 -0.76727
-0.026303 -0.042361 0.432 0.11233 0.63663 -0.76294
-0.026303 -0.041562 0.432 0.093794 0.64295 -0.76014
-0.026303 -0.040762 0.432 0.074466 0.65036 -0.75597
-0.026303 -0.039963 0.432 0.059984 0.65722 -0.7513
-0.026303 -0.039164 0.432 0.027137 0.66341 -0.74777
-0.026303 -0.038364 0.432 0.00077047 0.66922 -0.74306
-0.026303 -0.037565 0.432 -0.019745 0.67489 -0.73766
-0.026303 -0.036766 0.432 -0.042699 0.67735 -0.73442
-0.026303 -0.035967 0.432 -0.073146 0.68011 -0.72945
-0.026303 -0.035167 0.432 -0.10715 0.67606 -0.72901
-0.026303 -0.034368 0.432 -0.13506 0.66771 -0.73207
-0.026303 -0.033569 0.432 -0.14965 0.65278 -0.74262
-0.026303 -0.03277 0.432 -0.15538 0.63635 -0.75559
-0.026363 -0.032044 0.433 -0.12543 0.62607 -0.76961
-0.026363 -0.031243 0.433 -0.094952 0.60406 -0.79127
-0.026424 -0.030512 0.434 0.0068184 0.52739 -0.8496
-0.026363 -0.029641 0.433 -0.0052679 0.52883 -0.84871
-0.026424 -0.028907 0.434 0.098562 0.43835 -0.89338
-0.026363 -0.028039 0.433 0.13266 0.39405 -0.90946
-0.026363 -0.027238 0.433 0.18353 0.30729 -0.93375
-0.026363 -0.026437 0.433 0.21994 0.22521 -0.94916
-0.026363 -0.025636 0.433 0.24234 0.13965 -0.96009
-0.026303 -0.024777 0.432 0.2439 0.059055 -0.968
-0.026303 -0.023978 0.432 0.22431 -0.012091 -0.97444
-0.026303 -0.023179 0.432 0.19672 -0.069775 -0.97797
-0.026303 -0.022379 0.432 0.1526 -0.1187 -0.98113
-0.026242 -0.02153 0.431 0.12624 -0.15635 -0.9796
-0.026242 -0.020733 0.431 0.084495 -0.18273 -0.97952
-0.026242 -0.019935 0.431 0.069133 -0.19567 -0.97823
-0.026242 -0.019138 0.431 0.045718 -0.20567 -0.97755
-0.026242 -0.01834 0.431 0.017276 -0.20876 -0.97781
-0.026242 -0.017543 0.431 -0.017261 -0.21264 -0.97698
-0.026181 -0.016707 0.43 -0.057081 -0.19821 -0.9785
-0.026242 -0.015948 0.431 -0.097701 -0.17761 -0.97924
-0.026242 -0.015151 0.431 -0.13301 -0.16706 -0.97693
-0.026242 -0.014353 0.431 -0.17741 -0.16686 -0.96989
-0.026303 -0.013587 0.432 -0.2319 -0.15781 -0.95985
-0.026303 -0.012788 0.432 -0.27101 -0.15233 -0.95045
-0.026303 -0.011989 0.432 -0.32283 -0.14695 -0.93498
-0.026303 -0.01119 0.432 -0.34856 -0.14459 -0.92607
-0.026363 -0.010414 0.433 -0.38702 -0.13273 -0.91247
-0.026363 -0.0096133 0.433 -0.41645 -0.1245 -0.90059
-0.026363 -0.0088122 0.433 -0.45888 -0.10826 -0.88188
-0.026424 -0.0080296 0.434 -0.50019 -0.10701 -0.85928
-0.026424 -0.0072266 0.434 -0.5498 -0.08925 -0.83051
-0.026485 -0.0064385 0.435 -0.58972 -0.078961 -0.80374
-0.026485 -0.0056337 0.435 -0.58457 -0.061472 -0.80901
-0.026546 -0.00484 0.436 -0.62113 -0.05786 -0.78157
-0.026546 -0.0040333 0.436 -0.54694 -0.04122 -0.83616
-0.026607 -0.003234 0.437 -0.638 -0.041728 -0.76891
-0.026668 -0.0024311 0.438 -0.67239 -0.075708 -0.73632
-0.026729 -0.0016244 0.439 -0.70609 -0.082286 -0.70332
-0.02679 -0.00081406 0.44 -0.72138 -0.077814 -0.68816
-0.026851 0 0.441 -0.72723 -0.084699 -0.68115
-0.026972 0.00081961 0.443 -0.76976 -0.042438 -0.63692
-0.027033 0.0016429 0.444 -0.76764 -0.021985 -0.64051
-0.027094 0.0024699 0.445 -0.7654 -0.0066878 -0.64353
-0.027155 0.0033006 0.446 -0.76362 0.010659 -0.64558
-0.027216 0.0041351 0.447 -0.76854 0.025388 -0.6393
-0.027277 0.0049732 0.448 -0.76714 0.032533 -0.64065
-0.027338 0.005815 0.449 -0.76247 0.028835 -0.64638
-0.027399 0.0066605 0.45 -0.75013 0.036417 -0.66029
-0.027459 0.0075097 0.451 -0.74767 0.02522 -0.6636
-0.02752 0.0083626 0.452 -0.75473 0.021585 -0.65568
-0.027581 0.0092192 0.453 -0.75875 -0.010441 -0.65129
-0.027703 0.010102 0.455 -0.76257 0.16561 -0.62535
-0.027825 0.010992 0.457 -0.59067 0.38385 -0.70976
-0.027886 0.011863 0.458 -0.43763 0.45558 -0.7752
-0.027946 0.012738 0.459 -0.39798 0.52953 -0.74914
-0.027946 0.013587 0.459 -0.37184 0.53295 -0.76006
-0.028007 0.014468 0.46 -0.31031 0.61432 -0.72548
-0.028007 0.015319 0.46 -0.23101 0.6399 -0.73291
-0.028007 0.01617 0.46 -0.18873 0.65075 -0.73546
-0.028068 0.017058 0.461 -0.23028 0.71831 -0.65651
-0.028068 0.017911 0.461 -0.19359 0.72429 -0.66176
-0.028129 0.018805 0.462 -0.25121 0.79513 -0.55197
-0.028129 0.01966 0.462 -0.22472 0.80229 -0.55302
-0.028129 0.020514 0.462 -0.1925 0.79647 -0.57323
-0.02819 0.021415 0.463 -0.25102 0.83082 -0.49672
-0.028251 0.02232 0.464 -0.31013 0.84726 -0.43124
-0.023262 -0.10497 0.394 -0.013847 -0.096179 -0.99527
-0.023262 -0.10424 0.394 0.0090185 -0.097695 -0.99518
-0.023262 -0.10351 0.394 0.031756 -0.095912 -0.99488
-0.023262 -0.10278 0.394 0.018851 -0.08028 -0.99659
