0.0039207 -0.039315 0.425 -0.073304 -0.54078 -0.83797
0.0039299 -0.03862 0.426 -0.11137 -0.54044 -0.83398
0.0039299 -0.037832 0.426 -0.13158 -0.54398 -0.82872
0.0039299 -0.037043 0.426 -0.1502 -0.54373 -0.82571
0.0039299 -0.036255 0.426 -0.15105 -0.54366 -0.8256
0.0039299 -0.035467 0.426 -0.14439 -0.543 -0.82723
0.0039299 -0.034679 0.426 -0.11315 -0.53971 -0.83421
0.0039299 -0.033891 0.426 -0.074762 -0.52721 -0.84644
0.0039391 -0.03318 0.427 -0.013532 -0.51011 -0.86
0.0039391 -0.03239 0.427 0.057779 -0.48199 -0.87427
0.0039391 -0.0316 0.427 0.14459 -0.4455 -0.88353
0.0039391 -0.03081 0.427 0.2178 -0.40656 -0.88728
0.0039299 -0.02995 0.426 0.29451 -0.36411 -0.88357
0.0039299 -0.029162 0.426 0.3591 -0.31668 -0.87793
0.0039299 -0.028374 0.426 0.39408 -0.27913 -0.87566
0.0039207 -0.027521 0.425 0.4207 -0.23829 -0.87535
0.0039207 -0.026735 0.425 0.42594 -0.20822 -0.88047
0.0039114 -0.025887 0.424 0.41976 -0.18355 -0.88888
0.0039114 -0.025103 0.424 0.40048 -0.1698 -0.90043
0.0039022 -0.024261 0.423 0.37187 -0.15935 -0.91451
0.0039022 -0.023478 0.423 0.33238 -0.16475 -0.92864
0.0039022 -0.022696 0.423 0.2946 -0.1727 -0.93988
0.0039022 -0.021913 0.423 0.25251 -0.18359 -0.95002
0.003893 -0.02108 0.422 0.21142 -0.19563 -0.95762
0.003893 -0.0203 0.422 0.15978 -0.20836 -0.96491
0.003893 -0.019519 0.422 0.097785 -0.22377 -0.96972
0.003893 -0.018738 0.422 0.048284 -0.2469 -0.96784
0.003893 -0.017957 0.422 -0.0051266 -0.25869 -0.96595
0.003893 -0.017177 0.422 -0.062153 -0.27333 -0.95991
0.003893 -0.016396 0.422 -0.12682 -0.29109 -0.94825
0.003893 -0.015615 0.422 -0.1833 -0.30828 -0.93347
0.003893 -0.014834 0.422 -0.23773 -0.31772 -0.9179
0.0039022 -0.014087 0.423 -0.27404 -0.32583 -0.90484
0.0039022 -0.013304 0.423 -0.30443 -0.33931 -0.89005
0.0039022 -0.012522 0.423 -0.32663 -0.34799 -0.87876
0.0039022 -0.011739 0.423 -0.34734 -0.35554 -0.86773
0.0039114 -0.010982 0.424 -0.36516 -0.3569 -0.85982
0.0039114 -0.010198 0.424 -0.37871 -0.35788 -0.85352
0.0039207 -0.0094357 0.425 -0.38029 -0.36224 -0.85098
0.0039207 -0.0086494 0.425 -0.38805 -0.36474 -0.8464
0.0039207 -0.0078631 0.425 -0.3981 -0.35703 -0.84501
0.0039299 -0.0070934 0.426 -0.41058 -0.34666 -0.84336
0.0039299 -0.0063053 0.426 -0.42809 -0.33907 -0.83772
0.0039391 -0.0055301 0.427 -0.44109 -0.33078 -0.83428
0.0039391 -0.0047401 0.427 -0.45449 -0.31926 -0.83157
0.0039391 -0.00395 0.427 -0.46076 -0.31542 -0.82959
0.0039483 -0.0031674 0.428 -0.46761 -0.3229 -0.82284
0.0039483 -0.0023756 0.428 -0.4693 -0.32489 -0.8211
0.0039576 -0.0015874 0.429 -0.47015 -0.33539 -0.81638
0.0039576 -0.00079371 0.429 -0.45671 -0.3416 -0.82142
0.0039668 0 0.43 -0.4629 -0.36149 -0.80935
0.0039668 0.00079556 0.43 -0.44666 -0.37156 -0.8139
0.003976 0.0015948 0.431 -0.47846 -0.40945 -0.77681
0.003976 0.0023922 0.431 -0.48337 -0.41547 -0.77055
0.003976 0.0031896 0.431 -0.47549 -0.41099 -0.77781
0.0039852 0.0039963 0.432 -0.52029 -0.44142 -0.73106
0.0039852 0.0047956 0.432 -0.52166 -0.42489 -0.73982
0.0040037 0.0056207 0.434 -0.56576 -0.46528 -0.68075
0.0040037 0.0064237 0.434 -0.5717 -0.46111 -0.67863
0.0040129 0.0072433 0.435 -0.58324 -0.47564 -0.65848
0.0040221 0.0080666 0.436 -0.58467 -0.48187 -0.65266
0.0040221 0.0088733 0.436 -0.57135 -0.48269 -0.66376
0.0040314 0.0097021 0.437 -0.55889 -0.49586 -0.66465
0.0040406 0.010535 0.438 -0.53785 -0.50278 -0.67671
0.0040498 0.011371 0.439 -0.5108 -0.51361 -0.68941
0.0040498 0.012183 0.439 -0.50146 -0.52979 -0.684
0.0040498 0.012995 0.439 -0.47359 -0.52634 -0.70617
0.004059 0.013839 0.44 -0.49094 -0.53837 -0.68494
0.0040683 0.014686 0.441 -0.50786 -0.5377 -0.67301
0.0040683 0.015502 0.441 -0.48818 -0.52391 -0.69799
0.0040683 0.016318 0.441 -0.45568 -0.47631 -0.75198
0.0040775 0.017173 0.442 -0.52649 -0.48307 -0.69961
0.0040867 0.018031 0.443 -0.55103 -0.48656 -0.67796
0.0041144 0.018979 0.446 -0.75836 -0.48025 -0.44073
0.0041144 0.019804 0.446 -0.7338 -0.39622 -0.55186
0.0041605 0.02086 0.451 -0.5584 -0.67651 -0.48013
0.004179 0.021791 0.453 -0.31103 -0.71448 -0.62672
0.004179 0.022629 0.453 -0.39953 -0.71689 -0.57135
0.0041882 0.023519 0.454 -0.40885 -0.68472 -0.60333
0.0041974 0.024413 0.455 -0.46817 -0.62562 -0.62403
0.0041974 0.025254 0.455 -0.42594 -0.65061 -0.62871
0.0051255 -0.095941 0.463 -0.044601 0.7107 -0.70208
0.0051255 -0.095084 0.463 -0.036569 0.70447 -0.70879
0.0051255 -0.094228 0.463 -0.027163 0.69904 -0.71457
0.0051255 -0.093371 0.463 -0.0002435 0.69836 -0.71575
0.0051255 -0.092514 0.463 0.013013 0.7003 -0.71373
0.0051255 -0.090801 0.463 0.095788 0.70489 -0.70282
0.0051033 -0.086144 0.461 0.3783 0.60555 -0.70014
0.0050369 -0.080814 0.455 0.71372 0.24021 -0.65796
0.0050037 -0.076936 0.452 0.71799 0.29119 -0.63222
0.0049815 -0.075763 0.45 0.7104 0.11112 -0.69497
0.0049705 -0.074764 0.449 0.72519 0.059379 -0.68598
0.0049594 -0.073769 0.448 0.72857 0.011634 -0.68488
0.0049594 -0.07294 0.448 0.7152 0.085851 -0.69363
0.0049483 -0.07195 0.447 0.70458 0.022867 -0.70925
0.0049262 -0.070805 0.445 0.73379 -0.13936 -0.66493
0.0049151 -0.069824 0.444 0.74423 -0.17632 -0.64424
0.0049041 -0.068847 0.443 0.74263 -0.22635 -0.63029
0.004893 -0.067874 0.442 0.73553 -0.25604 -0.62724
0.0048819 -0.066905 0.441 0.73145 -0.28418 -0.61986
0.0048708 -0.065939 0.44 0.70554 -0.30563 -0.63938
0.0048598 -0.064977 0.439 0.67625 -0.32054 -0.66328
0.0048487 -0.064019 0.438 0.64999 -0.336 -0.68163
0.0048376 -0.063064 0.437 0.62657 -0.35107 -0.69582
0.0048376 -0.062255 0.437 0.61953 -0.36683 -0.69399
0.0048266 -0.061306 0.436 0.61123 -0.38974 -0.68884
0.0048266 -0.0605 0.436 0.58244 -0.3764 -0.72048
0.0048155 -0.059556 0.435 0.58529 -0.41572 -0.69614
0.0048044 -0.058616 0.434 0.58391 -0.44363 -0.67988
0.0047934 -0.05768 0.433 0.56989 -0.46361 -0.67845
0.0047823 -0.056747 0.432 0.53032 -0.47391 -0.70297
0.0047823 -0.055948 0.432 0.5072 -0.49477 -0.70565
0.0047712 -0.055021 0.431 0.45081 -0.50388 -0.7368
0.0047712 -0.054224 0.431 0.41689 -0.52067 -0.74506
0.0047601 -0.053302 0.43 0.35626 -0.52465 -0.77319
0.0047601 -0.052507 0.43 0.32508 -0.54379 -0.7737
0.0047601 -0.051711 0.43 0.30272 -0.55076 -0.77783
0.0047491 -0.050797 0.429 0.29436 -0.54857 -0.78257
0.0047491 -0.050004 0.429 0.30402 -0.55083 -0.77727
0.0047491 -0.04921 0.429 0.31505 -0.5482 -0.77474
0.0047491 -0.048416 0.429 0.32507 -0.5446 -0.77314
0.004738 -0.047512 0.428 0.34519 -0.54583 -0.76349
0.004738 -0.04672 0.428 0.35306 -0.54159 -0.76291
0.0047269 -0.045821 0.427 0.3476 -0.53286 -0.77151
0.0047269 -0.045031 0.427 0.33033 -0.53936 -0.77458
0.0047159 -0.044137 0.426 0.26443 -0.52217 -0.81081
0.0047159 -0.043349 0.426 0.22241 -0.53451 -0.81537
0.0047159 -0.042561 0.426 0.15646 -0.54425 -0.82421
0.0047159 -0.041772 0.426 0.090073 -0.55028 -0.83011
0.0047159 -0.040984 0.426 0.033288 -0.5521 -0.83311
0.0047159 -0.040196 0.426 -0.014892 -0.55296 -0.83308
0.0047159 -0.039408 0.426 -0.072487 -0.55217 -0.83058
0.0047159 -0.03862 0.426 -0.1101 -0.55504 -0.8245
0.0047159 -0.037832 0.426 -0.13008 -0.55841 -0.8193
0.0047159 -0.037043 0.426 -0.14492 -0.55314 -0.82039
0.0047159 -0.036255 0.426 -0.14306 -0.54733 -0.8246
0.0047269 -0.03555 0.427 -0.13406 -0.54169 -0.82982
0.0047269 -0.03476 0.427 -0.09709 -0.53164 -0.84139
0.0047269 -0.03397 0.427 -0.053783 -0.51668 -0.85449
0.0047269 -0.03318 0.427 0.015477 -0.4966 -0.86784
0.0047269 -0.03239 0.427 0.097058 -0.46275 -0.88116
0.0047269 -0.0316 0.427 0.1895 -0.42426 -0.88549
0.0047269 -0.03081 0.427 0.26371 -0.38336 -0.88515
0.0047269 -0.03002 0.427 0.33701 -0.33424 -0.88017
0.0047159 -0.029162 0.426 0.39549 -0.28642 -0.87267
0.0047159 -0.028374 0.426 0.4294 -0.25274 -0.86703
0.0047048 -0.027521 0.425 0.44875 -0.21601 -0.86716
0.0047048 -0.026735 0.425 0.44529 -0.19123 -0.87473
0.0046937 -0.025887 0.424 0.43245 -0.17697 -0.88412
0.0046937 -0.025103 0.424 0.40941 -0.16633 -0.89706
0.0046937 -0.024318 0.424 0.37848 -0.16039 -0.91161
0.0046827 -0.023478 0.423 0.33734 -0.16918 -0.92606
0.0046827 -0.022696 0.423 0.29707 -0.17735 -0.93824
0.0046827 -0.021913 0.423 0.24756 -0.18867 -0.95033
0.0046827 -0.02113 0.423 0.19885 -0.20639 -0.95805
0.0046716 -0.0203 0.422 0.14139 -0.21968 -0.96527
0.0046716 -0.019519 0.422 0.080204 -0.23482 -0.96872
0.0046716 -0.018738 0.422 0.022527 -0.26243 -0.96469
0.0046716 -0.017957 0.422 -0.036717 -0.27461 -0.96085
0.0046716 -0.017177 0.422 -0.092056 -0.28852 -0.95304
0.0046716 -0.016396 0.422 -0.15241 -0.30993 -0.93846
0.0046827 -0.015652 0.423 -0.20137 -0.32754 -0.92313
0.0046827 -0.01487 0.423 -0.25169 -0.33721 -0.90716
0.0046827 -0.014087 0.423 -0.28259 -0.35155 -0.8925
0.0046827 -0.013304 0.423 -0.31157 -0.36265 -0.8783
0.0046937 -0.012551 0.424 -0.33168 -0.36558 -0.86968
0.0046937 -0.011767 0.424 -0.34921 -0.37538 -0.85857
0.0046937 -0.010982 0.424 -0.36412 -0.37836 -0.85103
0.0047048 -0.010222 0.425 -0.37408 -0.3775 -0.84709
0.0047048 -0.0094357 0.425 -0.37753 -0.38357 -0.84282
0.0047048 -0.0086494 0.425 -0.38284 -0.38267 -0.84083
0.0047159 -0.0078816 0.426 -0.38977 -0.37191 -0.84247
0.0047159 -0.0070934 0.426 -0.40051 -0.36413 -0.84083
0.0047159 -0.0063053 0.426 -0.41645 -0.35835 -0.83556
0.0047269 -0.0055301 0.427 -0.43324 -0.34494 -0.83266
0.0047269 -0.0047401 0.427 -0.44619 -0.33285 -0.83074
0.0047269 -0.00395 0.427 -0.45082 -0.32672 -0.83067
0.004738 -0.0031674 0.428 -0.46641 -0.33069 -0.82043
0.004738 -0.0023756 0.428 -0.46622 -0.32759 -0.82178
0.0047491 -0.0015874 0.429 -0.47174 -0.34259 -0.81246
0.0047601 -0.00079556 0.43 -0.4783 -0.3613 -0.80043
0.0047601 0 0.43 -0.4724 -0.36569 -0.80194
0.0047601 0.00079556 0.43 -0.44742 -0.36458 -0.81664
0.0047712 0.0015948 0.431 -0.48824 -0.41329 -0.76864
0.0047712 0.0023922 0.431 -0.48257 -0.40889 -0.77456
0.0047823 0.003197 0.432 -0.51435 -0.44519 -0.73297
0.0047823 0.0039963 0.432 -0.51131 -0.43871 -0.73898
0.0047934 0.0048067 0.433 -0.53514 -0.45404 -0.71237
0.0048044 0.0056207 0.434 -0.55888 -0.47482 -0.67986
0.0048155 0.0064385 0.435 -0.57601 -0.48309 -0.65942
0.0048266 0.0072599 0.436 -0.58401 -0.48211 -0.65307
0.0048266 0.0080666 0.436 -0.58717 -0.48061 -0.65134
0.0048376 0.0088936 0.437 -0.57473 -0.48796 -0.65695
0.0048487 0.0097243 0.438 -0.56063 -0.49059 -0.6671
0.0048487 0.010535 0.438 -0.54761 -0.49833 -0.67215
0.0048598 0.011371 0.439 -0.52864 -0.51345 -0.67595
0.0048708 0.012211 0.44 -0.50933 -0.52826 -0.67935
0.0048708 0.013025 0.44 -0.49234 -0.53367 -0.6876
0.0048819 0.01387 0.441 -0.49715 -0.54199 -0.67756
0.0048819 0.014686 0.441 -0.48298 -0.52679 -0.69944
0.004893 0.015537 0.442 -0.53112 -0.53513 -0.65692
0.004893 0.016355 0.442 -0.50723 -0.50554 -0.69796
0.0049041 0.017212 0.443 -0.54894 -0.50907 -0.66296
0.0049151 0.018072 0.444 -0.59532 -0.47098 -0.65098
0.0049483 0.019021 0.447 -0.76577 -0.47298 -0.43576
0.0049815 0.019981 0.45 -0.73664 -0.52684 -0.42402
0.0050258 0.020999 0.454 -0.16783 -0.6851 -0.70885
0.0050258 0.021839 0.454 -0.29193 -0.68755 -0.66487
0.0050369 0.022729 0.455 -0.28121 -0.62368 -0.72935
0.0050369 0.023571 0.455 -0.36321 -0.65664 -0.66099
0.0050369 0.024413 0.455 -0.33969 -0.65873 -0.67134
0.005048 0.02531 0.456 -0.43122 -0.61137 -0.66353
0.0059668 -0.095734 0.462 -0.075204 0.69545 -0.71463
0.0059668 -0.094879 0.462 -0.065728 0.68978 -0.72102
0.0059668 -0.094024 0.462 -0.049739 0.68414 -0.72765
0.0059668 -0.093169 0.462 -0.015539 0.6819 -0.73128
0.0059668 -0.092315 0.462 0.0055782 0.68199 -0.73134
0.0059668 -0.09146 0.462 0.048943 0.67897 -0.73253
0.0059668 -0.090605 0.462 0.10613 0.67988 -0.72561
0.0059668 -0.08975 0.462 0.14655 0.69099 -0.70786
0.0059668 -0.088895 0.462 0.16692 0.70241 -0.69192
0.0059539 -0.086997 0.461 0.30294 0.6427 -0.70368
0.005941 -0.085957 0.46 0.41687 0.56132 -0.71494
0.005928 -0.084921 0.459 0.55749 0.47899 -0.67807
0.0059151 -0.083889 0.458 0.62914 0.42193 -0.6528
0.0058764 -0.081656 0.455 0.69721 0.14991 -0.70102
0.0058764 -0.080814 0.455 0.71015 0.29344 -0.63998
0.0058635 -0.079796 0.454 0.71484 0.26891 -0.64552
0.0058506 -0.078783 0.453 0.71529 0.24566 -0.65422
0.0058247 -0.076766 0.451 0.71418 0.17163 -0.6786
0.0058118 -0.075763 0.45 0.70462 0.13364 -0.69689
0.005786 -0.073769 0.448 0.71476 0.034673 -0.69851
0.005786 -0.07294 0.448 0.69959 0.073255 -0.71078
0.0057601 -0.071789 0.446 0.71194 -0.069654 -0.69878
0.0057472 -0.070805 0.445 0.71855 -0.11393 -0.68608
0.0057472 -0.069981 0.445 0.70349 -0.087559 -0.70529
0.0057214 -0.068847 0.443 0.72416 -0.22261 -0.65272
0.0057085 -0.067874 0.442 0.71719 -0.26104 -0.64614
0.0056956 -0.066905 0.441 0.71582 -0.28476 -0.63759
0.0056827 -0.065939 0.44 0.68626 -0.30616 -0.65979
0.0056697 -0.064977 0.439 0.65382 -0.31697 -0.68705
0.0056697 -0.064165 0.439 0.65885 -0.33594 -0.6731
0.0056568 -0.063208 0.438 0.63186 -0.35493 -0.68904
0.0056439 -0.062255 0.437 0.61189 -0.36938 -0.69939
0.005631 -0.061306 0.436 0.59967 -0.38612 -0.70094
0.005631 -0.0605 0.436 0.5916 -0.39473 -0.70299
0.0056181 -0.059556 0.435 0.58922 -0.42086 -0.6897
0.0056181 -0.058751 0.435 0.56426 -0.41507 -0.71367
0.0056052 -0.057813 0.434 0.56749 -0.44952 -0.68984
0.0055923 -0.056879 0.433 0.5412 -0.47187 -0.69602
0.0055793 -0.055948 0.432 0.5016 -0.47964 -0.71996
0.0055793 -0.055149 0.432 0.46467 -0.50611 -0.72658
0.0055664 -0.054224 0.431 0.40186 -0.51246 -0.75887
0.0055664 -0.053426 0.431 0.36901 -0.53099 -0.76281
0.0055664 -0.052629 0.431 0.33081 -0.5454 -0.77013
0.0055535 -0.051711 0.43 0.29509 -0.54813 -0.78261
0.0055535 -0.050916 0.43 0.29231 -0.55258 -0.78052
0.0055535 -0.05012 0.43 0.29747 -0.55229 -0.77877
0.0055535 -0.049325 0.43 0.3018 -0.54895 -0.77947
0.0055406 -0.048416 0.429 0.32855 -0.55256 -0.76598
0.0055406 -0.047623 0.429 0.34148 -0.54755 -0.76393
0.0055277 -0.04672 0.428 0.35158 -0.5454 -0.76088
0.0055277 -0.045928 0.428 0.34724 -0.54601 -0.76243
0.0055148 -0.045031 0.427 0.31162 -0.53815 -0.78312
0.0055148 -0.044241 0.427 0.27564 -0.54653 -0.79078
0.0055148 -0.043451 0.427 0.23377 -0.55517 -0.79821
0.0055018 -0.042561 0.426 0.13247 -0.54083 -0.83063
0.0055018 -0.041772 0.426 0.076768 -0.55537 -0.82805
0.0055018 -0.040984 0.426 0.028782 -0.56604 -0.82387
0.0055018 -0.040196 0.426 -0.010344 -0.57253 -0.81982
0.0055018 -0.039408 0.426 -0.063758 -0.56966 -0.81941
0.0055148 -0.03871 0.427 -0.097748 -0.56776 -0.81737
0.0055148 -0.03792 0.427 -0.11958 -0.56812 -0.81421
0.0055148 -0.03713 0.427 -0.13275 -0.56199 -0.81643
0.0055148 -0.03634 0.427 -0.13104 -0.55451 -0.8218
0.0055148 -0.03555 0.427 -0.11453 -0.55029 -0.82708
0.0055148 -0.03476 0.427 -0.0766 -0.53823 -0.83931
0.0055277 -0.03405 0.428 -0.025049 -0.51834 -0.85481
0.0055277 -0.033258 0.428 0.054526 -0.493 -0.86832
0.0055277 -0.032466 0.428 0.14247 -0.45647 -0.87826
0.0055277 -0.031674 0.428 0.23673 -0.41152 -0.88012
0.0055148 -0.03081 0.427 0.30838 -0.37342 -0.8749
0.0055148 -0.03002 0.427 0.37875 -0.32698 -0.86582
0.0055018 -0.029162 0.426 0.42714 -0.28277 -0.85883
0.0055018 -0.028374 0.426 0.45376 -0.25269 -0.85454
0.0054889 -0.027521 0.425 0.46829 -0.21865 -0.85609
0.0054889 -0.026735 0.425 0.45852 -0.19675 -0.86663
0.005476 -0.025887 0.424 0.43776 -0.18537 -0.87977
0.005476 -0.025103 0.424 0.40919 -0.18 -0.89452
0.005476 -0.024318 0.424 0.37637 -0.18 -0.90882
0.0054631 -0.023478 0.423 0.32933 -0.18669 -0.92558
0.0054631 -0.022696 0.423 0.28309 -0.20009 -0.93799
0.0054631 -0.021913 0.423 0.22847 -0.21078 -0.95046
0.0054631 -0.02113 0.423 0.18136 -0.22733 -0.95678
0.0054631 -0.020348 0.423 0.11623 -0.24401 -0.96278
0.0054631 -0.019565 0.423 0.05008 -0.25684 -0.96515
0.0054502 -0.018738 0.422 -0.0040743 -0.28136 -0.95959
0.0054502 -0.017957 0.422 -0.057657 -0.29757 -0.95296
0.0054502 -0.017177 0.422 -0.11108 -0.31436 -0.94278
0.0054631 -0.016435 0.423 -0.16716 -0.33143 -0.92855
0.0054631 -0.015652 0.423 -0.21121 -0.34396 -0.91492
0.0054631 -0.01487 0.423 -0.2594 -0.35722 -0.89728
0.0054631 -0.014087 0.423 -0.28794 -0.37105 -0.88284
0.0054631 -0.013304 0.423 -0.31423 -0.37952 -0.87019
0.005476 -0.012551 0.424 -0.32686 -0.38241 -0.86425
0.005476 -0.011767 0.424 -0.34626 -0.38936 -0.85353
0.0054889 -0.011008 0.425 -0.36267 -0.3875 -0.84754
0.0054889 -0.010222 0.425 -0.37421 -0.38998 -0.84136
0.0054889 -0.0094357 0.425 -0.37509 -0.39346 -0.83935
0.0055018 -0.0086698 0.426 -0.37739 -0.38868 -0.84054
0.0055018 -0.0078816 0.426 -0.38623 -0.37987 -0.84055
0.0055018 -0.0070934 0.426 -0.39437 -0.3748 -0.83905
0.0055148 -0.0063201 0.427 -0.41228 -0.36575 -0.83442
0.0055148 -0.0055301 0.427 -0.42838 -0.35324 -0.83169
0.0055148 -0.0047401 0.427 -0.43984 -0.34038 -0.83107
0.0055277 -0.0039593 0.428 -0.45438 -0.34331 -0.82199
0.0055277 -0.0031674 0.428 -0.45894 -0.33566 -0.82262
0.0055406 -0.0023811 0.429 -0.47584 -0.35188 -0.80608
0.0055406 -0.0015874 0.429 -0.4705 -0.34341 -0.81283
0.0055535 -0.00079556 0.43 -0.4859 -0.37353 -0.79017
0.0055535 0 0.43 -0.47183 -0.37008 -0.80026
0.0055664 0.00079741 0.431 -0.49251 -0.4147 -0.76515
0.0055664 0.0015948 0.431 -0.48733 -0.40992 -0.77103
0.0055793 0.0023978 0.432 -0.51448 -0.44453 -0.73328
0.0055793 0.003197 0.432 -0.50982 -0.44031 -0.73906
0.0055923 0.0040056 0.433 -0.52835 -0.46111 -0.7129
0.0056052 0.0048178 0.434 -0.55368 -0.47704 -0.68255
0.0056181 0.0056337 0.435 -0.56884 -0.48359 -0.66525
0.0056181 0.0064385 0.435 -0.56478 -0.4797 -0.6715
0.005631 0.0072599 0.436 -0.58584 -0.48421 -0.64988
0.005631 0.0080666 0.436 -0.56925 -0.45829 -0.68259
0.0056439 0.0088936 0.437 -0.57342 -0.47926 -0.66446
0.0056568 0.0097243 0.438 -0.56469 -0.49535 -0.66012
0.0056697 0.010559 0.439 -0.54987 -0.50534 -0.66504
0.0056827 0.011397 0.44 -0.53411 -0.51565 -0.66995
0.0056827 0.012211 0.44 -0.51494 -0.52716 -0.67597
0.0056956 0.013055 0.441 -0.50065 -0.54005 -0.67653
0.0056956 0.01387 0.441 -0.48489 -0.52226 -0.70152
0.0057085 0.01472 0.442 -0.52034 -0.53429 -0.66617
0.0057214 0.015573 0.443 -0.56224 -0.52867 -0.63592
0.0057343 0.016429 0.444 -0.61868 -0.51332 -0.59476
0.0057343 0.017251 0.444 -0.58526 -0.48939 -0.64651
0.0057601 0.018154 0.446 -0.71613 -0.4811 -0.50568
0.0058247 0.019191 0.451 -0.65214 -0.56214 -0.50863
0.0058506 0.020115 0.453 -0.4127 -0.70961 -0.57108
0.0058764 0.021045 0.455 -0.15218 -0.64236 -0.75115
0.0058764 0.021887 0.455 -0.25221 -0.65705 -0.71041
0.0058764 0.022729 0.455 -0.30289 -0.6685 -0.67923
0.0058893 0.023623 0.456 -0.32478 -0.62068 -0.71363
0.0058893 0.024466 0.456 -0.3406 -0.62496 -0.70244
0.0068044 -0.096379 0.461 -0.1039 0.69239 -0.71401
0.0068044 -0.095526 0.461 -0.12158 0.68355 -0.7197
0.0068044 -0.094673 0.461 -0.1097 0.67665 -0.72809
0.0068044 -0.093821 0.461 -0.083394 0.66952 -0.7381
0.0068044 -0.092968 0.461 -0.035437 0.66355 -0.74729
0.0068044 -0.092115 0.461 -0.00029236 0.65887 -0.75226
0.0068044 -0.091262 0.461 0.053677 0.65232 -0.75604
0.0068044 -0.090409 0.461 0.11403 0.64317 -0.75718
0.0068044 -0.089556 0.461 0.16299 0.64358 -0.74782
0.0068044 -0.088703 0.461 0.22259 0.64577 -0.73037
0.0068044 -0.08785 0.461 0.22407 0.6652 -0.71225
0.0067897 -0.086809 0.46 0.36112 0.58129 -0.72918
0.0067749 -0.085771 0.459 0.50799 0.47451 -0.71888
0.0067749 -0.084921 0.459 0.50276 0.53806 -0.67655
0.0067454 -0.083706 0.457 0.65832 0.32063 -0.68104
0.0067306 -0.082679 0.456 0.68987 0.25679 -0.67686
0.0067159 -0.081656 0.455 0.69858 0.21795 -0.68153
0.0067011 -0.080636 0.454 0.70225 0.18511 -0.68744
0.0066863 -0.079621 0.453 0.70332 0.1608 -0.69245
0.0066863 -0.078783 0.453 0.71101 0.26497 -0.65136
0.0066716 -0.077772 0.452 0.71892 0.21644 -0.66054
0.0066568 -0.076766 0.451 0.71119 0.18143 -0.67919
0.0066421 -0.075763 0.45 0.69831 0.14331 -0.70131
0.0066273 -0.074764 0.449 0.69895 0.10214 -0.70784
0.0066125 -0.073769 0.448 0.6949 0.06251 -0.71638
0.0065978 -0.072777 0.447 0.68873 0.001416 -0.72502
0.0065978 -0.07195 0.447 0.67478 0.028199 -0.73748
0.006583 -0.070964 0.446 0.68519 -0.020527 -0.72807
0.0065535 -0.069824 0.444 0.71163 -0.13273 -0.6899
0.0065535 -0.069003 0.444 0.70989 -0.1265 -0.69286
0.0065387 -0.068028 0.443 0.70865 -0.1869 -0.68035
0.006524 -0.067056 0.442 0.70028 -0.23807 -0.673
0.0065092 -0.066089 0.441 0.70386 -0.28155 -0.65216
0.0064945 -0.065125 0.44 0.67842 -0.31371 -0.66433
0.0064797 -0.064165 0.439 0.65148 -0.3312 -0.68256
0.0064649 -0.063208 0.438 0.61952 -0.35123 -0.70202
0.0064649 -0.062398 0.438 0.60647 -0.36908 -0.70426
0.0064502 -0.061447 0.437 0.59609 -0.38593 -0.70409
0.0064354 -0.0605 0.436 0.58686 -0.40159 -0.70308
0.0064354 -0.059693 0.436 0.57161 -0.40563 -0.71325
0.0064207 -0.058751 0.435 0.56772 -0.43228 -0.70059
0.0064059 -0.057813 0.434 0.56389 -0.45077 -0.69198
0.0063911 -0.056879 0.433 0.52765 -0.45501 -0.71732
0.0063911 -0.056078 0.433 0.50773 -0.48266 -0.71362
0.0063764 -0.055149 0.432 0.45593 -0.49462 -0.73991
0.0063764 -0.05435 0.432 0.41765 -0.51772 -0.74668
0.0063616 -0.053426 0.431 0.35594 -0.52265 -0.77468
0.0063616 -0.052629 0.431 0.32517 -0.5441 -0.77345
0.0063616 -0.051832 0.431 0.29747 -0.55638 -0.77586
0.0063616 -0.051034 0.431 0.28619 -0.55821 -0.77878
0.0063469 -0.05012 0.43 0.29014 -0.55952 -0.77638
0.0063469 -0.049325 0.43 0.29954 -0.56281 -0.7704
0.0063469 -0.048529 0.43 0.31762 -0.56078 -0.76462
0.0063321 -0.047623 0.429 0.33477 -0.56091 -0.75717
0.0063321 -0.046829 0.429 0.34131 -0.56232 -0.7532
0.0063173 -0.045928 0.428 0.32796 -0.55767 -0.76252
0.0063173 -0.045136 0.428 0.31101 -0.57368 -0.75774
0.0063026 -0.044241 0.427 0.24064 -0.54809 -0.80106
0.0063026 -0.043451 0.427 0.20918 -0.56627 -0.79723
0.0063026 -0.04266 0.427 0.14852 -0.57853 -0.80203
0.0063026 -0.04187 0.427 0.093341 -0.58883 -0.80285
0.0063026 -0.04108 0.427 0.033229 -0.59343 -0.8042
0.0063026 -0.04029 0.427 -0.0033787 -0.593 -0.80519
0.0063026 -0.0395 0.427 -0.054007 -0.59159 -0.80443
0.0063026 -0.03871 0.427 -0.086717 -0.59023 -0.80257
0.0063026 -0.03792 0.427 -0.10843 -0.58842 -0.80125
0.0063026 -0.03713 0.427 -0.11871 -0.57668 -0.8083
0.0063173 -0.036426 0.428 -0.11574 -0.56172 -0.81919
0.0063173 -0.035634 0.428 -0.095569 -0.5493 -0.83014
0.0063173 -0.034842 0.428 -0.050377 -0.53322 -0.84447
0.0063173 -0.03405 0.428 0.011692 -0.51123 -0.85936
0.0063173 -0.033258 0.428 0.098599 -0.47888 -0.87232
0.0063173 -0.032466 0.428 0.18854 -0.4384 -0.87878
0.0063173 -0.031674 0.428 0.28782 -0.39363 -0.87305
0.0063173 -0.030883 0.428 0.35532 -0.35162 -0.86609
0.0063026 -0.03002 0.427 0.41851 -0.30832 -0.85428
0.0062878 -0.029162 0.426 0.45818 -0.26186 -0.84941
0.0062878 -0.028374 0.426 0.47759 -0.23769 -0.84582
0.0062731 -0.027521 0.425 0.48316 -0.21415 -0.84894
0.0062731 -0.026735 0.425 0.46774 -0.19654 -0.86174
0.0062583 -0.025887 0.424 0.43963 -0.18961 -0.87794
0.0062583 -0.025103 0.424 0.40605 -0.19022 -0.89384
0.0062583 -0.024318 0.424 0.37192 -0.19596 -0.90734
0.0062435 -0.023478 0.423 0.32377 -0.20484 -0.9237
0.0062435 -0.022696 0.423 0.27753 -0.21647 -0.93601
0.0062435 -0.021913 0.423 0.2141 -0.23055 -0.94921
0.0062435 -0.02113 0.423 0.16001 -0.24441 -0.95638
0.0062435 -0.020348 0.423 0.094415 -0.26829 -0.9587
0.0062435 -0.019565 0.423 0.029445 -0.28249 -0.95882
0.0062435 -0.018783 0.423 -0.027213 -0.30555 -0.95179
0.0062435 -0.018 0.423 -0.080706 -0.32889 -0.94091
0.0062435 -0.017217 0.423 -0.1318 -0.34625 -0.92884
0.0062435 -0.016435 0.423 -0.18413 -0.35855 -0.91517
0.0062435 -0.015652 0.423 -0.22227 -0.37291 -0.90085
0.0062435 -0.01487 0.423 -0.26333 -0.38409 -0.88495
0.0062435 -0.014087 0.423 -0.28882 -0.3966 -0.87137
0.0062583 -0.013336 0.424 -0.31676 -0.39666 -0.86158
0.0062583 -0.012551 0.424 -0.33147 -0.39901 -0.85494
0.0062731 -0.011795 0.425 -0.3479 -0.39866 -0.84855
0.0062731 -0.011008 0.425 -0.3609 -0.39802 -0.8434
0.0062731 -0.010222 0.425 -0.3733 -0.39521 -0.83932
0.0062878 -0.0094579 0.426 -0.37485 -0.39057 -0.8408
0.0062878 -0.0086698 0.426 -0.37765 -0.38719 -0.84111
0.0062878 -0.0078816 0.426 -0.38169 -0.38504 -0.84027
0.0063026 -0.0071101 0.427 -0.39021 -0.37772 -0.83968
0.0063026 -0.0063201 0.427 -0.40552 -0.37208 -0.83493
0.0063026 -0.0055301 0.427 -0.41851 -0.35977 -0.83392
0.0063173 -0.0047512 0.428 -0.43763 -0.35809 -0.82477
0.0063173 -0.0039593 0.428 -0.44619 -0.35446 -0.82175
0.0063321 -0.0031748 0.429 -0.46529 -0.36251 -0.80752
0.0063321 -0.0023811 0.429 -0.47237 -0.35706 -0.80584
0.0063469 -0.0015911 0.43 -0.49385 -0.3774 -0.78338
0.0063469 -0.00079556 0.43 -0.48616 -0.37992 -0.78696
0.0063616 0 0.431 -0.51124 -0.41084 -0.75488
0.0063616 0.00079741 0.431 -0.49384 -0.41297 -0.76524
0.0063764 0.0015985 0.432 -0.52141 -0.44433 -0.72849
0.0063764 0.0023978 0.432 -0.51451 -0.43824 -0.73704
0.0063911 0.0032044 0.433 -0.53255 -0.46118 -0.70972
0.0064059 0.0040148 0.434 -0.54833 -0.48174 -0.68356
0.0064207 0.0048289 0.435 -0.55976 -0.48819 -0.66958
0.0064207 0.0056337 0.435 -0.56028 -0.48589 -0.67082
0.0064354 0.0064533 0.436 -0.57792 -0.49156 -0.65145
0.0064354 0.0072599 0.436 -0.56845 -0.46962 -0.67552
0.0064502 0.0080851 0.437 -0.58595 -0.47759 -0.65466
0.0064649 0.008914 0.438 -0.57774 -0.49432 -0.64951
0.0064945 0.0097687 0.44 -0.53445 -0.47755 -0.69736
0.0064945 0.010583 0.44 -0.54648 -0.5107 -0.66373
0.0065092 0.011423 0.441 -0.51576 -0.51263 -0.68644
0.0065092 0.012239 0.441 -0.51589 -0.5354 -0.66873
0.0065092 0.013055 0.441 -0.48962 -0.52729 -0.69443
0.006524 0.013902 0.442 -0.504 -0.54637 -0.66893
0.006524 0.01472 0.442 -0.47877 -0.52501 -0.70367
0.0065535 0.015608 0.444 -0.58362 -0.52589 -0.61873
0.0065535 0.016429 0.444 -0.56726 -0.50792 -0.64825
0.0065683 0.01729 0.445 -0.60502 -0.49644 -0.62249
0.0065978 0.018194 0.447 -0.73539 -0.43939 -0.51588
0.0067159 0.019362 0.455 -0.12622 -0.66491 -0.73618
0.0067159 0.020204 0.455 -0.21487 -0.66185 -0.71818
0.0067159 0.021045 0.455 -0.29957 -0.66146 -0.68755
0.0067159 0.021887 0.455 -0.32033 -0.66294 -0.67668
0.0067306 0.022779 0.456 -0.24881 -0.61822 -0.74558
0.0067306 0.023623 0.456 -0.20529 -0.61413 -0.76204
0.0067454 0.02452 0.457 -0.39069 -0.60254 -0.69592
0.0076384 -0.09617 0.46 -0.14517 0.67767 -0.72089
0.0076384 -0.095319 0.46 -0.16391 0.66773 -0.72613
0.007655 -0.094673 0.461 0.025525 0.68352 -0.72949
0.007655 -0.093821 0.461 -0.0084938 0.68291 -0.73046
0.007655 -0.092968 0.461 -0.018175 0.68463 -0.72867
0.007655 -0.092115 0.461 -0.030837 0.68721 -0.72581
0.007655 -0.091262 0.461 0.0084011 0.68077 -0.73245
0.007655 -0.090409 0.461 0.074839 0.66989 -0.73868
0.007655 -0.089556 0.461 0.12128 0.66884 -0.73345
0.0076384 -0.088511 0.46 0.24687 0.5902 -0.76858
0.0076384 -0.08766 0.46 0.2976 0.59742 -0.74466
0.0076384 -0.086809 0.46 0.29887 0.61916 -0.72617
0.0076218 -0.085771 0.459 0.46658 0.51648 -0.71802
0.0076052 -0.084736 0.458 0.56563 0.44991 -0.69112
0.0075886 -0.083706 0.457 0.6303 0.38657 -0.67327
0.007572 -0.082679 0.456 0.66963 0.32657 -0.66704
0.0075554 -0.081656 0.455 0.69036 0.2785 -0.66771
0.0075387 -0.080636 0.454 0.70238 0.23899 -0.67048
0.0075221 -0.079621 0.453 0.70598 0.21117 -0.67602
0.0075055 -0.078609 0.452 0.70333 0.1811 -0.68741
0.0075055 -0.077772 0.452 0.70902 0.23152 -0.66611
0.0074723 -0.076596 0.45 0.6823 0.13037 -0.71935
0.0074723 -0.075763 0.45 0.68865 0.16536 -0.70599
0.0074557 -0.074764 0.449 0.6863 0.12491 -0.71652
0.0074391 -0.073769 0.448 0.68014 0.078906 -0.72882
0.0074225 -0.072777 0.447 0.67233 0.022829 -0.7399
0.0074059 -0.071789 0.446 0.67439 -0.020273 -0.7381
0.0074059 -0.070964 0.446 0.66671 -0.011376 -0.74523
0.0073893 -0.069981 0.445 0.67214 -0.073021 -0.73682
0.0073727 -0.069003 0.444 0.69154 -0.13053 -0.71045
0.0073561 -0.068028 0.443 0.68674 -0.20775 -0.69659
0.0073395 -0.067056 0.442 0.68655 -0.24954 -0.68292
0.0073229 -0.066089 0.441 0.68762 -0.29241 -0.66459
0.0073063 -0.065125 0.44 0.66084 -0.32097 -0.67843
0.0072897 -0.064165 0.439 0.62899 -0.33936 -0.69943
0.0072731 -0.063208 0.438 0.58997 -0.35017 -0.72754
0.0072731 -0.062398 0.438 0.59608 -0.38718 -0.70341
0.0072565 -0.061447 0.437 0.57841 -0.397 -0.71263
0.0072565 -0.060638 0.437 0.5681 -0.4124 -0.71217
0.0072399 -0.059693 0.436 0.56324 -0.4299 -0.70566
0.0072399 -0.058886 0.436 0.54413 -0.42896 -0.72105
0.0072232 -0.057946 0.435 0.54816 -0.45507 -0.70173
0.0072066 -0.05701 0.434 0.53181 -0.47293 -0.70251
0.00719 -0.056078 0.433 0.49092 -0.46807 -0.73479
0.00719 -0.055277 0.433 0.46291 -0.50102 -0.73122
0.0071734 -0.05435 0.432 0.40788 -0.50657 -0.75962
0.0071734 -0.05355 0.432 0.37068 -0.52911 -0.76331
0.0071734 -0.052751 0.432 0.33135 -0.54619 -0.76934
0.0071568 -0.051832 0.431 0.2941 -0.55091 -0.78103
0.0071568 -0.051034 0.431 0.28596 -0.55934 -0.77805
0.0071568 -0.050237 0.431 0.28202 -0.5643 -0.77591
0.0071568 -0.049439 0.431 0.27827 -0.5689 -0.7739
0.0071402 -0.048529 0.43 0.30525 -0.5749 -0.75915
0.0071402 -0.047734 0.43 0.31759 -0.57824 -0.75151
0.0071236 -0.046829 0.429 0.32201 -0.58441 -0.74483
0.0071236 -0.046035 0.429 0.31759 -0.59382 -0.73927
0.007107 -0.045136 0.428 0.28168 -0.58291 -0.76215
0.007107 -0.044344 0.428 0.25244 -0.59949 -0.75953
0.007107 -0.043552 0.428 0.21821 -0.61197 -0.76018
0.0070904 -0.04266 0.427 0.12336 -0.56147 -0.81825
0.0070904 -0.04187 0.427 0.0733 -0.58412 -0.80835
0.0070904 -0.04108 0.427 0.017589 -0.59431 -0.80404
0.0070904 -0.04029 0.427 -0.016393 -0.59927 -0.80038
0.0070904 -0.0395 0.427 -0.067375 -0.59669 -0.79964
0.007107 -0.038801 0.428 -0.072406 -0.61375 -0.78618
0.007107 -0.038009 0.428 -0.095978 -0.6048 -0.79057
0.007107 -0.037217 0.428 -0.10484 -0.58884 -0.80142
0.007107 -0.036426 0.428 -0.10323 -0.57 -0.81514
0.0071236 -0.035717 0.429 -0.077063 -0.55349 -0.82928
0.0071236 -0.034923 0.429 -0.022985 -0.53161 -0.84668
0.0071236 -0.03413 0.429 0.050379 -0.50509 -0.8616
0.0071236 -0.033336 0.429 0.14025 -0.46862 -0.8722
0.0071236 -0.032542 0.429 0.23391 -0.4237 -0.87508
0.007107 -0.031674 0.428 0.3362 -0.37583 -0.86355
0.007107 -0.030883 0.428 0.39788 -0.33437 -0.85433
0.0070904 -0.03002 0.427 0.45176 -0.29741 -0.84111
0.0070904 -0.02923 0.427 0.48369 -0.25649 -0.83681
0.0070738 -0.028374 0.426 0.49611 -0.23246 -0.83656
0.0070738 -0.027586 0.426 0.49474 -0.21624 -0.84171
0.0070572 -0.026735 0.425 0.47315 -0.2053 -0.85673
0.0070572 -0.025948 0.425 0.43607 -0.20361 -0.87658
0.0070406 -0.025103 0.424 0.39884 -0.21062 -0.8925
0.0070406 -0.024318 0.424 0.35574 -0.2228 -0.90764
0.007024 -0.023478 0.423 0.30288 -0.23871 -0.92265
0.007024 -0.022696 0.423 0.25839 -0.25669 -0.93131
0.007024 -0.021913 0.423 0.19334 -0.27728 -0.94113
0.007024 -0.02113 0.423 0.13929 -0.29179 -0.94629
0.007024 -0.020348 0.423 0.075999 -0.32011 -0.94433
0.007024 -0.019565 0.423 0.010959 -0.33878 -0.9408
0.007024 -0.018783 0.423 -0.04345 -0.35846 -0.93253
0.007024 -0.018 0.423 -0.092722 -0.37668 -0.92169
0.007024 -0.017217 0.423 -0.14362 -0.38834 -0.91025
0.007024 -0.016435 0.423 -0.19457 -0.39848 -0.8963
0.007024 -0.015652 0.423 -0.23098 -0.40845 -0.88307
0.0070406 -0.014905 0.424 -0.26956 -0.41103 -0.87086
0.0070406 -0.01412 0.424 -0.29686 -0.41645 -0.85933
0.0070406 -0.013336 0.424 -0.32115 -0.41446 -0.85152
0.0070572 -0.012581 0.425 -0.3345 -0.41452 -0.84633
0.0070572 -0.011795 0.425 -0.3502 -0.41201 -0.8412
0.0070572 -0.011008 0.425 -0.36231 -0.40713 -0.83844
0.0070738 -0.010246 0.426 -0.37654 -0.40176 -0.83475
0.0070738 -0.0094579 0.426 -0.37632 -0.39895 -0.8362
0.0070738 -0.0086698 0.426 -0.37671 -0.39674 -0.83707
0.0070904 -0.0079001 0.427 -0.37747 -0.39656 -0.83681
0.0070904 -0.0071101 0.427 -0.38465 -0.38884 -0.83716
0.007107 -0.0063349 0.428 -0.39595 -0.38965 -0.8315
0.007107 -0.005543 0.428 -0.41488 -0.38184 -0.82587
0.007107 -0.0047512 0.428 -0.42554 -0.37714 -0.8226
0.007107 -0.0039593 0.428 -0.43135 -0.36533 -0.82491
0.0071236 -0.0031748 0.429 -0.45779 -0.37266 -0.80719
0.0071402 -0.0023867 0.43 -0.48675 -0.38861 -0.78234
0.0071402 -0.0015911 0.43 -0.49138 -0.38502 -0.78122
0.0071402 -0.00079556 0.43 -0.47669 -0.37298 -0.79602
0.0071568 0 0.431 -0.51323 -0.41142 -0.75321
0.0071734 0.00079926 0.432 -0.52894 -0.44333 -0.72366
0.0071734 0.0015985 0.432 -0.52563 -0.43788 -0.72937
0.00719 0.0024033 0.433 -0.53937 -0.45789 -0.7067
0.0072066 0.0032118 0.434 -0.55118 -0.47898 -0.68321
0.0072232 0.0040241 0.435 -0.54995 -0.4883 -0.67759
0.0072232 0.0048289 0.435 -0.55402 -0.49189 -0.67164
0.0072399 0.0056466 0.436 -0.57217 -0.49147 -0.65657
0.0072399 0.0064533 0.436 -0.56481 -0.47854 -0.6723
0.0072565 0.0072766 0.437 -0.58971 -0.47764 -0.65123
0.0072731 0.0081036 0.438 -0.59431 -0.48209 -0.64373
0.0072897 0.0089343 0.439 -0.58164 -0.48851 -0.65042
0.0073063 0.0097687 0.44 -0.56686 -0.49381 -0.6594
0.0073229 0.010607 0.441 -0.53167 -0.49408 -0.6879
0.0073229 0.011423 0.441 -0.53944 -0.51943 -0.66272
0.0073229 0.012239 0.441 -0.50744 -0.51867 -0.6881
0.0073395 0.013084 0.442 -0.50662 -0.54605 -0.6672
0.0073561 0.013933 0.443 -0.51595 -0.5479 -0.65848
0.0073727 0.014786 0.444 -0.55358 -0.53961 -0.63433
0.0073727 0.015608 0.444 -0.54139 -0.53127 -0.65165
0.0073893 0.016466 0.445 -0.58766 -0.52303 -0.61732
0.0074059 0.017328 0.446 -0.62329 -0.50038 -0.60095
0.0074225 0.018194 0.447 -0.6666 -0.40542 -0.62552
0.0075886 0.019447 0.457 0.13633 -0.51805 -0.84442
0.007572 0.020248 0.456 -0.16919 -0.61594 -0.76941
0.007572 0.021092 0.456 -0.23346 -0.62117 -0.7481
0.007572 0.021935 0.456 -0.23074 -0.61874 -0.75095
0.007572 0.022779 0.456 -0.12707 -0.59953 -0.7902
0.0075886 0.023674 0.457 -0.26598 -0.60329 -0.75186
0.0084686 -0.095961 0.459 -0.19612 0.65935 -0.7258
0.0084686 -0.095112 0.459 -0.21911 0.64459 -0.73246
0.0084871 -0.094468 0.46 -0.029527 0.6679 -0.74366
0.0084871 -0.093617 0.46 -0.052961 0.66314 -0.74662
0.0084871 -0.092766 0.46 -0.047095 0.66006 -0.74973
0.0084871 -0.091915 0.46 -0.042846 0.6579 -0.75189
0.0084871 -0.091064 0.46 0.0073558 0.64997 -0.75992
0.0084871 -0.090213 0.46 0.077489 0.63444 -0.76908
0.0084871 -0.089362 0.46 0.14128 0.61962 -0.77208
0.0084686 -0.088318 0.459 0.2563 0.54544 -0.798
0.0084686 -0.087469 0.459 0.3345 0.53678 -0.77458
0.0084686 -0.08662 0.459 0.39844 0.52413 -0.75268
0.0084502 -0.085584 0.458 0.52185 0.4343 -0.7342
0.0084502 -0.084736 0.458 0.52962 0.45106 -0.71837
0.0084317 -0.083706 0.457 0.60481 0.39306 -0.69261
0.0084133 -0.082679 0.456 0.65008 0.34266 -0.67822
0.0083764 -0.081476 0.454 0.67138 0.18542 -0.71754
0.0083764 -0.080636 0.454 0.69777 0.25156 -0.6707
0.0083579 -0.079621 0.453 0.70618 0.22197 -0.67234
0.0083395 -0.078609 0.452 0.70653 0.19146 -0.68129
0.008321 -0.0776 0.451 0.69367 0.16534 -0.70106
0.0083026 -0.076596 0.45 0.68533 0.13939 -0.71477
0.0082841 -0.075595 0.449 0.66861 0.10198 -0.73659
0.0082657 -0.074598 0.448 0.65532 0.069903 -0.75211
0.0082657 -0.073769 0.448 0.66215 0.083949 -0.74465
0.0082472 -0.072777 0.447 0.6495 0.024542 -0.75996
0.0082288 -0.071789 0.446 0.65321 -0.019657 -0.75692
0.0082288 -0.070964 0.446 0.6457 -0.023016 -0.76325
0.0082103 -0.069981 0.445 0.65182 -0.080638 -0.75407
0.0081919 -0.069003 0.444 0.66995 -0.1388 -0.72932
0.0081734 -0.068028 0.443 0.66533 -0.22147 -0.71294
0.008155 -0.067056 0.442 0.66123 -0.26985 -0.69997
0.008155 -0.066239 0.442 0.65949 -0.27448 -0.69981
0.0081365 -0.065273 0.441 0.64805 -0.31667 -0.69264
0.0081181 -0.064311 0.44 0.63614 -0.35692 -0.68406
0.0080996 -0.063352 0.439 0.60667 -0.37667 -0.70006
0.0080812 -0.062398 0.438 0.57961 -0.39068 -0.71514
0.0080812 -0.061587 0.438 0.57314 -0.41343 -0.70752
0.0080627 -0.060638 0.437 0.55905 -0.42865 -0.70973
0.0080443 -0.059693 0.436 0.54301 -0.44219 -0.71387
0.0080443 -0.058886 0.436 0.53741 -0.45927 -0.70729
0.0080258 -0.057946 0.435 0.53316 -0.47312 -0.70136
0.0080258 -0.057142 0.435 0.51854 -0.48132 -0.70672
0.0080074 -0.056207 0.434 0.49493 -0.49653 -0.71309
0.0079889 -0.055277 0.433 0.44166 -0.49365 -0.74916
0.0079889 -0.054475 0.433 0.41648 -0.51965 -0.74599
0.0079705 -0.05355 0.432 0.3574 -0.51521 -0.77899
0.0079705 -0.052751 0.432 0.32571 -0.54043 -0.77579
0.0079705 -0.051952 0.432 0.29806 -0.55582 -0.77603
0.0079705 -0.051153 0.432 0.27873 -0.56597 -0.77588
0.007952 -0.050237 0.431 0.27091 -0.56879 -0.77659
0.007952 -0.049439 0.431 0.27397 -0.57887 -0.76802
0.007952 -0.048642 0.431 0.28531 -0.58102 -0.76224
0.007952 -0.047845 0.431 0.29119 -0.58425 -0.75754
0.0079336 -0.046938 0.43 0.30479 -0.60099 -0.73886
0.0079336 -0.046142 0.43 0.30147 -0.61203 -0.73112
0.0079151 -0.045241 0.429 0.28004 -0.62142 -0.73172
0.0079151 -0.044448 0.429 0.25574 -0.63263 -0.73101
0.0078967 -0.043552 0.428 0.18804 -0.60525 -0.77351
0.0078967 -0.04276 0.428 0.13923 -0.62298 -0.76975
0.0078967 -0.041969 0.428 0.085935 -0.63231 -0.76993
0.0078967 -0.041177 0.428 0.032801 -0.6378 -0.7695
0.0078967 -0.040385 0.428 -0.0014987 -0.6366 -0.77119
0.0078967 -0.039593 0.428 -0.04189 -0.63143 -0.7743
0.0078967 -0.038801 0.428 -0.068775 -0.62752 -0.77555
0.0078967 -0.038009 0.428 -0.084795 -0.6212 -0.77905
0.0079151 -0.037304 0.429 -0.087861 -0.60175 -0.79384
0.0079151 -0.036511 0.429 -0.082057 -0.5804 -0.81019
0.0079151 -0.035717 0.429 -0.049228 -0.55982 -0.82715
0.0079151 -0.034923 0.429 0.01416 -0.53043 -0.84761
0.0079151 -0.03413 0.429 0.098065 -0.49794 -0.86165
0.0079151 -0.033336 0.429 0.19758 -0.45553 -0.86802
0.0079151 -0.032542 0.429 0.2897 -0.40536 -0.86704
0.0079151 -0.031748 0.429 0.38316 -0.35816 -0.85142
0.0078967 -0.030883 0.428 0.44039 -0.31269 -0.84159
0.0078782 -0.03002 0.427 0.48216 -0.27171 -0.83289
0.0078782 -0.02923 0.427 0.50822 -0.2413 -0.82673
0.0078598 -0.028374 0.426 0.50936 -0.21334 -0.83369
0.0078598 -0.027586 0.426 0.50345 -0.20838 -0.83852
0.0078413 -0.026735 0.425 0.47455 -0.20513 -0.85599
0.0078413 -0.025948 0.425 0.42889 -0.20877 -0.8789
0.0078229 -0.025103 0.424 0.38686 -0.22072 -0.89533
0.0078229 -0.024318 0.424 0.34449 -0.23732 -0.9083
0.0078229 -0.023534 0.424 0.28832 -0.25838 -0.92201
0.0078229 -0.022749 0.424 0.24266 -0.27628 -0.92994
0.0078044 -0.021913 0.423 0.1775 -0.3026 -0.93644
0.0078044 -0.02113 0.423 0.11937 -0.32141 -0.93939
0.0078044 -0.020348 0.423 0.05453 -0.34704 -0.93626
0.0078044 -0.019565 0.423 -0.0098451 -0.36817 -0.92971
0.0078044 -0.018783 0.423 -0.061478 -0.38342 -0.92153
0.0078044 -0.018 0.423 -0.11081 -0.39973 -0.90991
0.0078044 -0.017217 0.423 -0.1594 -0.41444 -0.89601
0.0078044 -0.016435 0.423 -0.20746 -0.42215 -0.88247
0.0078229 -0.015689 0.424 -0.24036 -0.42704 -0.8717
0.0078229 -0.014905 0.424 -0.2751 -0.43097 -0.85941
0.0078229 -0.01412 0.424 -0.29824 -0.43359 -0.85033
0.0078413 -0.013367 0.425 -0.31752 -0.42783 -0.84625
0.0078413 -0.012581 0.425 -0.33093 -0.42646 -0.84179
0.0078413 -0.011795 0.425 -0.34633 -0.42114 -0.83827
0.0078598 -0.011034 0.426 -0.35643 -0.41936 -0.83492
0.0078598 -0.010246 0.426 -0.37011 -0.41696 -0.83016
0.0078782 -0.0094801 0.427 -0.37666 -0.41292 -0.82923
0.0078782 -0.0086901 0.427 -0.37618 -0.41161 -0.8301
0.0078782 -0.0079001 0.427 -0.37639 -0.41436 -0.82864
0.0078782 -0.0071101 0.427 -0.37777 -0.40973 -0.83031
0.0078967 -0.0063349 0.428 -0.39232 -0.41268 -0.82206
0.0078967 -0.005543 0.428 -0.40638 -0.40697 -0.81807
0.0079151 -0.0047623 0.429 -0.42136 -0.41178 -0.80802
0.0079151 -0.0039685 0.429 -0.44016 -0.40385 -0.80198
0.0079151 -0.0031748 0.429 -0.44209 -0.39209 -0.80673
0.0079336 -0.0023867 0.43 -0.48141 -0.40721 -0.77616
0.0079336 -0.0015911 0.43 -0.47939 -0.39108 -0.78565
0.007952 -0.00079741 0.431 -0.51976 -0.41994 -0.74398
0.0079705 0 0.432 -0.54509 -0.44887 -0.70809
0.0079705 0.00079926 0.432 -0.53221 -0.44159 -0.72232
0.0079889 0.0016022 0.433 -0.54904 -0.46835 -0.69224
0.0080074 0.0024089 0.434 -0.55332 -0.48675 -0.67595
0.0080258 0.0032192 0.435 -0.54566 -0.49274 -0.67784
0.0080258 0.0040241 0.435 -0.54591 -0.50219 -0.67067
0.0080443 0.00484 0.436 -0.55265 -0.50393 -0.6638
0.0080443 0.0056466 0.436 -0.55719 -0.49205 -0.6689
0.0080627 0.0064681 0.437 -0.57886 -0.48377 -0.65643
0.0080812 0.0072932 0.438 -0.59458 -0.47917 -0.64566
0.0080996 0.0081221 0.439 -0.59284 -0.47709 -0.64879
0.0081181 0.0089547 0.44 -0.57757 -0.48262 -0.6584
0.0081365 0.0097909 0.441 -0.55173 -0.47736 -0.6839
0.0081365 0.010607 0.441 -0.55687 -0.50866 -0.65662
0.008155 0.011449 0.442 -0.54076 -0.52192 -0.65968
0.008155 0.012266 0.442 -0.52702 -0.53467 -0.66059
0.0081734 0.013114 0.443 -0.5102 -0.55183 -0.65968
0.0081734 0.013933 0.443 -0.50781 -0.53865 -0.67229
0.0081919 0.014786 0.444 -0.52975 -0.54301 -0.65154
0.0082103 0.015643 0.445 -0.55455 -0.54819 -0.62607
0.0082288 0.016503 0.446 -0.6002 -0.53484 -0.59473
0.0082288 0.017328 0.446 -0.50875 -0.51115 -0.69275
0.0084317 0.019447 0.457 -0.027707 -0.57562 -0.81725
0.0084317 0.020292 0.457 -0.11252 -0.58677 -0.8019
0.0084317 0.021138 0.457 -0.19538 -0.6033 -0.77321
0.0084317 0.021983 0.457 -0.21596 -0.60823 -0.76382
0.0084317 0.022829 0.457 -0.16244 -0.60092 -0.78263
0.0084317 0.023674 0.457 -0.099483 -0.5921 -0.7997
0.0084502 0.024574 0.458 -0.28572 -0.60147 -0.74606
0.0092952 -0.095752 0.458 -0.25938 0.63019 -0.73183
0.0093155 -0.095112 0.459 -0.064496 0.66 -0.74849
0.0093155 -0.094263 0.459 -0.096008 0.64823 -0.75537
0.0093155 -0.093414 0.459 -0.10439 0.64272 -0.75896
0.0093155 -0.092564 0.459 -0.081543 0.63933 -0.7646
0.0093155 -0.091715 0.459 -0.059572 0.63622 -0.7692
0.0093155 -0.090866 0.459 -0.0038388 0.62684 -0.77914
0.0093155 -0.090017 0.459 0.072244 0.60387 -0.7938
0.0093155 -0.089167 0.459 0.14687 0.58354 -0.79869
0.0093155 -0.088318 0.459 0.23533 0.55812 -0.79569
0.0093155 -0.087469 0.459 0.30925 0.53505 -0.78618
0.0092952 -0.086431 0.458 0.43195 0.46633 -0.77198
0.0092952 -0.085584 0.458 0.49939 0.42615 -0.75432
0.0092749 -0.084551 0.457 0.57249 0.37539 -0.72893
0.0092546 -0.083523 0.456 0.62262 0.31168 -0.71777
0.0092343 -0.082498 0.455 0.65466 0.26273 -0.70879
0.009214 -0.081476 0.454 0.672 0.21722 -0.70797
0.0091937 -0.080459 0.453 0.68237 0.1859 -0.70697
0.0091734 -0.079445 0.452 0.68285 0.16112 -0.71257
0.0091734 -0.078609 0.452 0.70315 0.19209 -0.6846
0.0091531 -0.0776 0.451 0.69165 0.1689 -0.70221
0.0091328 -0.076596 0.45 0.68538 0.1431 -0.71398
0.0091125 -0.075595 0.449 0.6676 0.1075 -0.73672
0.0090923 -0.074598 0.448 0.64741 0.070566 -0.75887
0.0090923 -0.073769 0.448 0.64588 0.081647 -0.75906
0.009072 -0.072777 0.447 0.62959 0.024863 -0.77653
0.0090517 -0.071789 0.446 0.6288 -0.023078 -0.77722
0.0090517 -0.070964 0.446 0.62159 -0.031775 -0.7827
0.0090314 -0.069981 0.445 0.62946 -0.098527 -0.77076
0.0090314 -0.069158 0.445 0.60221 -0.10131 -0.79188
0.0090111 -0.068181 0.444 0.62194 -0.16971 -0.76445
0.0089908 -0.067208 0.443 0.63706 -0.23128 -0.7353
0.0089705 -0.066239 0.442 0.64732 -0.28712 -0.70607
0.0089502 -0.065273 0.441 0.6379 -0.32929 -0.69617
0.0089299 -0.064311 0.44 0.61799 -0.36137 -0.69821
0.0089096 -0.063352 0.439 0.58445 -0.37311 -0.72056
0.0089096 -0.06254 0.439 0.58105 -0.40624 -0.70523
0.0088893 -0.061587 0.438 0.56067 -0.4189 -0.71426
0.0088893 -0.060777 0.438 0.54144 -0.43683 -0.71835
0.008869 -0.05983 0.437 0.53431 -0.45516 -0.71229
0.0088487 -0.058886 0.436 0.52114 -0.46904 -0.71304
0.0088487 -0.05808 0.436 0.51992 -0.47991 -0.70666
0.0088284 -0.057142 0.435 0.50478 -0.49098 -0.71003
0.0088284 -0.056337 0.435 0.4919 -0.50225 -0.71119
0.0088081 -0.055404 0.434 0.45603 -0.51052 -0.72898
0.0088081 -0.054601 0.434 0.4248 -0.52865 -0.73489
0.0087878 -0.053674 0.433 0.36724 -0.53354 -0.76189
0.0087878 -0.052873 0.433 0.33762 -0.54838 -0.76505
0.0087675 -0.051952 0.432 0.2885 -0.54381 -0.78806
0.0087675 -0.051153 0.432 0.2773 -0.56201 -0.77926
0.0087675 -0.050353 0.432 0.26869 -0.57174 -0.77519
0.0087675 -0.049554 0.432 0.25851 -0.57937 -0.77299
0.0087675 -0.048755 0.432 0.25369 -0.57702 -0.77633
0.0087472 -0.047845 0.431 0.28316 -0.59989 -0.7483
0.0087472 -0.047047 0.431 0.2842 -0.60929 -0.74027
0.0087472 -0.04625 0.431 0.27724 -0.61731 -0.73625
0.0087269 -0.045347 0.43 0.2679 -0.63723 -0.72261
0.0087269 -0.044551 0.43 0.24373 -0.64988 -0.7199
0.0087066 -0.043654 0.429 0.19872 -0.65256 -0.73121
0.0087066 -0.04286 0.429 0.15278 -0.66314 -0.73273
0.0087066 -0.042067 0.429 0.10594 -0.67107 -0.73379
0.0087066 -0.041273 0.429 0.055474 -0.67368 -0.73693
0.0087066 -0.040479 0.429 0.014969 -0.67016 -0.74207
0.0087066 -0.039685 0.429 -0.022645 -0.66346 -0.74787
0.0087066 -0.038892 0.429 -0.051962 -0.65479 -0.75402
0.0087066 -0.038098 0.429 -0.070388 -0.63891 -0.76605
0.0087066 -0.037304 0.429 -0.068408 -0.62209 -0.77995
0.0087066 -0.036511 0.429 -0.055803 -0.6005 -0.79767
0.0087269 -0.0358 0.43 -0.010239 -0.57352 -0.81912
0.0087269 -0.035005 0.43 0.06209 -0.53982 -0.83949
0.0087269 -0.034209 0.43 0.15004 -0.50112 -0.85227
0.0087066 -0.033336 0.429 0.25325 -0.45441 -0.85403
0.0087066 -0.032542 0.429 0.34729 -0.39933 -0.84848
0.0087066 -0.031748 0.429 0.43222 -0.34966 -0.83122
0.0086863 -0.030883 0.428 0.47956 -0.30009 -0.8246
0.0086863 -0.030091 0.428 0.51521 -0.26921 -0.81369
0.0086661 -0.02923 0.427 0.52361 -0.239 -0.81775
0.0086458 -0.028374 0.426 0.51223 -0.21121 -0.83247
0.0086458 -0.027586 0.426 0.50166 -0.21854 -0.83701
0.0086458 -0.026797 0.426 0.4688 -0.21894 -0.85574
0.0086255 -0.025948 0.425 0.42406 -0.22757 -0.87658
0.0086255 -0.025162 0.425 0.37317 -0.2393 -0.89637
0.0086052 -0.024318 0.424 0.32773 -0.25494 -0.90973
0.0086052 -0.023534 0.424 0.27363 -0.27481 -0.92174
0.0086052 -0.022749 0.424 0.22179 -0.29653 -0.92892
0.0086052 -0.021965 0.424 0.15761 -0.32516 -0.93243
0.0085849 -0.02113 0.423 0.098773 -0.34672 -0.93275
0.0085849 -0.020348 0.423 0.035422 -0.36796 -0.92917
0.0085849 -0.019565 0.423 -0.031248 -0.38562 -0.92213
0.0085849 -0.018783 0.423 -0.089082 -0.39493 -0.91438
0.0086052 -0.018043 0.424 -0.13149 -0.41143 -0.90191
0.0086052 -0.017258 0.424 -0.17188 -0.4243 -0.88906
0.0086052 -0.016474 0.424 -0.21584 -0.42956 -0.87686
0.0086052 -0.015689 0.424 -0.24879 -0.43418 -0.86579
0.0086255 -0.01494 0.425 -0.27678 -0.43784 -0.85539
0.0086255 -0.014154 0.425 -0.29925 -0.43334 -0.8501
0.0086255 -0.013367 0.425 -0.3174 -0.42855 -0.84593
0.0086458 -0.012611 0.426 -0.32905 -0.42455 -0.8435
0.0086458 -0.011822 0.426 -0.34666 -0.4196 -0.83891
0.0086458 -0.011034 0.426 -0.35438 -0.4225 -0.83421
0.0086661 -0.01027 0.427 -0.37307 -0.42049 -0.82705
0.0086661 -0.0094801 0.427 -0.37781 -0.41824 -0.82604
0.0086661 -0.0086901 0.427 -0.37497 -0.41807 -0.82741
0.0086863 -0.0079186 0.428 -0.37496 -0.4255 -0.82362
0.0086863 -0.0071267 0.428 -0.38104 -0.42706 -0.82002
0.0086863 -0.0063349 0.428 -0.39024 -0.4258 -0.81634
0.0087066 -0.005556 0.429 -0.40606 -0.43094 -0.80586
0.0087066 -0.0047623 0.429 -0.41527 -0.42834 -0.80255
0.0087066 -0.0039685 0.429 -0.42486 -0.41612 -0.80396
0.0087269 -0.0031822 0.43 -0.46248 -0.4313 -0.77466
0.0087269 -0.0023867 0.43 -0.46626 -0.41568 -0.78091
0.0087472 -0.0015948 0.431 -0.50979 -0.43682 -0.74115
0.0087472 -0.00079741 0.431 -0.50804 -0.41565 -0.75441
0.0087675 0 0.432 -0.54229 -0.45546 -0.70603
0.0087878 0.00080111 0.433 -0.55559 -0.47802 -0.68031
0.0088081 0.0016059 0.434 -0.55639 -0.48813 -0.67242
0.0088284 0.0024144 0.435 -0.54281 -0.4891 -0.68274
0.0088284 0.0032192 0.435 -0.54986 -0.50196 -0.6676
0.0088487 0.0040333 0.436 -0.54367 -0.50413 -0.67102
0.0088487 0.00484 0.436 -0.54696 -0.49662 -0.67395
0.008869 0.0056596 0.437 -0.5687 -0.48822 -0.66199
0.0088893 0.0064829 0.438 -0.58612 -0.48011 -0.65266
0.0088893 0.0072932 0.438 -0.58884 -0.46257 -0.66279
0.0089096 0.0081221 0.439 -0.59695 -0.47259 -0.64832
0.0089299 0.0089547 0.44 -0.58915 -0.48787 -0.64412
0.0089502 0.0097909 0.441 -0.57704 -0.49877 -0.64672
0.0089705 0.010631 0.442 -0.55885 -0.512 -0.65234
0.0089705 0.011449 0.442 -0.55397 -0.51384 -0.65505
0.0089908 0.012294 0.443 -0.53613 -0.53126 -0.656
0.0089908 0.013114 0.443 -0.51542 -0.52421 -0.6779
0.0090314 0.013996 0.445 -0.54588 -0.56397 -0.61964
0.0090314 0.01482 0.445 -0.54452 -0.54724 -0.63563
0.0090517 0.015678 0.446 -0.59101 -0.54058 -0.59874
0.0090517 0.016503 0.446 -0.50646 -0.51716 -0.68996
0.009072 0.017367 0.447 -0.54657 -0.46304 -0.69775
0.0092952 0.019489 0.458 0.057256 -0.51808 -0.85342
0.0092952 0.020337 0.458 -0.058271 -0.55178 -0.83195
0.0092749 0.021138 0.457 -0.19265 -0.59888 -0.77733
0.0092749 0.021983 0.457 -0.084506 -0.56451 -0.82109
0.0092952 0.022879 0.458 -0.21466 -0.5983 -0.77198
0.0092952 0.023726 0.458 -0.16486 -0.59134 -0.78939
0.01014 -0.095752 0.458 -0.096106 0.64761 -0.75589
0.01014 -0.094905 0.458 -0.13507 0.63657 -0.7593
0.01014 -0.094057 0.458 -0.1615 0.62394 -0.7646
0.01014 -0.09321 0.458 -0.15523 0.619 -0.7699
0.01014 -0.092363 0.458 -0.11588 0.6167 -0.77862
0.01014 -0.091515 0.458 -0.076148 0.61389 -0.78571
0.010162 -0.090866 0.459 -0.023544 0.60527 -0.79568
0.01014 -0.089821 0.458 0.052401 0.58626 -0.80843
0.01014 -0.088973 0.458 0.13059 0.5635 -0.81573
