0.001524 -0.0022923 0.413 -0.47202 0.032397 -0.88099
0.0015277 -0.0015319 0.414 -0.48499 0.035826 -0.87378
0.0015277 -0.00076596 0.414 -0.51244 0.035179 -0.858
0.0015314 0 0.415 -0.50046 0.035382 -0.86504
0.0015314 0.00076781 0.415 -0.52435 0.034799 -0.85079
0.0015351 0.0015393 0.416 -0.52857 0.042787 -0.84781
0.0015351 0.002309 0.416 -0.54178 0.029765 -0.83999
0.0015387 0.003086 0.417 -0.56558 0.034423 -0.82398
0.0015387 0.0038575 0.417 -0.57103 0.030757 -0.82036
0.0015387 0.004629 0.417 -0.59236 0.031908 -0.80504
0.0015424 0.0054135 0.418 -0.58749 0.031972 -0.8086
0.0015461 0.0062017 0.419 -0.60055 0.028113 -0.79909
0.0015498 0.0069935 0.42 -0.60519 0.018622 -0.79586
0.0015498 0.0077706 0.42 -0.62256 0.011651 -0.78249
0.0015535 0.008568 0.421 -0.61597 0.012536 -0.78767
0.0015535 0.0093469 0.421 -0.60968 0.011773 -0.79256
0.0015572 0.01015 0.422 -0.59908 0.014406 -0.80056
0.0015572 0.010931 0.422 -0.595 0.032303 -0.80308
0.0015609 0.011739 0.423 -0.57972 0.058364 -0.81272
0.0015646 0.012551 0.424 -0.55139 0.10585 -0.82751
0.0015646 0.013336 0.424 -0.48475 0.12924 -0.86505
0.0015683 0.014154 0.425 -0.51607 0.16417 -0.84067
0.001572 0.014975 0.426 -0.61877 0.16953 -0.76706
0.0015756 0.0158 0.427 -0.70496 0.1465 -0.69395
0.0026292 -0.15116 0.475 0.47969 0.35276 -0.8034
0.0026236 -0.14996 0.474 0.4328 0.24634 -0.86718
0.0026181 -0.14877 0.473 0.42789 0.12089 -0.89571
0.0026181 -0.14789 0.473 0.41248 0.19806 -0.88918
0.0026125 -0.14671 0.472 0.5272 0.13758 -0.83853
0.0023247 -0.12666 0.42 -0.44828 -0.29223 -0.84478
0.0023469 -0.12316 0.424 -0.48007 0.27728 -0.83225
0.0023469 -0.12238 0.424 -0.52344 0.25721 -0.81231
0.0023524 -0.12188 0.425 -0.5023 0.28354 -0.81688
0.0023524 -0.12109 0.425 -0.52088 0.25702 -0.81402
0.0023579 -0.12059 0.426 -0.57097 0.24079 -0.78486
0.0023635 -0.12008 0.427 -0.57499 0.25371 -0.77783
0.002369 -0.11957 0.428 -0.55361 0.2785 -0.78483
0.002369 -0.11878 0.428 -0.51268 0.31725 -0.79782
0.0023745 -0.11826 0.429 -0.45359 0.34992 -0.81965
0.0023745 -0.11747 0.429 -0.37926 0.39044 -0.83888
0.0023745 -0.11668 0.429 -0.29942 0.42656 -0.85346
0.0023801 -0.11615 0.43 -0.22569 0.45817 -0.85974
0.0023801 -0.11536 0.43 -0.15985 0.48091 -0.86208
0.0023801 -0.11456 0.43 -0.11321 0.50492 -0.85571
0.0023801 -0.11377 0.43 -0.072323 0.51956 -0.85137
0.0023801 -0.11297 0.43 -0.049595 0.52372 -0.85045
0.0023801 -0.11217 0.43 -0.029687 0.52857 -0.84837
0.0023801 -0.11138 0.43 -0.014087 0.53094 -0.84729
0.0023801 -0.11058 0.43 -0.0052939 0.52731 -0.84966
0.0023801 -0.10979 0.43 -0.0139 0.52858 -0.84877
0.0023801 -0.10899 0.43 -0.020944 0.53138 -0.84687
0.0023801 -0.1082 0.43 -0.025968 0.53141 -0.84671
0.0023137 -0.059549 0.418 0.6573 -0.044976 -0.75228
0.0023026 -0.058494 0.416 0.37163 -0.0056722 -0.92836
0.0023026 -0.057724 0.416 0.51796 -0.03771 -0.85457
0.0023026 -0.056955 0.416 0.60025 -0.059917 -0.79756
0.002297 -0.05605 0.415 0.56531 -0.051875 -0.82325
0.002297 -0.055282 0.415 0.58621 -0.06803 -0.8073
0.0022915 -0.054383 0.414 0.56939 -0.07821 -0.81834
0.0022915 -0.053617 0.414 0.56529 -0.091376 -0.81981
0.002286 -0.052723 0.413 0.54742 -0.094432 -0.83151
0.002286 -0.051959 0.413 0.53125 -0.10905 -0.84017
0.0022804 -0.051071 0.412 0.51367 -0.10706 -0.85128
0.0022804 -0.050309 0.412 0.49455 -0.10201 -0.86314
0.0022749 -0.049426 0.411 0.47711 -0.109 -0.87206
0.0022749 -0.048666 0.411 0.45783 -0.10743 -0.88252
0.0022694 -0.047789 0.41 0.43582 -0.10037 -0.89442
0.0022694 -0.047031 0.41 0.41473 -0.10536 -0.90382
0.0022694 -0.046272 0.41 0.39796 -0.11112 -0.91065
0.0022694 -0.045513 0.41 0.38469 -0.1059 -0.91695
0.0022638 -0.044646 0.409 0.377 -0.10354 -0.92041
0.0022638 -0.043889 0.409 0.35823 -0.11436 -0.9266
0.0022638 -0.043132 0.409 0.35116 -0.11368 -0.92939
0.0022583 -0.042272 0.408 0.3393 -0.11449 -0.93369
0.0022583 -0.041517 0.408 0.31726 -0.11542 -0.94129
0.0022583 -0.040762 0.408 0.30709 -0.11277 -0.94498
0.0022583 -0.040007 0.408 0.29462 -0.11835 -0.94826
0.0022528 -0.039156 0.407 0.27162 -0.13491 -0.9529
0.0022528 -0.038403 0.407 0.25002 -0.13676 -0.95853
0.0022528 -0.03765 0.407 0.222 -0.13876 -0.96512
0.0022528 -0.036897 0.407 0.18916 -0.14601 -0.97103
0.0022528 -0.036144 0.407 0.15994 -0.15201 -0.97535
0.0022528 -0.035391 0.407 0.1326 -0.15158 -0.97951
0.0022472 -0.034553 0.406 0.10409 -0.15247 -0.98281
0.0022472 -0.033802 0.406 0.081455 -0.15596 -0.9844
0.0022472 -0.033051 0.406 0.054338 -0.16365 -0.98502
0.0022472 -0.0323 0.406 0.048944 -0.16052 -0.98582
0.0022472 -0.031549 0.406 0.043554 -0.15527 -0.98691
0.0022472 -0.030797 0.406 0.039244 -0.14893 -0.98807
0.0022472 -0.030046 0.406 0.042575 -0.13826 -0.98948
0.0022472 -0.029295 0.406 0.036067 -0.13188 -0.99061
0.0022472 -0.028544 0.406 0.032815 -0.12653 -0.99142
0.0022472 -0.027793 0.406 0.021889 -0.12442 -0.99199
0.0022472 -0.027042 0.406 0.0043828 -0.11692 -0.99313
0.0022472 -0.02629 0.406 -0.024139 -0.10176 -0.99452
0.0022472 -0.025539 0.406 -0.054864 -0.088633 -0.99455
0.0022472 -0.024788 0.406 -0.09636 -0.075346 -0.99249
0.0022472 -0.024037 0.406 -0.12237 -0.065375 -0.99033
0.0022472 -0.023286 0.406 -0.14385 -0.060857 -0.98773
0.0022472 -0.022535 0.406 -0.1598 -0.060706 -0.98528
0.0022472 -0.021784 0.406 -0.17883 -0.055121 -0.98234
0.0022528 -0.021084 0.407 -0.2127 -0.044994 -0.97608
0.0022528 -0.020331 0.407 -0.22606 -0.035258 -0.97347
0.0022528 -0.019578 0.407 -0.22513 -0.02245 -0.97407
0.0022528 -0.018825 0.407 -0.21084 -0.015018 -0.97741
0.0022528 -0.018072 0.407 -0.2057 -0.01074 -0.97856
0.0022583 -0.017362 0.408 -0.21855 -0.0074784 -0.9758
0.0022583 -0.016607 0.408 -0.24282 -0.0074343 -0.97004
0.0022583 -0.015852 0.408 -0.24482 -0.0074304 -0.96954
0.0022583 -0.015097 0.408 -0.23074 -0.0021306 -0.97301
0.0022583 -0.014342 0.408 -0.24181 0.0074362 -0.97029
0.0022583 -0.013587 0.408 -0.26369 0.0073924 -0.96458
0.0022638 -0.012864 0.409 -0.28741 0.0073223 -0.95778
0.0022638 -0.012107 0.409 -0.29986 -0.0020838 -0.95398
0.0022638 -0.011351 0.409 -0.33166 -0.0020607 -0.9434
0.0022638 -0.010594 0.409 -0.33258 -0.00206 -0.94307
0.0022694 -0.0098612 0.41 -0.35537 -0.0081468 -0.93469
0.0022694 -0.0091027 0.41 -0.38426 -0.011064 -0.92316
0.0022694 -0.0083441 0.41 -0.39705 -0.010999 -0.91773
0.0022749 -0.0076041 0.411 -0.42675 -0.010811 -0.9043
0.0022749 -0.0068437 0.411 -0.42108 -0.010843 -0.90696
0.0022749 -0.0060833 0.411 -0.43079 0.00098083 -0.90245
0.0022804 -0.0053358 0.412 -0.45426 0.00096589 -0.89087
0.0022804 -0.0045735 0.412 -0.44807 0.0058156 -0.89398
0.002286 -0.0038205 0.413 -0.45026 0.014484 -0.89278
0.002286 -0.0030564 0.413 -0.45869 0.014414 -0.88848
0.002286 -0.0022923 0.413 -0.46773 0.016249 -0.88372
0.0022915 -0.0015319 0.414 -0.47941 0.017987 -0.87741
0.0022915 -0.00076596 0.414 -0.50993 0.017631 -0.86004
0.0022915 0 0.414 -0.5016 0.017731 -0.86492
0.002297 0.00076781 0.415 -0.52727 0.014631 -0.84957
0.002297 0.0015356 0.415 -0.53515 0.014546 -0.84463
0.0023026 0.002309 0.416 -0.54583 0.0035988 -0.83789
0.0023081 0.003086 0.417 -0.57128 0.0061542 -0.82073
0.0023081 0.0038575 0.417 -0.57189 0.0017575 -0.82033
0.0023081 0.004629 0.417 -0.5949 0.0034441 -0.80379
0.0023137 0.0054135 0.418 -0.58836 -0.00086411 -0.8086
0.0023192 0.0062017 0.419 -0.60242 -0.0025528 -0.79817
0.0023192 0.0069769 0.419 -0.60563 -0.011027 -0.79567
0.0023247 0.0077706 0.42 -0.62253 -0.014979 -0.78245
0.0023303 0.008568 0.421 -0.61129 -0.0083966 -0.79136
0.0023303 0.0093469 0.421 -0.60114 0.0033916 -0.79914
0.0023358 0.01015 0.422 -0.58451 0.024895 -0.811
0.0023413 0.010957 0.423 -0.57169 0.063921 -0.81798
0.0023469 0.011767 0.424 -0.55574 0.12086 -0.82252
0.0023469 0.012551 0.424 -0.49951 0.17853 -0.84771
0.0023524 0.013367 0.425 -0.51313 0.23958 -0.82419
0.0023524 0.014154 0.425 -0.48678 0.25582 -0.83523
0.0023579 0.014975 0.426 -0.62603 0.18445 -0.75767
0.0023579 0.015763 0.426 -0.57228 0.2263 -0.78821
0.0023579 0.016551 0.426 -0.50033 0.28099 -0.81897
0.0035055 -0.15204 0.475 0.47671 0.31157 -0.82199
0.0034982 -0.15084 0.474 0.42085 0.20488 -0.88369
0.0034908 -0.14964 0.473 0.40555 0.085748 -0.91004
0.0034908 -0.14877 0.473 0.42368 0.17274 -0.88919
0.0034908 -0.14789 0.473 0.36731 0.20822 -0.90649
0.0031218 -0.12443 0.423 -0.44018 0.21319 -0.87223
0.0031218 -0.12365 0.423 -0.52556 0.18361 -0.83071
0.0031218 -0.12287 0.423 -0.60368 0.16535 -0.77989
0.0031292 -0.12238 0.424 -0.52488 0.24416 -0.81541
0.0031365 -0.12188 0.425 -0.50125 0.27919 -0.81902
0.0031365 -0.12109 0.425 -0.51989 0.26474 -0.81217
0.0031439 -0.12059 0.426 -0.55504 0.24937 -0.79356
0.0031513 -0.12008 0.427 -0.55113 0.27195 -0.78886
0.0031513 -0.11929 0.427 -0.52993 0.29378 -0.79553
0.0031587 -0.11878 0.428 -0.48862 0.33326 -0.80634
0.0031587 -0.11799 0.428 -0.42886 0.36916 -0.8245
0.0031661 -0.11747 0.429 -0.35597 0.40582 -0.84178
0.0031661 -0.11668 0.429 -0.28132 0.44034 -0.85262
0.0031661 -0.11588 0.429 -0.20817 0.46709 -0.85936
0.0031661 -0.11509 0.429 -0.13993 0.48255 -0.86462
0.0031661 -0.11429 0.429 -0.092424 0.5029 -0.85939
0.0031661 -0.1135 0.429 -0.049082 0.51337 -0.85676
0.0031661 -0.11271 0.429 -0.016157 0.52627 -0.85017
0.0031734 -0.11217 0.43 -0.066368 0.49868 -0.86424
0.0031661 -0.11112 0.429 0.042449 0.55134 -0.8332
0.0031661 -0.11033 0.429 0.066017 0.55627 -0.82837
0.0031661 -0.10953 0.429 0.081095 0.55867 -0.82541
0.0030849 -0.059549 0.418 0.63851 -0.080515 -0.76539
0.0030775 -0.058635 0.417 0.56825 -0.071505 -0.81974
0.0030701 -0.057724 0.416 0.49161 -0.05019 -0.86937
0.0030701 -0.056955 0.416 0.58466 -0.082715 -0.80705
0.0030701 -0.056185 0.416 0.61502 -0.10219 -0.78186
0.0030627 -0.055282 0.415 0.57986 -0.087326 -0.81002
0.0030554 -0.054383 0.414 0.56257 -0.090694 -0.82176
0.0030554 -0.053617 0.414 0.56287 -0.10674 -0.81962
0.003048 -0.052723 0.413 0.54857 -0.10762 -0.82915
0.003048 -0.051959 0.413 0.53331 -0.11778 -0.83768
0.0030406 -0.051071 0.412 0.51642 -0.11771 -0.8482
0.0030406 -0.050309 0.412 0.49431 -0.10663 -0.86272
0.0030332 -0.049426 0.411 0.47706 -0.10993 -0.87197
0.0030332 -0.048666 0.411 0.45749 -0.11406 -0.88187
0.0030332 -0.047906 0.411 0.43457 -0.10883 -0.89404
0.0030258 -0.047031 0.41 0.41428 -0.11509 -0.90284
0.0030258 -0.046272 0.41 0.3976 -0.11895 -0.90982
0.0030258 -0.045513 0.41 0.38413 -0.11871 -0.91562
0.0030185 -0.044646 0.409 0.37217 -0.11567 -0.92093
0.0030185 -0.043889 0.409 0.35439 -0.12151 -0.92717
0.0030185 -0.043132 0.409 0.34815 -0.12182 -0.92949
0.0030111 -0.042272 0.408 0.33716 -0.12263 -0.93343
0.0030111 -0.041517 0.408 0.31564 -0.1327 -0.93955
0.0030111 -0.040762 0.408 0.30161 -0.13333 -0.94406
0.0030111 -0.040007 0.408 0.28622 -0.13908 -0.94802
0.0030037 -0.039156 0.407 0.2662 -0.14945 -0.95226
0.0030037 -0.038403 0.407 0.24744 -0.1533 -0.9567
0.0030037 -0.03765 0.407 0.22249 -0.15426 -0.96265
0.0030037 -0.036897 0.407 0.19287 -0.15939 -0.96819
0.0030037 -0.036144 0.407 0.16063 -0.16553 -0.97303
0.0030037 -0.035391 0.407 0.13542 -0.1672 -0.97658
0.0030037 -0.034638 0.407 0.10891 -0.16775 -0.97979
0.0030037 -0.033885 0.407 0.088571 -0.17019 -0.98142
0.0029963 -0.033051 0.406 0.063941 -0.17616 -0.98228
0.0029963 -0.0323 0.406 0.054239 -0.17417 -0.98322
0.0029963 -0.031549 0.406 0.043454 -0.169 -0.98466
0.0029963 -0.030797 0.406 0.03913 -0.16693 -0.98519
0.0029963 -0.030046 0.406 0.042431 -0.16057 -0.98611
0.0029963 -0.029295 0.406 0.035931 -0.15744 -0.98687
0.0029963 -0.028544 0.406 0.032684 -0.15428 -0.98749
0.0029963 -0.027793 0.406 0.0218 -0.15326 -0.98795
0.0029963 -0.027042 0.406 0.0098134 -0.15223 -0.9883
0.0029963 -0.02629 0.406 -0.014197 -0.14157 -0.98983
0.0029963 -0.025539 0.406 -0.041534 -0.12971 -0.99068
0.0029963 -0.024788 0.406 -0.080838 -0.11439 -0.99014
0.0029963 -0.024037 0.406 -0.11119 -0.10654 -0.98807
0.0029963 -0.023286 0.406 -0.13696 -0.10298 -0.98521
0.0029963 -0.022535 0.406 -0.15713 -0.10266 -0.98223
0.0029963 -0.021784 0.406 -0.1751 -0.098084 -0.97965
0.0030037 -0.021084 0.407 -0.20908 -0.084471 -0.97424
0.0030037 -0.020331 0.407 -0.22359 -0.07148 -0.97206
0.0030037 -0.019578 0.407 -0.22482 -0.056584 -0.97276
0.0030037 -0.018825 0.407 -0.21268 -0.047132 -0.97598
0.0030037 -0.018072 0.407 -0.20343 -0.046155 -0.978
0.0030111 -0.017362 0.408 -0.21222 -0.042755 -0.97629
0.0030111 -0.016607 0.408 -0.23255 -0.042552 -0.97165
0.0030111 -0.015852 0.408 -0.23663 -0.037204 -0.97089
0.0030111 -0.015097 0.408 -0.23062 -0.033006 -0.97248
0.0030111 -0.014342 0.408 -0.24476 -0.023347 -0.9693
0.0030111 -0.013587 0.408 -0.26464 -0.017946 -0.96418
0.0030185 -0.012864 0.409 -0.28641 -0.017786 -0.95794
0.0030185 -0.012107 0.409 -0.30162 -0.030183 -0.95295
0.0030185 -0.011351 0.409 -0.33059 -0.029877 -0.9433
0.0030185 -0.010594 0.409 -0.33431 -0.024695 -0.94214
0.0030258 -0.0098612 0.41 -0.35526 -0.025451 -0.93442
0.0030258 -0.0091027 0.41 -0.38245 -0.025157 -0.92364
0.0030258 -0.0083441 0.41 -0.39774 -0.029972 -0.91701
0.0030332 -0.0076041 0.411 -0.42498 -0.029499 -0.90472
0.0030332 -0.0068437 0.411 -0.42179 -0.024627 -0.90636
0.0030332 -0.0060833 0.411 -0.42993 -0.01766 -0.90269
0.0030406 -0.0053358 0.412 -0.45188 -0.017406 -0.89191
0.0030406 -0.0045735 0.412 -0.44407 -0.022336 -0.89571
0.003048 -0.0038205 0.413 -0.4495 -0.011593 -0.8932
0.003048 -0.0030564 0.413 -0.45718 -0.011542 -0.8893
0.003048 -0.0022923 0.413 -0.46551 -0.011486 -0.88497
0.0030554 -0.0015319 0.414 -0.47654 -0.0066399 -0.87913
0.0030554 -0.00076596 0.414 -0.50654 -0.0065119 -0.86219
0.0030627 0 0.415 -0.50077 -0.0018634 -0.86558
0.0030627 0.00076781 0.415 -0.52731 -0.0073162 -0.84964
0.0030701 0.0015393 0.416 -0.53422 -0.015429 -0.8452
0.0030701 0.002309 0.416 -0.54574 -0.018891 -0.83774
0.0030775 0.003086 0.417 -0.5712 -0.01846 -0.8206
0.0030775 0.0038575 0.417 -0.57183 -0.014059 -0.82025
0.0030849 0.0046401 0.418 -0.59394 -0.012035 -0.80442
0.0030849 0.0054135 0.418 -0.58829 -0.015552 -0.8085
0.0030923 0.0062017 0.419 -0.60235 -0.015315 -0.79808
0.0030923 0.0069769 0.419 -0.60281 -0.022957 -0.79755
0.0030996 0.0077706 0.42 -0.61784 -0.020064 -0.78604
0.003107 0.008568 0.421 -0.6022 -0.0093171 -0.79829
0.003107 0.0093469 0.421 -0.58551 0.018058 -0.81046
0.0031144 0.01015 0.422 -0.55968 0.061237 -0.82645
0.0031218 0.010957 0.423 -0.53249 0.11859 -0.83809
0.0031218 0.011739 0.423 -0.49475 0.1869 -0.8487
0.0031292 0.012551 0.424 -0.4514 0.24611 -0.85771
0.0031365 0.013367 0.425 -0.50138 0.24631 -0.82943
0.0031439 0.014187 0.426 -0.65382 0.12229 -0.74671
0.0031439 0.014975 0.426 -0.63895 0.15842 -0.75276
0.0031439 0.015763 0.426 -0.59117 0.22761 -0.77376
0.0031365 0.017299 0.425 -0.1556 0.56748 -0.80855
0.0043819 -0.15291 0.475 0.43793 0.28848 -0.85147
0.0043727 -0.15172 0.474 0.3777 0.16639 -0.91086
0.0043727 -0.15084 0.474 0.40966 0.22937 -0.88293
0.0043635 -0.14964 0.473 0.40344 0.13748 -0.90462
0.0043635 -0.14877 0.473 0.3857 0.18035 -0.90482
0.0043635 -0.14789 0.473 0.30248 0.18921 -0.93419
0.0043542 -0.14671 0.472 0.4559 0.16673 -0.87428
0.003893 -0.12726 0.422 -0.29095 0.23063 -0.92852
0.0039022 -0.12365 0.423 -0.50654 0.14822 -0.84938
0.0039022 -0.12287 0.423 -0.5922 0.11601 -0.7974
0.0039114 -0.12238 0.424 -0.51408 0.22845 -0.82676
0.0039114 -0.12159 0.424 -0.54502 0.20231 -0.81365
0.0039207 -0.12109 0.425 -0.51507 0.26182 -0.81618
0.0039299 -0.12059 0.426 -0.53518 0.25938 -0.80393
0.0039299 -0.1198 0.426 -0.5312 0.27592 -0.80105
0.0039391 -0.11929 0.427 -0.50839 0.30571 -0.80504
0.0039483 -0.11878 0.428 -0.46658 0.34002 -0.81651
0.0039483 -0.11799 0.428 -0.40685 0.37619 -0.83244
0.0039483 -0.1172 0.428 -0.33815 0.40802 -0.84804
0.0039576 -0.11668 0.429 -0.26031 0.43952 -0.85969
0.0039576 -0.11588 0.429 -0.18688 0.46635 -0.86463
0.0039576 -0.11509 0.429 -0.11617 0.48059 -0.86922
0.0039576 -0.11429 0.429 -0.079007 0.4951 -0.86524
0.0039576 -0.1135 0.429 -0.045212 0.4999 -0.8649
0.0039576 -0.11271 0.429 -0.027897 0.50594 -0.86212
0.0039576 -0.11191 0.429 -0.01804 0.50656 -0.86201
0.0039576 -0.11112 0.429 -0.01473 0.50935 -0.86043
0.0039576 -0.11033 0.429 -0.013424 0.50647 -0.86215
0.0039576 -0.10953 0.429 -0.028597 0.50794 -0.86092
0.0038469 -0.059406 0.417 0.41433 -0.061441 -0.90805
0.0038469 -0.058635 0.417 0.54525 -0.095677 -0.83279
0.0038376 -0.057724 0.416 0.45626 -0.064531 -0.8875
0.0038376 -0.056955 0.416 0.5635 -0.10298 -0.81967
0.0038284 -0.05605 0.415 0.53024 -0.076456 -0.84439
0.0038284 -0.055282 0.415 0.57428 -0.10835 -0.81146
0.0038192 -0.054383 0.414 0.55304 -0.10904 -0.82599
0.0038192 -0.053617 0.414 0.5588 -0.1266 -0.81958
0.00381 -0.052723 0.413 0.54874 -0.12429 -0.8267
0.00381 -0.051959 0.413 0.53506 -0.13001 -0.83475
0.0038007 -0.051071 0.412 0.51951 -0.13181 -0.84424
0.0038007 -0.050309 0.412 0.4946 -0.12587 -0.85996
0.0037915 -0.049426 0.411 0.47835 -0.12563 -0.86913
0.0037915 -0.048666 0.411 0.45501 -0.13115 -0.88078
0.0037915 -0.047906 0.411 0.43199 -0.12808 -0.89274
0.0037823 -0.047031 0.41 0.41679 -0.1294 -0.89975
0.0037823 -0.046272 0.41 0.40112 -0.13136 -0.90656
0.0037823 -0.045513 0.41 0.38351 -0.13147 -0.91413
0.0037731 -0.044646 0.409 0.36732 -0.1268 -0.92141
0.0037731 -0.043889 0.409 0.34586 -0.13289 -0.92883
0.0037731 -0.043132 0.409 0.34133 -0.13412 -0.93033
0.0037731 -0.042376 0.409 0.33137 -0.13463 -0.93385
0.0037638 -0.041517 0.408 0.31241 -0.14292 -0.93913
0.0037638 -0.040762 0.408 0.29543 -0.14576 -0.94418
0.0037638 -0.040007 0.408 0.27809 -0.1506 -0.94868
0.0037638 -0.039253 0.408 0.25641 -0.15969 -0.95328
0.0037546 -0.038403 0.407 0.24299 -0.16574 -0.95577
0.0037546 -0.03765 0.407 0.22308 -0.16553 -0.96064
0.0037546 -0.036897 0.407 0.1987 -0.16848 -0.96547
0.0037546 -0.036144 0.407 0.16554 -0.17574 -0.97042
0.0037546 -0.035391 0.407 0.13841 -0.17441 -0.9749
0.0037546 -0.034638 0.407 0.11515 -0.17493 -0.97782
0.0037546 -0.033885 0.407 0.098093 -0.17629 -0.97944
0.0037546 -0.033132 0.407 0.076634 -0.17975 -0.98072
0.0037546 -0.032379 0.407 0.06374 -0.17992 -0.98161
0.0037546 -0.031626 0.407 0.048694 -0.17589 -0.9832
0.0037546 -0.030873 0.407 0.038994 -0.17283 -0.98418
0.0037454 -0.030046 0.406 0.042354 -0.17111 -0.98434
0.0037454 -0.029295 0.406 0.035847 -0.17116 -0.98459
0.0037454 -0.028544 0.406 0.032598 -0.17013 -0.98488
0.0037454 -0.027793 0.406 0.021739 -0.17018 -0.98517
0.0037454 -0.027042 0.406 0.0097842 -0.17021 -0.98536
0.0037454 -0.02629 0.406 -0.0087051 -0.16494 -0.98627
0.0037454 -0.025539 0.406 -0.031591 -0.15534 -0.98736
0.0037454 -0.024788 0.406 -0.072946 -0.1444 -0.98683
0.0037454 -0.024037 0.406 -0.10538 -0.13868 -0.98471
0.0037454 -0.023286 0.406 -0.13322 -0.13609 -0.9817
0.0037454 -0.022535 0.406 -0.15546 -0.13565 -0.97849
0.0037546 -0.021837 0.407 -0.1698 -0.13289 -0.97648
0.0037546 -0.021084 0.407 -0.20224 -0.11738 -0.97228
0.0037546 -0.020331 0.407 -0.21588 -0.10231 -0.97105
0.0037546 -0.019578 0.407 -0.22221 -0.09162 -0.97068
0.0037546 -0.018825 0.407 -0.2152 -0.085416 -0.97283
0.0037546 -0.018072 0.407 -0.19977 -0.087828 -0.9759
0.0037638 -0.017362 0.408 -0.20245 -0.084386 -0.97565
0.0037638 -0.016607 0.408 -0.22295 -0.078721 -0.97165
0.0037638 -0.015852 0.408 -0.22817 -0.069112 -0.97116
0.0037638 -0.015097 0.408 -0.22923 -0.065921 -0.97114
0.0037638 -0.014342 0.408 -0.24542 -0.057213 -0.96773
0.0037638 -0.013587 0.408 -0.26243 -0.046431 -0.96383
0.0037731 -0.012864 0.409 -0.28133 -0.046061 -0.9585
0.0037731 -0.012107 0.409 -0.29836 -0.060339 -0.95254
0.0037731 -0.011351 0.409 -0.32933 -0.054564 -0.94264
0.0037823 -0.01062 0.41 -0.33964 -0.05014 -0.93922
0.0037823 -0.0098612 0.41 -0.35857 -0.045712 -0.93238
0.0037823 -0.0091027 0.41 -0.38309 -0.042224 -0.92275
0.0037823 -0.0083441 0.41 -0.39992 -0.050849 -0.91514
0.0037915 -0.0076041 0.411 -0.42382 -0.050128 -0.90436
0.0037915 -0.0068437 0.411 -0.42237 -0.041333 -0.90548
0.0038007 -0.0060981 0.412 -0.42721 -0.039175 -0.9033
0.0038007 -0.0053358 0.412 -0.44774 -0.038742 -0.89332
0.0038007 -0.0045735 0.412 -0.44133 -0.047605 -0.89608
0.00381 -0.0038205 0.413 -0.44847 -0.03574 -0.89308
0.00381 -0.0030564 0.413 -0.45386 -0.035631 -0.89036
0.00381 -0.0022923 0.413 -0.46455 -0.032543 -0.88495
0.0038192 -0.0015319 0.414 -0.4742 -0.024689 -0.88007
0.0038192 -0.00076596 0.414 -0.50293 -0.024238 -0.86399
0.0038284 0 0.415 -0.50001 -0.015844 -0.86588
0.0038284 0.00076781 0.415 -0.52585 -0.023795 -0.85024
0.0038284 0.0015356 0.415 -0.53618 -0.034497 -0.8434
0.0038376 0.002309 0.416 -0.54558 -0.030576 -0.8375
0.0038469 0.003086 0.417 -0.5698 -0.032546 -0.82114
0.0038469 0.0038575 0.417 -0.57578 -0.028884 -0.8171
0.0038561 0.0046401 0.418 -0.59655 -0.026573 -0.80214
0.0038561 0.0054135 0.418 -0.5898 -0.029322 -0.80702
0.0038653 0.0062017 0.419 -0.60008 -0.023016 -0.79961
0.0038653 0.0069769 0.419 -0.59736 -0.021367 -0.80169
0.0038745 0.0077706 0.42 -0.60742 -0.0084482 -0.79434
0.0038745 0.0085476 0.42 -0.58759 0.014628 -0.80903
0.0038838 0.0093469 0.421 -0.5588 0.060552 -0.82709
0.003893 0.01015 0.422 -0.52226 0.12239 -0.84396
0.0039022 0.010957 0.423 -0.47949 0.19344 -0.85596
0.0039114 0.011767 0.424 -0.45109 0.25732 -0.85458
0.0039114 0.012551 0.424 -0.41094 0.31142 -0.85682
0.0039207 0.013367 0.425 -0.5003 0.23226 -0.83412
0.0039207 0.014154 0.425 -0.49388 0.2792 -0.82349
0.0039207 0.01494 0.425 -0.46883 0.33064 -0.81907
0.0039207 0.015726 0.425 -0.38147 0.42572 -0.82051
0.0039114 0.016474 0.424 -0.060313 0.61496 -0.78625
0.0039114 0.017258 0.424 -0.013957 0.67135 -0.74101
0.0052694 -0.155 0.476 0.48279 0.35617 -0.80003
0.0052583 -0.15379 0.475 0.41211 0.26852 -0.87067
0.0052472 -0.15259 0.474 0.32537 0.16221 -0.93157
0.0052472 -0.15172 0.474 0.37818 0.19388 -0.9052
0.0052362 -0.15052 0.473 0.3449 0.1185 -0.93113
0.0052362 -0.14964 0.473 0.38475 0.16159 -0.90877
0.0052362 -0.14877 0.473 0.3363 0.17219 -0.92588
0.0052362 -0.14789 0.473 0.24663 0.16259 -0.95537
0.0052251 -0.14671 0.472 0.41962 0.15367 -0.8946
0.0046716 -0.12804 0.422 -0.10872 0.2838 -0.9527
0.0046716 -0.12726 0.422 -0.2416 0.25959 -0.93501
0.0046716 -0.12492 0.422 -0.45834 0.077573 -0.88539
0.0046827 -0.12365 0.423 -0.4835 0.15804 -0.86096
0.0046937 -0.12316 0.424 -0.41339 0.26942 -0.86978
0.0046937 -0.12238 0.424 -0.48752 0.24024 -0.83941
0.0046937 -0.12159 0.424 -0.52701 0.22132 -0.82054
0.0047048 -0.12109 0.425 -0.49768 0.27301 -0.82327
0.0047159 -0.12059 0.426 -0.50942 0.27582 -0.81512
0.0047159 -0.1198 0.426 -0.50749 0.29146 -0.81087
0.0047269 -0.11929 0.427 -0.48337 0.31822 -0.81553
0.0047269 -0.1185 0.427 -0.44263 0.35347 -0.8241
0.004738 -0.11799 0.428 -0.38503 0.38659 -0.83803
0.004738 -0.1172 0.428 -0.32178 0.4184 -0.84935
0.004738 -0.1164 0.428 -0.24872 0.4495 -0.85795
0.004738 -0.11561 0.428 -0.17683 0.47503 -0.86202
0.004738 -0.11482 0.428 -0.10857 0.49081 -0.86447
0.0047491 -0.11429 0.429 -0.078037 0.49293 -0.86656
0.0047491 -0.1135 0.429 -0.054508 0.49098 -0.86947
0.004738 -0.11244 0.428 0.013991 0.52608 -0.85032
0.004738 -0.11165 0.428 0.048564 0.53872 -0.84108
0.004738 -0.11086 0.428 0.075629 0.55082 -0.83119
0.004738 -0.11007 0.428 0.096935 0.5534 -0.82726
0.004738 -0.10928 0.428 0.098463 0.55503 -0.82598
0.0046162 -0.058635 0.417 0.50978 -0.11741 -0.85225
0.0046162 -0.057863 0.417 0.59828 -0.14435 -0.78818
0.0046052 -0.056955 0.416 0.53629 -0.11491 -0.83617
0.0046052 -0.056185 0.416 0.59673 -0.14653 -0.78895
0.0045941 -0.055282 0.415 0.56273 -0.12029 -0.81784
0.004583 -0.054383 0.414 0.53991 -0.11496 -0.83383
0.004583 -0.053617 0.414 0.55373 -0.14151 -0.82058
0.004572 -0.052723 0.413 0.54634 -0.13831 -0.82607
0.004572 -0.051959 0.413 0.5363 -0.14741 -0.83105
0.0045609 -0.051071 0.412 0.52239 -0.14663 -0.84001
0.0045609 -0.050309 0.412 0.49807 -0.14641 -0.85469
0.0045609 -0.049547 0.412 0.48173 -0.13793 -0.8654
0.0045498 -0.048666 0.411 0.45859 -0.14577 -0.87661
0.0045498 -0.047906 0.411 0.43882 -0.14458 -0.88687
0.0045387 -0.047031 0.41 0.4182 -0.1465 -0.89646
0.0045387 -0.046272 0.41 0.40603 -0.14643 -0.90205
0.0045387 -0.045513 0.41 0.38684 -0.14776 -0.91023
0.0045277 -0.044646 0.409 0.36832 -0.1415 -0.91887
0.0045277 -0.043889 0.409 0.34428 -0.14685 -0.92731
0.0045277 -0.043132 0.409 0.33724 -0.14428 -0.9303
0.0045277 -0.042376 0.409 0.32908 -0.14472 -0.93315
0.0045277 -0.041619 0.409 0.31136 -0.15064 -0.93828
0.0045166 -0.040762 0.408 0.29218 -0.15498 -0.94372
0.0045166 -0.040007 0.408 0.27297 -0.15792 -0.94897
0.0045166 -0.039253 0.408 0.25032 -0.16503 -0.95399
0.0045055 -0.038403 0.407 0.23077 -0.17338 -0.95744
0.0045055 -0.03765 0.407 0.21056 -0.17726 -0.96138
0.0045055 -0.036897 0.407 0.19225 -0.17795 -0.96508
0.0045055 -0.036144 0.407 0.16539 -0.18089 -0.9695
0.0045055 -0.035391 0.407 0.13833 -0.17752 -0.97435
0.0045055 -0.034638 0.407 0.12039 -0.17794 -0.97665
0.0045055 -0.033885 0.407 0.10871 -0.17818 -0.97798
0.0045055 -0.033132 0.407 0.092698 -0.17951 -0.97938
0.0045055 -0.032379 0.407 0.078734 -0.18285 -0.97998
0.0045055 -0.031626 0.407 0.061576 -0.18098 -0.98156
0.0045055 -0.030873 0.407 0.048675 -0.17798 -0.98283
0.0045055 -0.03012 0.407 0.047623 -0.17486 -0.98344
0.0045055 -0.029367 0.407 0.035749 -0.17285 -0.9843
0.0044945 -0.028544 0.406 0.032574 -0.17433 -0.98415
0.0044945 -0.027793 0.406 0.021718 -0.17543 -0.98425
0.0044945 -0.027042 0.406 0.0097732 -0.17651 -0.98425
0.0044945 -0.02629 0.406 -0.0086772 -0.1828 -0.98311
0.0044945 -0.025539 0.406 -0.031447 -0.18167 -0.98286
0.0044945 -0.024788 0.406 -0.072581 -0.17501 -0.98189
0.0045055 -0.024096 0.407 -0.10459 -0.17097 -0.97971
0.0045055 -0.023343 0.407 -0.13221 -0.16936 -0.97665
0.0045055 -0.02259 0.407 -0.15428 -0.16881 -0.9735
0.0045055 -0.021837 0.407 -0.16364 -0.16959 -0.97183
0.0045055 -0.021084 0.407 -0.197 -0.15823 -0.96755
0.0045055 -0.020331 0.407 -0.21161 -0.1474 -0.96618
0.0045055 -0.019578 0.407 -0.2189 -0.14094 -0.96552
0.0045055 -0.018825 0.407 -0.21291 -0.13801 -0.96728
0.0045166 -0.018117 0.408 -0.19833 -0.13185 -0.97123
0.0045166 -0.017362 0.408 -0.19752 -0.12351 -0.97249
0.0045166 -0.016607 0.408 -0.21511 -0.11363 -0.96996
0.0045166 -0.015852 0.408 -0.22339 -0.10608 -0.96894
0.0045166 -0.015097 0.408 -0.22748 -0.10388 -0.96823
0.0045166 -0.014342 0.408 -0.24167 -0.097247 -0.96547
0.0045277 -0.013621 0.409 -0.2514 -0.081109 -0.96448
0.0045277 -0.012864 0.409 -0.27491 -0.080572 -0.95809
0.0045277 -0.012107 0.409 -0.29579 -0.090359 -0.95097
0.0045277 -0.011351 0.409 -0.32599 -0.080244 -0.94196
0.0045387 -0.01062 0.41 -0.34088 -0.076563 -0.93698
0.0045387 -0.0098612 0.41 -0.36432 -0.066793 -0.92888
0.0045387 -0.0091027 0.41 -0.38359 -0.060241 -0.92154
0.0045387 -0.0083441 0.41 -0.39941 -0.071695 -0.91396
0.0045498 -0.0076041 0.411 -0.42263 -0.065822 -0.90391
0.0045498 -0.0068437 0.411 -0.42523 -0.058896 -0.90317
0.0045609 -0.0060981 0.412 -0.42512 -0.061682 -0.90303
0.0045609 -0.0053358 0.412 -0.441 -0.061162 -0.89542
0.0045609 -0.0045735 0.412 -0.43845 -0.068015 -0.89618
0.004572 -0.0038205 0.413 -0.44573 -0.056045 -0.89341
0.004572 -0.0030564 0.413 -0.45102 -0.060675 -0.89045
0.004572 -0.0022923 0.413 -0.46182 -0.055533 -0.88524
0.004583 -0.0015319 0.414 -0.47227 -0.050324 -0.88002
0.004583 -0.00076596 0.414 -0.49825 -0.049501 -0.86562
0.0045941 0 0.415 -0.49689 -0.03826 -0.86697
0.0045941 0.00076781 0.415 -0.52071 -0.048624 -0.85235
0.0046052 0.0015393 0.416 -0.53539 -0.056105 -0.84274
0.0046052 0.002309 0.416 -0.54402 -0.044984 -0.83787
0.0046162 0.003086 0.417 -0.56643 -0.049348 -0.82263
0.0046162 0.0038575 0.417 -0.57433 -0.042036 -0.81754
0.0046273 0.0046401 0.418 -0.59407 -0.039495 -0.80344
0.0046273 0.0054135 0.418 -0.58965 -0.037074 -0.80681
0.0046384 0.0062017 0.419 -0.59675 -0.025651 -0.80202
0.0046494 0.0069935 0.42 -0.5904 -0.015449 -0.80697
0.0046494 0.0077706 0.42 -0.59378 0.010268 -0.80456
0.0046605 0.008568 0.421 -0.5623 0.043808 -0.82577
0.0046605 0.0093469 0.421 -0.51998 0.11054 -0.84699
0.0046716 0.01015 0.422 -0.47016 0.19064 -0.86175
0.0046827 0.010957 0.423 -0.40998 0.27379 -0.87003
0.0046937 0.011767 0.424 -0.43572 0.25312 -0.86376
0.0046937 0.012551 0.424 -0.39313 0.30916 -0.86595
0.0046937 0.013336 0.424 -0.34121 0.3768 -0.86116
0.0046937 0.01412 0.424 -0.28806 0.45117 -0.84467
0.0046937 0.014905 0.424 -0.26423 0.50353 -0.82258
0.0046827 0.015652 0.423 0.048761 0.6487 -0.75948
0.0046827 0.016435 0.423 0.063538 0.68485 -0.72591
0.0061476 -0.15588 0.476 0.46229 0.36233 -0.80932
0.0061347 -0.15467 0.475 0.37873 0.26789 -0.88589
0.0061218 -0.15347 0.474 0.29065 0.15678 -0.9439
0.0061218 -0.15259 0.474 0.33925 0.19865 -0.91948
0.0061218 -0.15172 0.474 0.36865 0.21062 -0.90539
0.0061089 -0.15052 0.473 0.34319 0.14472 -0.92805
0.0061089 -0.14964 0.473 0.33481 0.15688 -0.92913
0.0061089 -0.14877 0.473 0.27601 0.15857 -0.94798
0.0060959 -0.14758 0.472 0.43332 0.13352 -0.89129
0.0060959 -0.14671 0.472 0.37264 0.13031 -0.91878
0.0054373 -0.12774 0.421 -0.29638 0.13135 -0.94599
0.0054373 -0.12696 0.421 -0.39119 0.089751 -0.91592
0.0054631 -0.12443 0.423 -0.38532 0.21534 -0.8973
0.0054631 -0.12365 0.423 -0.4541 0.17746 -0.8731
0.005476 -0.12316 0.424 -0.39776 0.25516 -0.8813
0.005476 -0.12238 0.424 -0.46621 0.23416 -0.85312
0.005476 -0.12159 0.424 -0.51483 0.22237 -0.82795
0.0054889 -0.12109 0.425 -0.48997 0.26569 -0.83026
0.0054889 -0.12031 0.425 -0.49709 0.27782 -0.82202
0.0055018 -0.1198 0.426 -0.4863 0.30181 -0.82001
0.0055018 -0.11901 0.426 -0.46413 0.3338 -0.82046
0.0055148 -0.1185 0.427 -0.42255 0.36676 -0.82882
0.0055148 -0.11771 0.427 -0.36801 0.39603 -0.84127
0.0055277 -0.1172 0.428 -0.30467 0.42233 -0.8537
0.0055277 -0.1164 0.428 -0.23347 0.45126 -0.86131
0.0055277 -0.11561 0.428 -0.166 0.47038 -0.86671
0.0055277 -0.11482 0.428 -0.099882 0.47854 -0.87237
0.0055277 -0.11403 0.428 -0.065266 0.48235 -0.87354
0.0055277 -0.11324 0.428 -0.031845 0.48377 -0.87462
0.0055277 -0.11244 0.428 -0.012502 0.48937 -0.87199
0.0055277 -0.11165 0.428 -0.0034883 0.49285 -0.87011
0.0055277 -0.11086 0.428 -0.0054829 0.49378 -0.86957
0.0055277 -0.11007 0.428 -0.0084658 0.49658 -0.86795
0.0055277 -0.10928 0.428 -0.021115 0.4991 -0.86628
0.0053856 -0.058635 0.417 0.47637 -0.13985 -0.86805
0.0053856 -0.057863 0.417 0.57523 -0.16775 -0.8006
0.0053727 -0.056955 0.416 0.51286 -0.13005 -0.84857
0.0053727 -0.056185 0.416 0.58393 -0.16189 -0.7955
0.0053598 -0.055282 0.415 0.54994 -0.13017 -0.825
0.0053598 -0.054514 0.415 0.56434 -0.16078 -0.80974
0.0053469 -0.053617 0.414 0.54648 -0.15084 -0.82378
0.0053469 -0.052851 0.414 0.54657 -0.15516 -0.82292
0.0053339 -0.051959 0.413 0.53406 -0.15897 -0.83037
0.0053339 -0.051195 0.413 0.51938 -0.15629 -0.84013
0.005321 -0.050309 0.412 0.49932 -0.15705 -0.85207
0.005321 -0.049547 0.412 0.47898 -0.14639 -0.86553
0.0053081 -0.048666 0.411 0.4597 -0.15123 -0.8751
0.0053081 -0.047906 0.411 0.44375 -0.15167 -0.88322
0.0053081 -0.047145 0.411 0.4177 -0.15377 -0.89548
0.0052952 -0.046272 0.41 0.40619 -0.15693 -0.90021
0.0052952 -0.045513 0.41 0.38692 -0.16027 -0.90808
0.0052952 -0.044755 0.41 0.36691 -0.15296 -0.91759
0.0052823 -0.043889 0.409 0.34286 -0.15679 -0.92621
0.0052823 -0.043132 0.409 0.33029 -0.15655 -0.93081
0.0052823 -0.042376 0.409 0.32182 -0.16199 -0.93284
0.0052694 -0.041517 0.408 0.31034 -0.16602 -0.93602
0.0052694 -0.040762 0.408 0.29045 -0.17111 -0.94147
0.0052694 -0.040007 0.408 0.2714 -0.1711 -0.94714
0.0052694 -0.039253 0.408 0.24988 -0.17516 -0.9523
0.0052694 -0.038498 0.408 0.22575 -0.18534 -0.95639
0.0052565 -0.03765 0.407 0.20205 -0.18778 -0.9612
0.0052565 -0.036897 0.407 0.18563 -0.19146 -0.96379
0.0052565 -0.036144 0.407 0.16182 -0.19534 -0.96729
0.0052565 -0.035391 0.407 0.13259 -0.1962 -0.97156
0.0052565 -0.034638 0.407 0.11796 -0.19143 -0.97439
0.0052565 -0.033885 0.407 0.10856 -0.18544 -0.97664
0.0052565 -0.033132 0.407 0.10007 -0.18457 -0.97771
0.0052565 -0.032379 0.407 0.093656 -0.18572 -0.97813
0.0052565 -0.031626 0.407 0.0776 -0.18701 -0.97929
0.0052565 -0.030873 0.407 0.064752 -0.18511 -0.98058
0.0052565 -0.03012 0.407 0.06264 -0.18201 -0.9813
0.0052565 -0.029367 0.407 0.048666 -0.17903 -0.98264
0.0052565 -0.028614 0.407 0.042206 -0.17699 -0.98331
0.0052565 -0.027861 0.407 0.027085 -0.17394 -0.98438
0.0052565 -0.027108 0.407 0.0043335 -0.1761 -0.98436
0.0052435 -0.02629 0.406 -0.018418 -0.18799 -0.982
0.0052565 -0.025602 0.407 -0.038832 -0.1947 -0.98009
0.0052565 -0.024849 0.407 -0.077521 -0.19219 -0.97829
0.0052565 -0.024096 0.407 -0.10739 -0.19063 -0.97577
0.0052565 -0.023343 0.407 -0.13275 -0.19004 -0.97276
0.0052565 -0.02259 0.407 -0.15265 -0.18949 -0.96994
0.0052565 -0.021837 0.407 -0.15997 -0.18824 -0.96901
0.0052565 -0.021084 0.407 -0.19112 -0.18106 -0.96472
0.0052565 -0.020331 0.407 -0.20357 -0.17446 -0.96339
0.0052565 -0.019578 0.407 -0.20872 -0.17222 -0.96269
0.0052694 -0.018871 0.408 -0.20641 -0.16678 -0.96415
0.0052694 -0.018117 0.408 -0.19754 -0.15886 -0.96734
0.0052694 -0.017362 0.408 -0.19177 -0.14662 -0.97043
0.0052694 -0.016607 0.408 -0.21036 -0.13879 -0.96772
0.0052694 -0.015852 0.408 -0.21963 -0.13332 -0.96643
0.0052694 -0.015097 0.408 -0.2247 -0.13212 -0.96543
0.0052694 -0.014342 0.408 -0.23483 -0.12869 -0.96348
0.0052823 -0.013621 0.409 -0.24169 -0.11367 -0.96367
0.0052823 -0.012864 0.409 -0.26824 -0.11285 -0.95672
0.0052823 -0.012107 0.409 -0.29207 -0.11817 -0.94907
0.0052823 -0.011351 0.409 -0.32064 -0.10487 -0.94138
0.0052952 -0.01062 0.41 -0.33921 -0.10189 -0.93518
0.0052952 -0.0098612 0.41 -0.3618 -0.092978 -0.92761
0.0052952 -0.0091027 0.41 -0.38021 -0.088271 -0.92068
0.0053081 -0.0083645 0.411 -0.39861 -0.096154 -0.91207
0.0053081 -0.0076041 0.411 -0.42196 -0.086317 -0.90249
0.0053081 -0.0068437 0.411 -0.42857 -0.081174 -0.89985
0.005321 -0.0060981 0.412 -0.42766 -0.082953 -0.90012
0.005321 -0.0053358 0.412 -0.43797 -0.082499 -0.89519
0.005321 -0.0045735 0.412 -0.43858 -0.087279 -0.89444
0.0053339 -0.0038205 0.413 -0.44513 -0.076235 -0.89221
0.0053339 -0.0030564 0.413 -0.44946 -0.084641 -0.88928
0.0053339 -0.0022923 0.413 -0.45959 -0.07846 -0.88466
0.0053469 -0.0015319 0.414 -0.46572 -0.071378 -0.88205
0.0053469 -0.00076596 0.414 -0.49214 -0.065562 -0.86804
0.0053598 0 0.415 -0.49162 -0.052394 -0.86923
0.0053598 0.00076781 0.415 -0.51636 -0.059769 -0.85428
0.0053727 0.0015393 0.416 -0.53512 -0.064218 -0.84233
0.0053727 0.002309 0.416 -0.54752 -0.055586 -0.83495
0.0053856 0.003086 0.417 -0.56661 -0.062489 -0.82162
0.0053856 0.0038575 0.417 -0.57801 -0.056682 -0.81406
0.0053985 0.0046401 0.418 -0.59213 -0.049852 -0.8043
0.0053985 0.0054135 0.418 -0.58894 -0.043121 -0.80702
0.0054114 0.0062017 0.419 -0.59172 -0.027486 -0.80567
0.0054244 0.0069935 0.42 -0.5785 -0.0052051 -0.81567
0.0054244 0.0077706 0.42 -0.57298 0.031357 -0.81897
0.0054373 0.008568 0.421 -0.52792 0.082512 -0.84528
0.0054373 0.0093469 0.421 -0.4682 0.16576 -0.86794
0.0054502 0.01015 0.422 -0.39993 0.26216 -0.87825
0.0054631 0.010957 0.423 -0.38108 0.28756 -0.87868
0.0054631 0.011739 0.423 -0.3183 0.36694 -0.87409
0.0054631 0.012522 0.423 -0.24403 0.4389 -0.86476
0.0054631 0.013304 0.423 -0.16403 0.50639 -0.84656
0.0054631 0.014087 0.423 -0.090971 0.57603 -0.81235
0.0054631 0.01487 0.423 -0.038914 0.63344 -0.77281
0.0054502 0.015615 0.422 0.13843 0.68688 -0.71346
0.0054502 0.016396 0.422 0.13107 0.71688 -0.68477
0.0054373 0.017136 0.421 0.20623 0.65935 -0.723
0.0054373 0.019473 0.421 0.025251 0.67585 -0.73661
0.0054373 0.020252 0.421 -0.045988 0.655 -0.75423
0.0054373 0.021031 0.421 -0.13409 0.61646 -0.77589
0.0054373 0.023367 0.421 -0.42962 0.36005 -0.82812
0.0054631 0.024261 0.423 -0.40983 0.64235 -0.64763
0.0054889 0.027521 0.425 -0.48816 0.60588 -0.62818
0.0070258 -0.15676 0.476 0.44856 0.36381 -0.81635
0.0070111 -0.15555 0.475 0.34461 0.27684 -0.897
0.0070111 -0.15467 0.475 0.39389 0.29624 -0.87011
0.0069963 -0.15347 0.474 0.30541 0.1978 -0.93145
0.0069963 -0.15259 0.474 0.33741 0.22159 -0.91491
0.0069815 -0.1514 0.473 0.289 0.13265 -0.94809
0.0069815 -0.15052 0.473 0.31467 0.15317 -0.93676
0.0069815 -0.14964 0.473 0.29564 0.15742 -0.94224
0.0069815 -0.14877 0.473 0.23106 0.15446 -0.9606
0.0069668 -0.14758 0.472 0.39299 0.11922 -0.91178
0.0069668 -0.14671 0.472 0.33493 0.11784 -0.93484
0.006214 -0.12774 0.421 -0.27417 0.1753 -0.94557
0.006214 -0.12696 0.421 -0.3739 0.1402 -0.91681
0.006214 -0.12618 0.421 -0.44394 0.091921 -0.89133
0.0062288 -0.1257 0.422 -0.36074 0.18759 -0.91361
0.0062288 -0.12492 0.422 -0.40712 0.14789 -0.90132
0.0062288 -0.12414 0.422 -0.44454 0.13437 -0.88562
0.0062435 -0.12365 0.423 -0.43199 0.20561 -0.87813
0.0062435 -0.12287 0.423 -0.47509 0.19326 -0.85845
0.0062583 -0.12238 0.424 -0.43075 0.25537 -0.86559
0.0062583 -0.12159 0.424 -0.47755 0.25181 -0.84175
0.0062731 -0.12109 0.425 -0.45639 0.28611 -0.84253
0.0062731 -0.12031 0.425 -0.46703 0.30073 -0.83153
0.0062878 -0.1198 0.426 -0.45597 0.32343 -0.82915
0.0062878 -0.11901 0.426 -0.43307 0.35454 -0.82871
0.0063026 -0.1185 0.427 -0.39666 0.38598 -0.83287
0.0063026 -0.11771 0.427 -0.34582 0.41613 -0.84098
0.0063026 -0.11692 0.427 -0.28511 0.44425 -0.84933
0.0063026 -0.11613 0.427 -0.21526 0.46527 -0.8586
0.0063026 -0.11534 0.427 -0.15783 0.48188 -0.86191
0.0063026 -0.11455 0.427 -0.091848 0.49341 -0.86493
0.0063026 -0.11376 0.427 -0.045095 0.50463 -0.86216
0.0063026 -0.11297 0.427 0.0086604 0.51505 -0.85712
0.0063026 -0.11218 0.427 0.055939 0.5265 -0.84833
0.0063026 -0.11139 0.427 0.094015 0.53743 -0.83805
0.0063026 -0.1106 0.427 0.11591 0.53975 -0.83381
0.0063026 -0.10981 0.427 0.12623 0.54097 -0.83151
0.0061402 -0.056955 0.416 0.48106 -0.13464 -0.86629
0.0061402 -0.056185 0.416 0.56878 -0.17686 -0.80325
0.0061255 -0.055282 0.415 0.52882 -0.13785 -0.83747
0.0061255 -0.054514 0.415 0.56127 -0.17986 -0.80785
0.0061107 -0.053617 0.414 0.53715 -0.16121 -0.82794
0.0061107 -0.052851 0.414 0.54215 -0.17858 -0.82109
0.0060959 -0.051959 0.413 0.52684 -0.17521 -0.83171
0.0060959 -0.051195 0.413 0.51234 -0.18136 -0.83941
0.0060812 -0.050309 0.412 0.49644 -0.1822 -0.84873
0.0060812 -0.049547 0.412 0.47358 -0.16961 -0.86427
0.0060812 -0.048784 0.412 0.45468 -0.17607 -0.87308
0.0060664 -0.047906 0.411 0.44132 -0.17413 -0.88029
0.0060664 -0.047145 0.411 0.42091 -0.17602 -0.88986
0.0060517 -0.046272 0.41 0.40643 -0.17677 -0.89642
0.0060517 -0.045513 0.41 0.38877 -0.18204 -0.90317
0.0060517 -0.044755 0.41 0.37071 -0.1749 -0.91213
0.0060369 -0.043889 0.409 0.34379 -0.17142 -0.92327
0.0060369 -0.043132 0.409 0.32754 -0.17346 -0.92878
0.0060369 -0.042376 0.409 0.31543 -0.17815 -0.93208
0.0060369 -0.041619 0.409 0.30492 -0.18469 -0.9343
0.0060221 -0.040762 0.408 0.28742 -0.19211 -0.93834
0.0060221 -0.040007 0.408 0.26953 -0.18918 -0.94423
0.0060221 -0.039253 0.408 0.24921 -0.18925 -0.94978
0.0060221 -0.038498 0.408 0.22729 -0.19532 -0.95404
0.0060221 -0.037743 0.408 0.20026 -0.1955 -0.96004
0.0060074 -0.036897 0.407 0.18134 -0.1967 -0.96355
0.0060074 -0.036144 0.407 0.16061 -0.20047 -0.96644
0.0060074 -0.035391 0.407 0.12919 -0.20549 -0.9701
0.0060074 -0.034638 0.407 0.11243 -0.20182 -0.97295
0.0060074 -0.033885 0.407 0.10633 -0.19065 -0.97588
0.0060074 -0.033132 0.407 0.094685 -0.18777 -0.97764
0.0060074 -0.032379 0.407 0.096836 -0.1867 -0.97763
0.0060074 -0.031626 0.407 0.089385 -0.18579 -0.97851
0.0060074 -0.030873 0.407 0.073253 -0.19122 -0.97881
0.0060074 -0.03012 0.407 0.073283 -0.18915 -0.97921
0.0060074 -0.029367 0.407 0.06044 -0.1862 -0.98065
0.0060074 -0.028614 0.407 0.048589 -0.18736 -0.98109
0.0060074 -0.027861 0.407 0.028102 -0.18647 -0.98206
0.0060074 -0.026355 0.407 -0.028026 -0.19994 -0.97941
0.0060074 -0.025602 0.407 -0.0473 -0.20904 -0.97676
0.0060074 -0.024849 0.407 -0.084771 -0.20545 -0.97499
0.0060074 -0.024096 0.407 -0.10811 -0.20601 -0.97256
0.0060074 -0.023343 0.407 -0.12706 -0.20656 -0.97015
0.0060074 -0.02259 0.407 -0.15214 -0.20583 -0.96669
0.0060074 -0.021837 0.407 -0.1583 -0.20765 -0.96531
0.0060074 -0.021084 0.407 -0.18205 -0.20477 -0.96173
0.0060074 -0.020331 0.407 -0.19356 -0.19725 -0.96106
0.0060221 -0.019626 0.408 -0.19832 -0.19356 -0.96084
0.0060221 -0.018871 0.408 -0.19754 -0.18751 -0.96219
0.0060221 -0.018117 0.408 -0.19075 -0.1786 -0.96525
0.0060221 -0.017362 0.408 -0.18783 -0.17461 -0.96656
0.0060221 -0.016607 0.408 -0.20431 -0.16891 -0.96422
0.0060221 -0.015852 0.408 -0.21151 -0.16557 -0.96325
0.0060221 -0.015097 0.408 -0.21453 -0.16546 -0.9626
0.0060369 -0.014377 0.409 -0.22845 -0.15433 -0.96125
0.0060369 -0.013621 0.409 -0.23602 -0.1366 -0.9621
0.0060369 -0.012864 0.409 -0.26359 -0.1356 -0.95506
0.0060369 -0.012107 0.409 -0.28853 -0.13662 -0.94767
0.0060369 -0.011351 0.409 -0.31799 -0.12623 -0.93965
0.0060517 -0.01062 0.41 -0.33745 -0.12403 -0.93314
0.0060517 -0.0098612 0.41 -0.35647 -0.11715 -0.92693
0.0060517 -0.0091027 0.41 -0.37688 -0.10824 -0.91991
0.0060664 -0.0083645 0.411 -0.39707 -0.11285 -0.91082
0.0060664 -0.0076041 0.411 -0.41818 -0.10009 -0.90283
0.0060664 -0.0068437 0.411 -0.42718 -0.096728 -0.89898
0.0060812 -0.0060981 0.412 -0.42849 -0.1022 -0.89775
0.0060812 -0.0053358 0.412 -0.43246 -0.10199 -0.89587
0.0060812 -0.0045735 0.412 -0.43549 -0.10469 -0.89409
0.0060959 -0.0038205 0.413 -0.44051 -0.095582 -0.89265
0.0060959 -0.0030564 0.413 -0.44796 -0.10183 -0.88823
0.0060959 -0.0022923 0.413 -0.45739 -0.095624 -0.88411
0.0061107 -0.0015319 0.414 -0.46272 -0.091337 -0.88179
0.0061107 -0.00076596 0.414 -0.48871 -0.081539 -0.86863
0.0061255 0 0.415 -0.49173 -0.071921 -0.86777
0.0061255 0.00076781 0.415 -0.51582 -0.075321 -0.85338
0.0061402 0.0015393 0.416 -0.53723 -0.076663 -0.83995
0.0061402 0.002309 0.416 -0.552 -0.070481 -0.83086
0.006155 0.003086 0.417 -0.5665 -0.079951 -0.82018
0.006155 0.0038575 0.417 -0.57746 -0.071438 -0.81329
0.0061697 0.0046401 0.418 -0.58822 -0.065465 -0.80604
0.0061845 0.0054265 0.419 -0.58427 -0.055244 -0.80968
0.0061845 0.0062017 0.419 -0.5797 -0.032116 -0.8142
0.0061993 0.0069935 0.42 -0.56194 0.0052784 -0.82716
0.0061993 0.0077706 0.42 -0.54324 0.055242 -0.83776
0.006214 0.008568 0.421 -0.47959 0.12532 -0.8685
0.0062288 0.0093691 0.422 -0.40207 0.21836 -0.88919
0.0062288 0.01015 0.422 -0.33832 0.30296 -0.89093
0.0062435 0.010957 0.423 -0.3612 0.27321 -0.89156
0.0062435 0.011739 0.423 -0.28802 0.34923 -0.89167
0.0062288 0.012492 0.422 -0.086823 0.54094 -0.83657
0.0062288 0.013273 0.422 -0.0089128 0.59868 -0.80094
0.0062288 0.014054 0.422 0.053585 0.65054 -0.75758
0.006214 0.014799 0.421 0.20401 0.66014 -0.72291
0.006214 0.015578 0.421 0.18871 0.69086 -0.69792
0.006214 0.016357 0.421 0.15787 0.71663 -0.67935
0.0061993 0.019426 0.42 0.00088192 0.6214 -0.7835
0.0061993 0.020204 0.42 -0.066238 0.5941 -0.80166
0.006214 0.023367 0.421 -0.41413 0.48274 -0.77166
0.0062583 0.027456 0.424 -0.51893 0.52582 -0.67397
0.0078875 -0.15643 0.475 0.31877 0.29853 -0.89959
0.0078875 -0.15555 0.475 0.37104 0.30624 -0.87667
0.0078708 -0.15435 0.474 0.26422 0.20845 -0.94167
0.0078708 -0.15347 0.474 0.31114 0.22852 -0.92248
0.0078708 -0.15259 0.474 0.32395 0.23361 -0.91678
0.0078542 -0.1514 0.473 0.28501 0.15819 -0.94538
0.0078542 -0.15052 0.473 0.28809 0.15768 -0.94453
0.0078542 -0.14964 0.473 0.25986 0.15607 -0.95295
0.0078376 -0.14846 0.472 0.37219 0.10774 -0.92188
0.0069908 -0.12774 0.421 -0.24744 0.22183 -0.94317
0.0069908 -0.12696 0.421 -0.34501 0.18393 -0.9204
0.0069908 -0.12618 0.421 -0.41151 0.13831 -0.90085
0.0070074 -0.12414 0.422 -0.41421 0.17783 -0.89264
0.007024 -0.12365 0.423 -0.4026 0.23562 -0.88453
0.007024 -0.12287 0.423 -0.44225 0.2157 -0.87057
0.0070406 -0.12238 0.424 -0.40851 0.26254 -0.87418
0.0070406 -0.12159 0.424 -0.45033 0.26453 -0.85278
0.0070406 -0.12081 0.424 -0.44591 0.28449 -0.84867
0.0070572 -0.12031 0.425 -0.44034 0.31075 -0.84234
0.0070572 -0.11952 0.425 -0.42977 0.33794 -0.83731
0.0070572 -0.11873 0.425 -0.40596 0.36612 -0.83735
0.0070738 -0.11822 0.426 -0.37117 0.39046 -0.84248
0.0070738 -0.11744 0.426 -0.32287 0.41982 -0.84824
0.0070904 -0.11692 0.427 -0.26759 0.44236 -0.85599
0.0070904 -0.11613 0.427 -0.20168 0.45752 -0.86603
0.0070904 -0.11534 0.427 -0.15486 0.4694 -0.8693
0.0070904 -0.11455 0.427 -0.094964 0.47789 -0.87327
0.0070904 -0.11376 0.427 -0.061292 0.47894 -0.8757
0.0070904 -0.11297 0.427 -0.019447 0.48166 -0.87614
0.0070904 -0.11218 0.427 0.0032823 0.48212 -0.8761
0.0070904 -0.11139 0.427 0.010982 0.48344 -0.87531
0.0070904 -0.1106 0.427 0.010494 0.48531 -0.87428
0.0070904 -0.10981 0.427 0.0091397 0.48796 -0.87282
0.0069244 -0.057092 0.417 0.60646 -0.22631 -0.76223
0.0069077 -0.056185 0.416 0.55249 -0.16969 -0.81607
0.0069077 -0.055415 0.416 0.5999 -0.23467 -0.76489
0.0068911 -0.054514 0.415 0.55469 -0.18314 -0.81165
0.0068745 -0.053617 0.414 0.52118 -0.14852 -0.84042
0.0068745 -0.052851 0.414 0.53503 -0.19299 -0.8225
0.0068579 -0.051959 0.413 0.5156 -0.16992 -0.83981
0.0068579 -0.051195 0.413 0.50476 -0.19504 -0.84094
0.0068413 -0.050309 0.412 0.48472 -0.18992 -0.8538
0.0068413 -0.049547 0.412 0.46802 -0.18834 -0.86341
0.0068413 -0.048784 0.412 0.45348 -0.1993 -0.8687
0.0068247 -0.047906 0.411 0.43678 -0.19811 -0.87748
0.0068247 -0.047145 0.411 0.42439 -0.20057 -0.88299
0.0068081 -0.046272 0.41 0.40871 -0.19894 -0.89072
0.0068081 -0.045513 0.41 0.38982 -0.20073 -0.89875
0.0068081 -0.044755 0.41 0.36978 -0.1997 -0.90741
0.0068081 -0.043996 0.41 0.34511 -0.19409 -0.91827
0.0067915 -0.043132 0.409 0.32684 -0.19879 -0.92394
0.0067915 -0.042376 0.409 0.31207 -0.20274 -0.92817
0.0067915 -0.041619 0.409 0.29896 -0.20655 -0.93164
0.0067915 -0.040862 0.409 0.28349 -0.21535 -0.93448
0.0067749 -0.040007 0.408 0.26418 -0.21611 -0.93995
0.0067749 -0.039253 0.408 0.24705 -0.21221 -0.94548
0.0067749 -0.038498 0.408 0.2284 -0.21321 -0.94994
0.0067749 -0.037743 0.408 0.19958 -0.2116 -0.95676
0.0067749 -0.036988 0.408 0.17838 -0.20946 -0.96141
0.0067749 -0.036233 0.408 0.15587 -0.20725 -0.96579
0.0067583 -0.035391 0.407 0.12904 -0.21058 -0.96902
0.0067583 -0.034638 0.407 0.11123 -0.20798 -0.97179
0.0067583 -0.033885 0.407 0.10405 -0.1979 -0.97468
0.0067583 -0.033132 0.407 0.091391 -0.193 -0.97693
0.0067583 -0.032379 0.407 0.092514 -0.18988 -0.97744
0.0067583 -0.031626 0.407 0.084023 -0.18692 -0.97878
0.0067583 -0.030873 0.407 0.073223 -0.19329 -0.97841
0.0067583 -0.03012 0.407 0.073146 -0.19845 -0.97738
0.0067583 -0.029367 0.407 0.060251 -0.20171 -0.97759
0.0067583 -0.028614 0.407 0.048405 -0.20596 -0.97736
0.0067583 -0.027861 0.407 0.027983 -0.20714 -0.97791
0.0067583 -0.026355 0.407 -0.0279 -0.22044 -0.975
0.0067583 -0.025602 0.407 -0.047124 -0.22536 -0.97314
0.0067583 -0.024849 0.407 -0.079151 -0.22186 -0.97186
0.0067583 -0.024096 0.407 -0.098282 -0.21946 -0.97066
0.0067583 -0.023343 0.407 -0.11419 -0.21604 -0.96968
0.0067583 -0.02259 0.407 -0.14248 -0.21525 -0.96611
0.0067583 -0.021837 0.407 -0.15187 -0.21393 -0.96497
0.0067583 -0.021084 0.407 -0.17366 -0.21014 -0.96213
0.0067749 -0.020381 0.408 -0.18376 -0.20221 -0.96195
0.0067749 -0.019626 0.408 -0.18898 -0.19898 -0.96161
0.0067749 -0.018871 0.408 -0.18921 -0.1929 -0.9628
0.0067749 -0.018117 0.408 -0.18936 -0.18884 -0.96358
0.0067749 -0.017362 0.408 -0.19348 -0.18767 -0.96299
0.0067749 -0.016607 0.408 -0.20576 -0.18415 -0.96112
0.0067749 -0.015852 0.408 -0.20883 -0.18301 -0.96068
0.0067915 -0.015134 0.409 -0.20731 -0.18365 -0.96088
0.0067915 -0.014377 0.409 -0.224 -0.16675 -0.96022
0.0067915 -0.013621 0.409 -0.23446 -0.15308 -0.96
0.0067915 -0.012864 0.409 -0.26004 -0.15205 -0.95355
0.0067915 -0.012107 0.409 -0.28326 -0.149 -0.9474
0.0068081 -0.011378 0.41 -0.31018 -0.14135 -0.94011
0.0068081 -0.01062 0.41 -0.32857 -0.14043 -0.93398
0.0068081 -0.0098612 0.41 -0.35589 -0.13007 -0.92543
0.0068081 -0.0091027 0.41 -0.37967 -0.12288 -0.91693
0.0068247 -0.0083645 0.411 -0.39901 -0.12441 -0.90847
0.0068247 -0.0076041 0.411 -0.41914 -0.11453 -0.90067
0.0068247 -0.0068437 0.411 -0.42723 -0.11309 -0.89704
0.0068413 -0.0060981 0.412 -0.4275 -0.12236 -0.89569
0.0068413 -0.0053358 0.412 -0.43068 -0.12216 -0.8942
0.0068579 -0.0045846 0.413 -0.43216 -0.12272 -0.89341
0.0068579 -0.0038205 0.413 -0.44112 -0.11551 -0.88998
0.0068579 -0.0030564 0.413 -0.44706 -0.11984 -0.88644
0.0068745 -0.0022979 0.414 -0.45439 -0.10875 -0.88414
0.0068745 -0.0015319 0.414 -0.46347 -0.10724 -0.8796
0.0068911 -0.00076781 0.415 -0.48439 -0.094551 -0.86973
0.0068911 0 0.415 -0.48822 -0.088777 -0.86819
0.0068911 0.00076781 0.415 -0.51281 -0.082779 -0.8545
0.0069077 0.0015393 0.416 -0.53446 -0.081302 -0.84128
0.0069077 0.002309 0.416 -0.54921 -0.077731 -0.83206
0.0069244 0.003086 0.417 -0.5641 -0.08011 -0.82181
0.0069244 0.0038575 0.417 -0.57226 -0.070021 -0.81708
0.006941 0.0046401 0.418 -0.58154 -0.061548 -0.81118
