-0.0050923 -0.083404 0.46 0.70568 -0.0040666 -0.70852
-0.0050812 -0.082374 0.459 0.72675 -0.00044407 -0.68691
-0.0050812 -0.081525 0.459 0.66456 0.0011054 -0.74723
-0.0050701 -0.0805 0.458 0.66701 0.0077016 -0.74501
-0.0045941 -0.054514 0.415 0.52258 -0.14232 -0.84063
-0.0045941 -0.053747 0.415 0.56131 -0.19951 -0.8032
-0.004583 -0.052851 0.414 0.50584 -0.1827 -0.84306
-0.004583 -0.052085 0.414 0.52429 -0.21543 -0.82384
-0.004572 -0.051195 0.413 0.50561 -0.21083 -0.8366
-0.004572 -0.050431 0.413 0.49629 -0.20872 -0.84269
-0.0045609 -0.049547 0.412 0.47434 -0.20776 -0.85547
-0.0045609 -0.048784 0.412 0.46079 -0.19881 -0.86495
-0.0045609 -0.048022 0.412 0.43819 -0.19231 -0.87807
-0.0045498 -0.047145 0.411 0.43108 -0.18616 -0.8829
-0.0045498 -0.046385 0.411 0.41391 -0.1841 -0.89151
-0.0045498 -0.045624 0.411 0.40277 -0.17102 -0.89918
-0.0045387 -0.044755 0.41 0.38135 -0.1549 -0.91136
-0.0045387 -0.043996 0.41 0.3661 -0.15204 -0.91807
-0.0045387 -0.043238 0.41 0.36053 -0.14261 -0.92178
-0.0045387 -0.042479 0.41 0.35197 -0.13818 -0.92576
-0.0045277 -0.041619 0.409 0.35058 -0.1455 -0.92516
-0.0045277 -0.040862 0.409 0.35527 -0.1403 -0.92418
-0.0045277 -0.040105 0.409 0.35339 -0.14238 -0.92458
-0.0045166 -0.039253 0.408 0.33332 -0.14683 -0.93131
-0.0045166 -0.038498 0.408 0.31542 -0.13774 -0.9389
-0.0045166 -0.037743 0.408 0.28662 -0.12888 -0.94934
-0.0045055 -0.036897 0.407 0.25941 -0.12094 -0.95816
-0.0045055 -0.036144 0.407 0.21742 -0.12223 -0.96839
-0.0045055 -0.035391 0.407 0.18574 -0.11777 -0.97552
-0.0045055 -0.034638 0.407 0.15652 -0.11626 -0.98081
-0.0045055 -0.033885 0.407 0.11511 -0.11479 -0.9867
-0.0045055 -0.033132 0.407 0.1055 -0.11063 -0.98825
-0.0045055 -0.032379 0.407 0.10227 -0.11067 -0.98858
-0.0045055 -0.031626 0.407 0.095795 -0.11181 -0.9891
-0.0045055 -0.030873 0.407 0.080644 -0.11411 -0.99019
-0.0045055 -0.03012 0.407 0.064332 -0.11961 -0.99073
-0.0045055 -0.029367 0.407 0.05339 -0.13039 -0.99002
-0.0045055 -0.028614 0.407 0.036996 -0.1454 -0.98868
-0.0045055 -0.027861 0.407 0.017399 -0.15291 -0.98809
-0.0045055 -0.027108 0.407 0.0021742 -0.15611 -0.98774
-0.0045055 -0.026355 0.407 -0.0076094 -0.1561 -0.98771
-0.0045055 -0.025602 0.407 -0.029329 -0.15815 -0.98698
-0.0045055 -0.024849 0.407 -0.031531 -0.1518 -0.98791
-0.0045055 -0.024096 0.407 -0.042454 -0.14112 -0.98908
-0.0045055 -0.023343 0.407 -0.049077 -0.12507 -0.99093
-0.0045055 -0.02259 0.407 -0.062192 -0.11533 -0.99138
-0.0045055 -0.021837 0.407 -0.06987 -0.1056 -0.99195
-0.0045055 -0.021084 0.407 -0.071004 -0.09913 -0.99254
-0.0045055 -0.020331 0.407 -0.076451 -0.096933 -0.99235
-0.0045055 -0.019578 0.407 -0.086193 -0.099011 -0.99135
-0.0045055 -0.018825 0.407 -0.093735 -0.10217 -0.99034
-0.0045055 -0.018072 0.407 -0.11967 -0.092219 -0.98852
-0.0045055 -0.017319 0.407 -0.14852 -0.087569 -0.98502
-0.0045055 -0.016566 0.407 -0.16752 -0.087299 -0.982
-0.0045055 -0.015813 0.407 -0.18202 -0.095593 -0.97864
-0.0045055 -0.01506 0.407 -0.19725 -0.11118 -0.97403
-0.0045166 -0.014342 0.408 -0.22223 -0.1124 -0.96849
-0.0045166 -0.013587 0.408 -0.24814 -0.11583 -0.96177
-0.0045166 -0.012833 0.408 -0.26184 -0.1185 -0.95781
-0.0045166 -0.012078 0.408 -0.26373 -0.1205 -0.95704
-0.0045166 -0.011323 0.408 -0.26871 -0.11723 -0.95606
-0.0045277 -0.010594 0.409 -0.27327 -0.1065 -0.95602
-0.0045277 -0.0098372 0.409 -0.29306 -0.11711 -0.94889
-0.0045277 -0.0090805 0.409 -0.33145 -0.11052 -0.93698
-0.0045277 -0.0083238 0.409 -0.34969 -0.10573 -0.93088
-0.0045387 -0.0075856 0.41 -0.37004 -0.10658 -0.92288
-0.0045387 -0.006827 0.41 -0.3951 -0.099497 -0.91323
-0.0045387 -0.0060685 0.41 -0.41713 -0.10621 -0.90262
-0.0045498 -0.0053228 0.411 -0.45649 -0.10372 -0.88366
-0.0045498 -0.0045624 0.411 -0.47731 -0.10525 -0.87241
-0.0045609 -0.0038113 0.412 -0.49681 -0.099087 -0.86218
-0.0045609 -0.003049 0.412 -0.50655 -0.099359 -0.85646
-0.0045609 -0.0022868 0.412 -0.50691 -0.10574 -0.85549
-0.004572 -0.0015282 0.413 -0.50139 -0.1013 -0.85927
-0.004572 -0.00076411 0.413 -0.49508 -0.11458 -0.86126
-0.004583 0 0.414 -0.49044 -0.11831 -0.86341
-0.004583 0.00076596 0.414 -0.48672 -0.12134 -0.86509
-0.0045941 0.0015356 0.415 -0.49434 -0.12046 -0.86088
-0.0045941 0.0023034 0.415 -0.48375 -0.12037 -0.86689
-0.0045941 0.0030712 0.415 -0.4938 -0.11778 -0.86156
-0.0046052 0.0038483 0.416 -0.4921 -0.11944 -0.8623
-0.0046052 0.0046179 0.416 -0.49671 -0.13442 -0.85744
-0.0046162 0.0054006 0.417 -0.48577 -0.14856 -0.86137
-0.0046162 0.0061721 0.417 -0.44092 -0.18172 -0.87896
-0.0046273 0.0069602 0.418 -0.36514 -0.22311 -0.90382
-0.0046273 0.0077336 0.418 -0.23113 -0.2734 -0.93372
-0.0046273 0.0085069 0.418 -0.062634 -0.33066 -0.94167
-0.0046384 0.0093025 0.419 0.11398 -0.36626 -0.9235
-0.0046273 0.010054 0.418 0.28986 -0.37774 -0.87937
-0.0046273 0.010827 0.418 0.42187 -0.38326 -0.82167
-0.0046162 0.011573 0.417 0.50817 -0.38807 -0.76887
-0.0046052 0.012315 0.416 0.5607 -0.38663 -0.73221
-0.0045941 0.013053 0.415 0.57474 -0.36731 -0.73127
-0.0045941 0.013821 0.415 0.55782 -0.39376 -0.73061
-0.004583 0.014553 0.414 0.50758 -0.3624 -0.78169
-0.004583 0.015319 0.414 0.45628 -0.39542 -0.79715
-0.004572 0.016046 0.413 0.39507 -0.39129 -0.83115
-0.004572 0.01681 0.413 0.35171 -0.41449 -0.83934
-0.004572 0.017574 0.413 0.27382 -0.43099 -0.85981
-0.004572 0.018339 0.413 0.18672 -0.4289 -0.88384
-0.0045609 0.019056 0.412 0.080448 -0.41374 -0.90684
-0.0045609 0.019819 0.412 -0.013633 -0.40577 -0.91387
-0.0045609 0.020581 0.412 -0.06392 -0.41216 -0.90887
-0.004572 0.021395 0.413 -0.14018 -0.40622 -0.90296
-0.004572 0.022159 0.413 -0.21007 -0.39938 -0.89239
-0.004572 0.022923 0.413 -0.26119 -0.39629 -0.88019
-0.004572 0.023687 0.413 -0.31583 -0.38603 -0.86674
-0.004572 0.024451 0.413 -0.35592 -0.38803 -0.85015
-0.004583 0.025277 0.414 -0.41692 -0.3774 -0.82689
-0.0045941 0.026105 0.415 -0.4934 -0.34974 -0.79639
-0.0045941 0.026873 0.415 -0.55074 -0.33436 -0.76478
-0.0046052 0.027708 0.416 -0.59043 -0.31986 -0.741
-0.0046052 0.028477 0.416 -0.61011 -0.30507 -0.73123
-0.0046162 0.029317 0.417 -0.62702 -0.29778 -0.71984
-0.0046273 0.030161 0.418 -0.66457 -0.28618 -0.69026
-0.0046384 0.031008 0.419 -0.71556 -0.26788 -0.64515
-0.0046384 0.031784 0.419 -0.63955 -0.28591 -0.7136
-0.0042804 -0.099582 0.464 -0.31985 -0.30955 -0.89547
-0.0042804 -0.098723 0.464 -0.36236 -0.29318 -0.88473
-0.0042804 -0.097865 0.464 -0.37001 -0.28481 -0.88429
-0.0042897 -0.097216 0.465 -0.19697 -0.29231 -0.93582
-0.0042897 -0.096355 0.465 -0.19611 -0.28744 -0.93751
-0.0042897 -0.095495 0.465 -0.16813 -0.28479 -0.94373
-0.0042897 -0.094635 0.465 -0.12134 -0.27318 -0.95428
-0.0042897 -0.093774 0.465 -0.062352 -0.25057 -0.96609
-0.0042989 -0.093114 0.466 0.020529 -0.23915 -0.97077
-0.0042989 -0.092252 0.466 0.12193 -0.21812 -0.96828
-0.0042897 -0.091193 0.465 0.23501 -0.19133 -0.95298
-0.0042897 -0.090333 0.465 0.35087 -0.16299 -0.92213
-0.0042897 -0.089473 0.465 0.46093 -0.13975 -0.87636
-0.0042804 -0.088422 0.464 0.5545 -0.11583 -0.82408
-0.0042804 -0.087563 0.464 0.5812 -0.10423 -0.80706
-0.0042712 -0.086518 0.463 0.65084 -0.071929 -0.7558
-0.004262 -0.085476 0.462 0.6835 -0.038129 -0.72895
-0.0042528 -0.084438 0.461 0.69726 -0.017563 -0.7166
-0.0042435 -0.083404 0.46 0.70849 -0.0044514 -0.70571
-0.0042343 -0.082374 0.459 0.72762 0.0065148 -0.68595
-0.0042343 -0.081525 0.459 0.66598 0.0035668 -0.74596
-0.0042251 -0.0805 0.458 0.66956 0.0085206 -0.7427
-0.0038376 -0.054646 0.416 0.59415 -0.23786 -0.76838
-0.0038284 -0.053747 0.415 0.5322 -0.21456 -0.81898
-0.0038192 -0.052851 0.414 0.46897 -0.20699 -0.85862
-0.0038192 -0.052085 0.414 0.50807 -0.24217 -0.82657
-0.00381 -0.051195 0.413 0.49326 -0.23944 -0.83628
-0.00381 -0.050431 0.413 0.49479 -0.2435 -0.8342
-0.00381 -0.049667 0.413 0.47498 -0.24415 -0.84545
-0.0038007 -0.048784 0.412 0.46671 -0.23825 -0.85172
-0.0038007 -0.048022 0.412 0.44874 -0.2303 -0.86348
-0.0037915 -0.047145 0.411 0.43702 -0.22169 -0.8717
-0.0037915 -0.046385 0.411 0.42313 -0.21433 -0.88036
-0.0037915 -0.045624 0.411 0.4093 -0.20118 -0.88994
-0.0037823 -0.044755 0.41 0.38842 -0.18679 -0.90235
-0.0037823 -0.043996 0.41 0.36859 -0.18081 -0.91184
-0.0037823 -0.043238 0.41 0.36238 -0.1707 -0.91627
-0.0037823 -0.042479 0.41 0.35235 -0.16364 -0.92145
-0.0037731 -0.041619 0.409 0.34925 -0.16911 -0.92165
-0.0037731 -0.040862 0.409 0.34753 -0.16825 -0.92245
-0.0037731 -0.040105 0.409 0.34925 -0.16911 -0.92165
-0.0037638 -0.039253 0.408 0.33282 -0.17255 -0.92707
-0.0037638 -0.038498 0.408 0.31318 -0.16486 -0.93528
-0.0037638 -0.037743 0.408 0.28715 -0.16127 -0.94421
-0.0037546 -0.036897 0.407 0.26302 -0.15571 -0.95214
-0.0037546 -0.036144 0.407 0.2195 -0.15333 -0.96349
-0.0037546 -0.035391 0.407 0.18618 -0.14192 -0.97221
-0.0037546 -0.034638 0.407 0.16031 -0.13627 -0.97761
-0.0037546 -0.033885 0.407 0.12763 -0.13375 -0.98276
-0.0037546 -0.033132 0.407 0.11387 -0.12654 -0.9854
-0.0037546 -0.032379 0.407 0.10541 -0.11812 -0.98739
-0.0037546 -0.031626 0.407 0.098968 -0.11713 -0.98817
-0.0037546 -0.030873 0.407 0.08388 -0.11515 -0.9898
-0.0037546 -0.03012 0.407 0.067623 -0.11529 -0.99103
-0.0037546 -0.029367 0.407 0.056718 -0.12074 -0.99106
-0.0037546 -0.028614 0.407 0.040351 -0.12833 -0.99091
-0.0037546 -0.027861 0.407 0.014179 -0.1327 -0.99105
-0.0037546 -0.027108 0.407 -0.0076254 -0.14231 -0.98979
-0.0037546 -0.026355 0.407 -0.022853 -0.14759 -0.98878
-0.0037546 -0.025602 0.407 -0.042407 -0.14856 -0.98799
-0.0037546 -0.024849 0.407 -0.046777 -0.14428 -0.98843
-0.0037546 -0.024096 0.407 -0.053303 -0.14211 -0.98841
-0.0037546 -0.023343 0.407 -0.055547 -0.13251 -0.98962
-0.0037546 -0.02259 0.407 -0.064254 -0.12924 -0.98953
-0.0037546 -0.021837 0.407 -0.067535 -0.12601 -0.98973
-0.0037546 -0.021084 0.407 -0.064298 -0.12389 -0.99021
-0.0037546 -0.020331 0.407 -0.065366 -0.12602 -0.98987
-0.0037546 -0.019578 0.407 -0.070727 -0.13238 -0.98867
-0.0037546 -0.018825 0.407 -0.080449 -0.13335 -0.9878
-0.0037546 -0.018072 0.407 -0.10957 -0.12766 -0.98575
-0.0037546 -0.017319 0.407 -0.14262 -0.12606 -0.98172
-0.0037546 -0.016566 0.407 -0.16678 -0.12769 -0.97769
-0.0037546 -0.015813 0.407 -0.18127 -0.13157 -0.97459
-0.0037638 -0.015097 0.408 -0.19602 -0.1413 -0.97037
-0.0037638 -0.014342 0.408 -0.22126 -0.14569 -0.96427
-0.0037638 -0.013587 0.408 -0.24708 -0.14784 -0.95765
-0.0037638 -0.012833 0.408 -0.26074 -0.14933 -0.95379
-0.0037638 -0.012078 0.408 -0.26265 -0.15027 -0.95312
-0.0037731 -0.011351 0.409 -0.2672 -0.1426 -0.95303
-0.0037731 -0.010594 0.409 -0.27227 -0.13628 -0.95252
-0.0037731 -0.0098372 0.409 -0.29212 -0.14152 -0.94585
-0.0037731 -0.0090805 0.409 -0.32607 -0.13088 -0.93624
-0.0037731 -0.0083238 0.409 -0.34524 -0.12695 -0.92989
-0.0037823 -0.0075856 0.41 -0.3667 -0.12357 -0.9221
-0.0037823 -0.006827 0.41 -0.39256 -0.11923 -0.91197
-0.0037823 -0.0060685 0.41 -0.41572 -0.11887 -0.90169
-0.0037915 -0.0053228 0.411 -0.45587 -0.11605 -0.88245
-0.0037915 -0.0045624 0.411 -0.47749 -0.11549 -0.87101
-0.0038007 -0.0038113 0.412 -0.49759 -0.11099 -0.86028
-0.0038007 -0.003049 0.412 -0.50782 -0.11387 -0.8539
-0.00381 -0.0022923 0.413 -0.51145 -0.11784 -0.85119
-0.00381 -0.0015282 0.413 -0.50682 -0.1155 -0.85428
-0.0038192 -0.00076596 0.414 -0.49854 -0.13399 -0.85645
-0.0038192 0 0.414 -0.49345 -0.13715 -0.85889
-0.0038192 0.00076596 0.414 -0.48826 -0.14124 -0.8612
-0.0038284 0.0015356 0.415 -0.49443 -0.14035 -0.85782
-0.0038284 0.0023034 0.415 -0.48239 -0.14143 -0.86446
-0.0038284 0.0030712 0.415 -0.49092 -0.14067 -0.85978
-0.0038376 0.0038483 0.416 -0.49093 -0.14752 -0.85862
-0.0038376 0.0046179 0.416 -0.4967 -0.16206 -0.85266
-0.0038469 0.0054006 0.417 -0.48935 -0.18094 -0.85311
-0.0038469 0.0061721 0.417 -0.45573 -0.21381 -0.86406
-0.0038561 0.0069602 0.418 -0.3916 -0.25247 -0.88482
-0.0038561 0.0077336 0.418 -0.28376 -0.30242 -0.90996
-0.0038561 0.0085069 0.418 -0.13457 -0.36417 -0.92156
-0.0038653 0.0093025 0.419 0.033933 -0.41327 -0.90998
-0.0038653 0.010078 0.419 0.20595 -0.44011 -0.874
-0.0038561 0.010827 0.418 0.36305 -0.44389 -0.81924
-0.0038469 0.011573 0.417 0.46572 -0.43775 -0.76908
-0.0038376 0.012315 0.416 0.53012 -0.43301 -0.72902
-0.0038376 0.013084 0.416 0.55077 -0.44492 -0.70619
-0.0038284 0.013821 0.415 0.53743 -0.41301 -0.73525
-0.0038284 0.014588 0.415 0.51133 -0.4375 -0.73968
-0.0038192 0.015319 0.414 0.42972 -0.41624 -0.8013
-0.0038192 0.016085 0.414 0.3792 -0.44907 -0.80904
-0.00381 0.01681 0.413 0.33617 -0.45063 -0.827
-0.00381 0.017574 0.413 0.27163 -0.4695 -0.84011
-0.00381 0.018339 0.413 0.19557 -0.47862 -0.85596
-0.00381 0.019103 0.413 0.10068 -0.47556 -0.8739
-0.00381 0.019867 0.413 0.010099 -0.4673 -0.88404
-0.00381 0.020631 0.413 -0.050811 -0.46695 -0.88282
-0.00381 0.021395 0.413 -0.12804 -0.45473 -0.88138
-0.00381 0.022159 0.413 -0.1979 -0.44756 -0.87208
-0.00381 0.022923 0.413 -0.25967 -0.44018 -0.85954
-0.00381 0.023687 0.413 -0.31445 -0.42941 -0.8466
-0.00381 0.024451 0.413 -0.3544 -0.42374 -0.83357
-0.0038192 0.025277 0.414 -0.40944 -0.40566 -0.81719
-0.0038284 0.026105 0.415 -0.48334 -0.38376 -0.78684
-0.0038284 0.026873 0.415 -0.53636 -0.35691 -0.76481
-0.0038284 0.027641 0.415 -0.56853 -0.32899 -0.75402
-0.0038376 0.028477 0.416 -0.5929 -0.33447 -0.73252
-0.0038469 0.029317 0.417 -0.59784 -0.32838 -0.73127
-0.0038561 0.030161 0.418 -0.62878 -0.31909 -0.70909
-0.0038653 0.031008 0.419 -0.67531 -0.29966 -0.67392
-0.0038745 0.031859 0.42 -0.6956 -0.29206 -0.65638
-0.0034244 -0.099582 0.464 -0.38377 -0.33515 -0.86046
-0.0034244 -0.098723 0.464 -0.41521 -0.32615 -0.84925
-0.0034317 -0.098076 0.465 -0.21575 -0.34155 -0.91477
-0.0034317 -0.097216 0.465 -0.22688 -0.33719 -0.91369
-0.0034317 -0.096355 0.465 -0.20503 -0.33578 -0.91936
-0.0034317 -0.095495 0.465 -0.15571 -0.33272 -0.93008
-0.0034317 -0.094635 0.465 -0.10703 -0.3193 -0.94159
-0.0034391 -0.093976 0.466 -0.050356 -0.30039 -0.95249
-0.0034391 -0.093114 0.466 0.033109 -0.2889 -0.95679
-0.0034391 -0.092252 0.466 0.13836 -0.26864 -0.95325
-0.0034391 -0.091389 0.466 0.25214 -0.24246 -0.93682
-0.0034317 -0.090333 0.465 0.36684 -0.21724 -0.90456
-0.0034317 -0.089473 0.465 0.47403 -0.1876 -0.86029
-0.0034244 -0.088422 0.464 0.56407 -0.15838 -0.8104
-0.0034244 -0.087563 0.464 0.59159 -0.1428 -0.79349
-0.003417 -0.086518 0.463 0.65885 -0.10544 -0.74485
-0.0034096 -0.085476 0.462 0.69147 -0.060528 -0.71987
-0.0034022 -0.084438 0.461 0.70308 -0.034981 -0.71025
-0.0033948 -0.083404 0.46 0.71335 -0.020181 -0.70051
-0.0033875 -0.082374 0.459 0.73108 -0.0071076 -0.68225
-0.0033801 -0.081347 0.458 0.75484 0.0017801 -0.6559
-0.0033801 -0.0805 0.458 0.67257 -0.0019713 -0.74003
-0.0033727 -0.079478 0.457 0.68365 0.011167 -0.72972
-0.0030775 -0.055549 0.417 0.6317 -0.2614 -0.72981
-0.0030701 -0.054646 0.416 0.56352 -0.23945 -0.79064
-0.0030627 -0.053747 0.415 0.49227 -0.22142 -0.84181
-0.0030627 -0.052979 0.415 0.53235 -0.25554 -0.80704
-0.0030554 -0.052085 0.414 0.48577 -0.25013 -0.83753
-0.0030554 -0.051319 0.414 0.51303 -0.26033 -0.81794
-0.003048 -0.050431 0.413 0.4927 -0.26229 -0.82973
-0.003048 -0.049667 0.413 0.47799 -0.26371 -0.83785
-0.003048 -0.048903 0.413 0.46721 -0.26128 -0.84466
-0.0030406 -0.048022 0.412 0.45638 -0.25254 -0.85319
-0.0030406 -0.04726 0.412 0.44154 -0.2417 -0.86407
-0.0030332 -0.046385 0.411 0.42953 -0.23502 -0.87193
-0.0030332 -0.045624 0.411 0.41601 -0.22324 -0.88154
-0.0030258 -0.044755 0.41 0.39878 -0.21099 -0.89244
-0.0030258 -0.043996 0.41 0.37252 -0.20792 -0.90443
-0.0030258 -0.043238 0.41 0.36355 -0.20306 -0.90918
-0.0030258 -0.042479 0.41 0.35558 -0.19423 -0.91424
-0.0030185 -0.041619 0.409 0.34949 -0.19229 -0.917
-0.0030185 -0.040862 0.409 0.34398 -0.19559 -0.91838
-0.0030185 -0.040105 0.409 0.34221 -0.19572 -0.91901
-0.0030185 -0.039349 0.409 0.32658 -0.20266 -0.92319
-0.0030111 -0.038498 0.408 0.30943 -0.19757 -0.93017
-0.0030111 -0.037743 0.408 0.28447 -0.19426 -0.9388
-0.0030111 -0.036988 0.408 0.26562 -0.19039 -0.94509
-0.0030111 -0.036233 0.408 0.22856 -0.18924 -0.95496
-0.0030037 -0.035391 0.407 0.19122 -0.17798 -0.96527
-0.0030037 -0.034638 0.407 0.16055 -0.16864 -0.97251
-0.0030037 -0.033885 0.407 0.12913 -0.16526 -0.97776
-0.0030037 -0.033132 0.407 0.11116 -0.16144 -0.9806
-0.0030037 -0.032379 0.407 0.098509 -0.15113 -0.98359
-0.0030037 -0.031626 0.407 0.087815 -0.14812 -0.98506
-0.0030037 -0.030873 0.407 0.068469 -0.14198 -0.9875
-0.0030037 -0.03012 0.407 0.054388 -0.1421 -0.98836
-0.0030037 -0.029367 0.407 0.052219 -0.14212 -0.98847
-0.0030037 -0.028614 0.407 0.039157 -0.14752 -0.98828
-0.0030037 -0.027861 0.407 0.017411 -0.14867 -0.98873
-0.0030037 -0.027108 0.407 -0.0054335 -0.15822 -0.98739
-0.0030037 -0.026355 0.407 -0.021714 -0.1624 -0.98649
-0.0030037 -0.025602 0.407 -0.042322 -0.16124 -0.98601
-0.0030037 -0.024849 0.407 -0.047801 -0.15276 -0.98711
-0.0030037 -0.024096 0.407 -0.055429 -0.1474 -0.98752
-0.0030037 -0.023343 0.407 -0.053328 -0.13892 -0.98887
-0.0030037 -0.02259 0.407 -0.058769 -0.13675 -0.98886
-0.0030037 -0.021837 0.407 -0.059871 -0.13461 -0.98909
-0.0030037 -0.021084 0.407 -0.049 -0.13682 -0.98938
-0.0030037 -0.020331 0.407 -0.048993 -0.13789 -0.98924
-0.0030037 -0.019578 0.407 -0.05438 -0.14316 -0.9882
-0.0030037 -0.018825 0.407 -0.070566 -0.14832 -0.98642
-0.0030037 -0.018072 0.407 -0.1007 -0.14793 -0.98386
-0.0030037 -0.017319 0.407 -0.13579 -0.15046 -0.97924
-0.0030037 -0.016566 0.407 -0.163 -0.15506 -0.97436
-0.0030111 -0.015852 0.408 -0.1811 -0.16041 -0.9703
-0.0030111 -0.015097 0.408 -0.20021 -0.17008 -0.96488
-0.0030111 -0.014342 0.408 -0.22834 -0.17104 -0.95844
-0.0030111 -0.013587 0.408 -0.25099 -0.17208 -0.95257
-0.0030111 -0.012833 0.408 -0.26168 -0.17258 -0.9496
-0.0030111 -0.012078 0.408 -0.26071 -0.17263 -0.94986
-0.0030185 -0.011351 0.409 -0.26718 -0.16588 -0.94926
-0.0030185 -0.010594 0.409 -0.27424 -0.1585 -0.94851
-0.0030185 -0.0098372 0.409 -0.29135 -0.15867 -0.94337
-0.0030185 -0.0090805 0.409 -0.31808 -0.1453 -0.93687
-0.0030258 -0.0083441 0.41 -0.33482 -0.14208 -0.93151
-0.0030258 -0.0075856 0.41 -0.35565 -0.13502 -0.92481
-0.0030258 -0.006827 0.41 -0.38536 -0.12843 -0.91379
-0.0030332 -0.0060833 0.411 -0.41586 -0.13106 -0.89993
-0.0030332 -0.0053228 0.411 -0.45594 -0.12827 -0.88072
-0.0030332 -0.0045624 0.411 -0.48025 -0.1301 -0.86743
-0.0030406 -0.0038113 0.412 -0.4987 -0.12735 -0.85737
-0.0030406 -0.003049 0.412 -0.51171 -0.12803 -0.84957
-0.003048 -0.0022923 0.413 -0.51813 -0.12895 -0.84553
-0.003048 -0.0015282 0.413 -0.51211 -0.12859 -0.84924
-0.0030554 -0.00076596 0.414 -0.50145 -0.15075 -0.85195
-0.0030554 0 0.414 -0.49366 -0.15332 -0.85603
-0.0030627 0.00076781 0.415 -0.48468 -0.15834 -0.86024
-0.0030627 0.0015356 0.415 -0.48893 -0.15791 -0.85791
-0.0030627 0.0023034 0.415 -0.48176 -0.15952 -0.86166
-0.0030701 0.0030786 0.416 -0.48644 -0.16047 -0.85885
-0.0030701 0.0038483 0.416 -0.49216 -0.16696 -0.85434
-0.0030775 0.004629 0.417 -0.50065 -0.18394 -0.84588
-0.0030775 0.0054006 0.417 -0.49641 -0.20596 -0.8433
-0.0030849 0.0061869 0.418 -0.47464 -0.23983 -0.84688
-0.0030849 0.0069602 0.418 -0.41971 -0.28211 -0.8627
-0.0030849 0.0077336 0.418 -0.32955 -0.33241 -0.88369
-0.0030923 0.0085273 0.419 -0.20524 -0.40188 -0.8924
-0.0030923 0.0093025 0.419 -0.040729 -0.46073 -0.8866
-0.0030923 0.010078 0.419 0.13272 -0.50011 -0.85573
-0.0030923 0.010853 0.419 0.28298 -0.50666 -0.81438
-0.0030849 0.0116 0.418 0.4081 -0.51724 -0.75227
-0.0030775 0.012344 0.417 0.49258 -0.47668 -0.7281
-0.0030775 0.013116 0.417 0.52189 -0.4952 -0.69456
-0.0030701 0.013854 0.416 0.52938 -0.49497 -0.68903
-0.0030627 0.014588 0.415 0.48465 -0.46436 -0.74127
-0.0030554 0.015319 0.414 0.38145 -0.42914 -0.81874
-0.0030554 0.016085 0.414 0.34407 -0.47504 -0.80991
-0.0030554 0.016851 0.414 0.31945 -0.49897 -0.80559
-0.003048 0.017574 0.413 0.23981 -0.48901 -0.83867
-0.003048 0.018339 0.413 0.17589 -0.503 -0.8462
-0.003048 0.019103 0.413 0.083712 -0.50822 -0.85715
-0.003048 0.019867 0.413 0.0019041 -0.50554 -0.8628
-0.003048 0.020631 0.413 -0.046291 -0.51081 -0.85845
-0.003048 0.021395 0.413 -0.12185 -0.50167 -0.85643
-0.003048 0.022159 0.413 -0.18691 -0.48764 -0.8528
-0.0030554 0.022979 0.414 -0.24228 -0.47579 -0.84553
-0.0030554 0.023745 0.414 -0.29755 -0.46237 -0.83527
-0.0030554 0.024511 0.414 -0.34163 -0.45514 -0.82227
-0.0030554 0.025277 0.414 -0.38864 -0.4328 -0.81342
-0.0030627 0.026105 0.415 -0.465 -0.41236 -0.78341
-0.0030627 0.026873 0.415 -0.50748 -0.38004 -0.77332
-0.0030627 0.027641 0.415 -0.53637 -0.33959 -0.77265
-0.0030701 0.028477 0.416 -0.56655 -0.35972 -0.74137
-0.0030775 0.029317 0.417 -0.5592 -0.35815 -0.74768
-0.0030849 0.030161 0.418 -0.5845 -0.35216 -0.73099
-0.0030923 0.031008 0.419 -0.62567 -0.3413 -0.70147
-0.0030996 0.031859 0.42 -0.65998 -0.31857 -0.6804
-0.0024188 -0.10996 0.437 -0.13769 0.81328 -0.56534
-0.0025738 -0.098936 0.465 -0.24608 -0.38449 -0.88973
-0.0025738 -0.098076 0.465 -0.26192 -0.37578 -0.88893
-0.0025738 -0.097216 0.465 -0.24634 -0.36515 -0.89776
-0.0025793 -0.096562 0.466 -0.14112 -0.38342 -0.91273
-0.0025793 -0.0957 0.466 -0.13478 -0.37548 -0.91698
-0.0025793 -0.094838 0.466 -0.090914 -0.36145 -0.92795
-0.0025793 -0.093976 0.466 -0.039637 -0.3404 -0.93944
-0.0025793 -0.093114 0.466 0.039921 -0.32785 -0.94389
-0.0025793 -0.092252 0.466 0.1457 -0.3163 -0.9374
-0.0025793 -0.091389 0.466 0.25524 -0.304 -0.91784
-0.0025793 -0.090527 0.466 0.36683 -0.29348 -0.88278
-0.0025738 -0.089473 0.465 0.47735 -0.22887 -0.84838
-0.0025738 -0.088612 0.465 0.52386 -0.20865 -0.82586
-0.0025683 -0.087563 0.464 0.60143 -0.1762 -0.77926
-0.0025627 -0.086518 0.463 0.66905 -0.11764 -0.73385
-0.0025572 -0.085476 0.462 0.69634 -0.068555 -0.71443
-0.0025517 -0.084438 0.461 0.70564 -0.039865 -0.70745
-0.0025461 -0.083404 0.46 0.71414 -0.026208 -0.69952
-0.0025406 -0.082374 0.459 0.73139 -0.016906 -0.68175
-0.0025406 -0.081525 0.459 0.67563 -0.018146 -0.73702
-0.0025351 -0.0805 0.458 0.67385 -0.01224 -0.73877
-0.0025295 -0.079478 0.457 0.68517 -0.0054546 -0.72836
-0.0023081 -0.055549 0.417 0.59424 -0.27406 -0.75616
-0.0023026 -0.054646 0.416 0.50754 -0.25648 -0.82257
-0.0023026 -0.053876 0.416 0.57658 -0.28446 -0.76592
-0.002297 -0.052979 0.415 0.49255 -0.27358 -0.82617
-0.002297 -0.052211 0.415 0.53705 -0.28882 -0.79257
-0.0022915 -0.051319 0.414 0.50036 -0.27746 -0.82016
-0.0022915 -0.050553 0.414 0.49766 -0.28557 -0.81901
-0.002286 -0.049667 0.413 0.47653 -0.28056 -0.83319
-0.002286 -0.048903 0.413 0.46895 -0.28403 -0.83631
-0.0022804 -0.048022 0.412 0.45983 -0.2755 -0.84419
-0.0022804 -0.04726 0.412 0.44632 -0.26334 -0.85525
-0.0022749 -0.046385 0.411 0.43513 -0.25266 -0.86419
-0.0022749 -0.045624 0.411 0.42038 -0.24849 -0.87266
-0.0022749 -0.044864 0.411 0.40542 -0.23432 -0.88359
-0.0022694 -0.043996 0.41 0.38238 -0.22918 -0.89513
-0.0022694 -0.043238 0.41 0.37025 -0.22487 -0.90131
-0.0022694 -0.042479 0.41 0.36304 -0.21998 -0.90543
-0.0022638 -0.041619 0.409 0.35289 -0.21672 -0.91022
-0.0022638 -0.040862 0.409 0.3422 -0.21952 -0.91362
-0.0022638 -0.040105 0.409 0.33962 -0.2188 -0.91476
-0.0022638 -0.039349 0.409 0.32324 -0.22393 -0.91944
-0.0022583 -0.038498 0.408 0.30468 -0.22686 -0.92504
-0.0022583 -0.037743 0.408 0.28352 -0.22456 -0.9323
-0.0022583 -0.036988 0.408 0.26789 -0.21783 -0.9385
-0.0022583 -0.036233 0.408 0.23896 -0.21758 -0.94634
-0.0022583 -0.035478 0.408 0.20361 -0.21142 -0.95595
-0.0022528 -0.034638 0.407 0.16995 -0.19914 -0.96512
-0.0022528 -0.033885 0.407 0.13488 -0.18895 -0.97268
-0.0022528 -0.033132 0.407 0.11274 -0.18845 -0.97559
-0.0022528 -0.032379 0.407 0.095957 -0.17633 -0.97964
-0.0022528 -0.031626 0.407 0.081047 -0.17134 -0.98187
-0.0022528 -0.030873 0.407 0.057471 -0.16112 -0.98526
-0.0022528 -0.03012 0.407 0.039112 -0.15493 -0.98715
-0.0022528 -0.029367 0.407 0.039112 -0.15493 -0.98715
-0.0022528 -0.028614 0.407 0.029334 -0.1571 -0.98715
-0.0022528 -0.027861 0.407 0.011961 -0.15398 -0.988
-0.0022528 -0.027108 0.407 -0.0054344 -0.15716 -0.98756
-0.0022528 -0.026355 0.407 -0.021722 -0.1603 -0.98683
-0.0022528 -0.025602 0.407 -0.036891 -0.16339 -0.98587
-0.0022528 -0.024849 0.407 -0.038014 -0.15705 -0.98686
-0.0022528 -0.024096 0.407 -0.042365 -0.15491 -0.98702
-0.0022528 -0.023343 0.407 -0.038064 -0.14858 -0.98817
-0.0022528 -0.02259 0.407 -0.042407 -0.14856 -0.98799
-0.0022528 -0.021837 0.407 -0.043492 -0.14855 -0.98795
-0.0022528 -0.021084 0.407 -0.033714 -0.14967 -0.98816
-0.0022528 -0.020331 0.407 -0.041274 -0.15597 -0.9869
-0.0022528 -0.019578 0.407 -0.054179 -0.16641 -0.98457
-0.0022528 -0.018825 0.407 -0.077767 -0.17557 -0.98139
-0.0022528 -0.018072 0.407 -0.11515 -0.17493 -0.97782
-0.0022528 -0.017319 0.407 -0.14571 -0.17629 -0.97349
-0.0022583 -0.016607 0.408 -0.16817 -0.17832 -0.96949
-0.0022583 -0.015852 0.408 -0.18743 -0.18586 -0.96453
-0.0022583 -0.015097 0.408 -0.20636 -0.19424 -0.959
-0.0022583 -0.014342 0.408 -0.23342 -0.19102 -0.95343
-0.0022583 -0.013587 0.408 -0.24912 -0.19126 -0.9494
-0.0022583 -0.012833 0.408 -0.25302 -0.19106 -0.94841
-0.0022638 -0.012107 0.409 -0.25543 -0.18949 -0.94808
-0.0022638 -0.011351 0.409 -0.26149 -0.18419 -0.94747
-0.0022638 -0.010594 0.409 -0.26859 -0.17684 -0.94688
-0.0022638 -0.0098372 0.409 -0.28662 -0.17787 -0.94139
-0.0022694 -0.0091027 0.41 -0.30891 -0.16729 -0.93626
-0.0022694 -0.0083441 0.41 -0.32275 -0.1655 -0.9319
-0.0022694 -0.0075856 0.41 -0.35026 -0.15401 -0.92391
-0.0022694 -0.006827 0.41 -0.38186 -0.14616 -0.91259
-0.0022749 -0.0060833 0.411 -0.41863 -0.15181 -0.89538
-0.0022749 -0.0053228 0.411 -0.45613 -0.14876 -0.87739
-0.0022749 -0.0045624 0.411 -0.48162 -0.15197 -0.8631
-0.0022804 -0.0038113 0.412 -0.50155 -0.14607 -0.85271
-0.0022804 -0.003049 0.412 -0.51591 -0.14464 -0.84434
-0.002286 -0.0022923 0.413 -0.52316 -0.14179 -0.84035
-0.002286 -0.0015282 0.413 -0.51374 -0.14363 -0.84584
-0.0022915 -0.00076596 0.414 -0.50319 -0.16299 -0.84867
-0.0022915 0 0.414 -0.49132 -0.16517 -0.85518
-0.002297 0.00076781 0.415 -0.48577 -0.1707 -0.85725
-0.002297 0.0015356 0.415 -0.48577 -0.1707 -0.85725
-0.002297 0.0023034 0.415 -0.48207 -0.17288 -0.8589
-0.0023026 0.0030786 0.416 -0.48547 -0.18005 -0.85551
-0.0023026 0.0038483 0.416 -0.49388 -0.18606 -0.84939
-0.0023081 0.004629 0.417 -0.50396 -0.20408 -0.83927
-0.0023081 0.0054006 0.417 -0.50452 -0.22252 -0.83424
-0.0023137 0.0061869 0.418 -0.49361 -0.25501 -0.83145
-0.0023137 0.0069602 0.418 -0.44341 -0.29474 -0.84647
-0.0023192 0.0077521 0.419 -0.37522 -0.3504 -0.85815
-0.0023247 0.0085476 0.42 -0.27529 -0.42271 -0.86344
-0.0023247 0.0093247 0.42 -0.12221 -0.49164 -0.86218
-0.0023247 0.010102 0.42 0.01927 -0.52184 -0.85283
-0.0023192 0.010853 0.419 0.22209 -0.5591 -0.7988
-0.0023192 0.011628 0.419 0.33963 -0.56203 -0.75417
-0.0023081 0.013116 0.417 0.51206 -0.49156 -0.70439
-0.0023026 0.013854 0.416 0.52033 -0.4876 -0.70107
-0.0023026 0.014623 0.416 0.49497 -0.52875 -0.68951
-0.002297 0.015356 0.415 0.4168 -0.49924 -0.75963
-0.0022915 0.016851 0.414 0.29581 -0.50296 -0.81211
-0.0022915 0.017617 0.414 0.24298 -0.53285 -0.81058
-0.0022915 0.018383 0.414 0.18472 -0.54754 -0.81614
-0.0022915 0.019149 0.414 0.099541 -0.55549 -0.82554
-0.002286 0.020631 0.413 -0.047685 -0.54835 -0.83489
-0.0022915 0.021447 0.414 -0.10936 -0.55023 -0.82782
-0.0022915 0.022213 0.414 -0.17913 -0.52944 -0.82922
-0.0022915 0.022979 0.414 -0.23931 -0.51255 -0.82463
-0.0022915 0.023745 0.414 -0.30024 -0.49435 -0.81577
-0.002297 0.02457 0.415 -0.33627 -0.48871 -0.80503
-0.002297 0.025338 0.415 -0.39267 -0.46907 -0.79107
-0.002297 0.026105 0.415 -0.44317 -0.4336 -0.7846
-0.002297 0.026873 0.415 -0.47417 -0.39086 -0.78892
-0.0023026 0.027708 0.416 -0.54471 -0.40069 -0.73671
-0.0023081 0.028546 0.417 -0.55502 -0.39065 -0.7344
-0.0023137 0.029388 0.418 -0.57728 -0.38575 -0.71968
-0.0023192 0.030233 0.419 -0.62585 -0.37 -0.6866
-0.0023247 0.031082 0.42 -0.67843 -0.35311 -0.64424
-0.0023247 0.031859 0.42 -0.59338 -0.37523 -0.71211
-0.0016052 -0.11267 0.435 -0.10107 0.82545 -0.55536
-0.0016052 -0.11187 0.435 -0.072673 0.81859 -0.56976
-0.0016089 -0.11132 0.436 -0.045746 0.88307 -0.46701
-0.0016089 -0.11051 0.436 -0.070058 0.87422 -0.48045
-0.0017159 -0.099796 0.465 -0.29928 -0.42622 -0.85368
-0.0017159 -0.098936 0.465 -0.31993 -0.41129 -0.85351
-0.0017196 -0.098287 0.466 -0.12547 -0.43837 -0.88999
-0.0017196 -0.097425 0.466 -0.15076 -0.42685 -0.89167
-0.0017196 -0.096562 0.466 -0.14781 -0.41315 -0.89859
-0.0017196 -0.0957 0.466 -0.11925 -0.39917 -0.90909
-0.0017196 -0.094838 0.466 -0.074672 -0.37581 -0.92368
-0.0017196 -0.093976 0.466 -0.029363 -0.3423 -0.93913
-0.0017196 -0.093114 0.466 0.048687 -0.33248 -0.94185
-0.0017196 -0.092252 0.466 0.1512 -0.32778 -0.93258
-0.0017196 -0.091389 0.466 0.25754 -0.33637 -0.90583
-0.0017196 -0.090527 0.466 0.36723 -0.34572 -0.86349
-0.0017159 -0.089473 0.465 0.48304 -0.24463 -0.84073
-0.0017159 -0.088612 0.465 0.54488 -0.23949 -0.80358
-0.0017122 -0.087563 0.464 0.61977 -0.18194 -0.7634
-0.0017085 -0.086518 0.463 0.67752 -0.11786 -0.726
-0.0017085 -0.085661 0.463 0.68263 -0.15176 -0.71483
-0.0017011 -0.084438 0.461 0.70378 -0.046376 -0.7089
-0.0016974 -0.083404 0.46 0.70923 -0.039622 -0.70386
-0.0016974 -0.082553 0.46 0.69338 -0.05627 -0.71837
-0.0016937 -0.081525 0.459 0.68044 -0.040709 -0.73167
-0.00169 -0.0805 0.458 0.68005 -0.040299 -0.73206
-0.0015387 -0.054777 0.417 0.60779 -0.31462 -0.72911
-0.0015351 -0.053876 0.416 0.52164 -0.31484 -0.79295
-0.0015314 -0.052979 0.415 0.42757 -0.30115 -0.85234
-0.0015314 -0.052211 0.415 0.5057 -0.30971 -0.8052
-0.0015277 -0.051319 0.414 0.47217 -0.29185 -0.83179
-0.0015277 -0.050553 0.414 0.49251 -0.3052 -0.81504
-0.0015277 -0.049787 0.414 0.47798 -0.30935 -0.82209
-0.001524 -0.048903 0.413 0.47046 -0.30251 -0.82895
-0.001524 -0.048139 0.413 0.46524 -0.29711 -0.83384
-0.0015203 -0.04726 0.412 0.45308 -0.28319 -0.8453
-0.0015203 -0.046498 0.412 0.44268 -0.26895 -0.85539
-0.0015166 -0.045624 0.411 0.42928 -0.2638 -0.86379
-0.0015166 -0.044864 0.411 0.41349 -0.25463 -0.87418
-0.0015166 -0.044104 0.411 0.38475 -0.24742 -0.88924
-0.0015129 -0.043238 0.41 0.37175 -0.24487 -0.89545
-0.0015129 -0.042479 0.41 0.36217 -0.23947 -0.90082
-0.0015129 -0.041721 0.41 0.3537 -0.22922 -0.90684
-0.0015092 -0.040862 0.409 0.34024 -0.23283 -0.91106
-0.0015092 -0.040105 0.409 0.33863 -0.23111 -0.91209
-0.0015092 -0.039349 0.409 0.32332 -0.23431 -0.91682
-0.0015092 -0.038592 0.409 0.3045 -0.24433 -0.92064
-0.0015055 -0.037743 0.408 0.28456 -0.24931 -0.92567
-0.0015055 -0.036988 0.408 0.27492 -0.24053 -0.9309
-0.0015055 -0.036233 0.408 0.25143 -0.23635 -0.93858
-0.0015055 -0.035478 0.408 0.21459 -0.23166 -0.94883
-0.0015055 -0.034723 0.408 0.18299 -0.22128 -0.95789
-0.0015018 -0.033885 0.407 0.14989 -0.21097 -0.96593
-0.0015018 -0.033132 0.407 0.12266 -0.2138 -0.96915
-0.0015018 -0.032379 0.407 0.10083 -0.20002 -0.97459
-0.0015018 -0.031626 0.407 0.080714 -0.19318 -0.97784
-0.0015018 -0.030873 0.407 0.051902 -0.179 -0.98248
-0.0015018 -0.03012 0.407 0.028204 -0.16659 -0.98562
-0.0015018 -0.029367 0.407 0.022807 -0.16029 -0.98681
-0.0015018 -0.028614 0.407 0.014126 -0.15821 -0.98731
-0.0015018 -0.027861 0.407 0.0043483 -0.15611 -0.98773
-0.0015018 -0.027108 0.407 -0.0054335 -0.15822 -0.98739
-0.0015018 -0.026355 0.407 -0.014121 -0.16032 -0.98696
-0.0015018 -0.025602 0.407 -0.021714 -0.1624 -0.98649
-0.0015018 -0.024849 0.407 -0.021725 -0.15924 -0.987
-0.0015018 -0.024096 0.407 -0.026059 -0.16133 -0.98656
-0.0015018 -0.023343 0.407 -0.022815 -0.15818 -0.98715
-0.0015018 -0.02259 0.407 -0.029313 -0.16132 -0.98647
-0.0015018 -0.021837 0.407 -0.033634 -0.16446 -0.98581
-0.0015018 -0.021084 0.407 -0.033597 -0.17076 -0.98474
-0.0015018 -0.020331 0.407 -0.050794 -0.18214 -0.98196
-0.0015018 -0.019578 0.407 -0.06682 -0.19131 -0.97925
-0.0015018 -0.018825 0.407 -0.09236 -0.19813 -0.97581
-0.0015018 -0.018072 0.407 -0.1252 -0.19742 -0.97229
-0.0015055 -0.017362 0.408 -0.15604 -0.20218 -0.96684
-0.0015055 -0.016607 0.408 -0.17846 -0.20745 -0.96183
-0.0015055 -0.015852 0.408 -0.19637 -0.21573 -0.9565
-0.0015055 -0.015097 0.408 -0.2131 -0.22189 -0.9515
-0.0015055 -0.014342 0.408 -0.23198 -0.21993 -0.94753
-0.0015055 -0.013587 0.408 -0.23983 -0.2195 -0.94568
-0.0015092 -0.012864 0.409 -0.24618 -0.21765 -0.94447
-0.0015092 -0.012107 0.409 -0.25211 -0.21535 -0.94343
-0.0015092 -0.011351 0.409 -0.2613 -0.20599 -0.94302
-0.0015092 -0.010594 0.409 -0.26643 -0.19979 -0.94292
-0.0015129 -0.0098612 0.41 -0.28184 -0.20134 -0.9381
-0.0015129 -0.0091027 0.41 -0.30306 -0.18927 -0.93399
-0.0015129 -0.0083441 0.41 -0.31625 -0.18354 -0.93075
-0.0015129 -0.0075856 0.41 -0.34858 -0.16778 -0.92214
-0.0015129 -0.006827 0.41 -0.3802 -0.1598 -0.911
-0.0015166 -0.0060833 0.411 -0.41706 -0.16325 -0.8941
-0.0015166 -0.0053228 0.411 -0.45 -0.16041 -0.8785
-0.0015166 -0.0045624 0.411 -0.47961 -0.15943 -0.86288
-0.0015203 -0.0038113 0.412 -0.49975 -0.15164 -0.8528
-0.001524 -0.0030564 0.413 -0.51328 -0.15785 -0.84358
-0.001524 -0.0022923 0.413 -0.51871 -0.15637 -0.84053
-0.0015277 -0.0015319 0.414 -0.51292 -0.15928 -0.84353
-0.0015277 -0.00076596 0.414 -0.50415 -0.17519 -0.84566
-0.0015314 0 0.415 -0.48805 -0.17665 -0.85475
-0.0015314 0.00076781 0.415 -0.48346 -0.18862 -0.8548
-0.0015314 0.0015356 0.415 -0.48063 -0.18895 -0.85633
-0.0015351 0.002309 0.416 -0.48405 -0.1951 -0.85302
-0.0015351 0.0030786 0.416 -0.49162 -0.20193 -0.84707
-0.0015387 0.0038575 0.417 -0.50455 -0.21077 -0.83726
-0.0015387 0.004629 0.417 -0.51612 -0.22816 -0.82557
-0.0015424 0.0054135 0.418 -0.5166 -0.23737 -0.82266
-0.0015424 0.0061869 0.418 -0.50863 -0.2676 -0.81834
-0.0015424 0.0069602 0.418 -0.46675 -0.29792 -0.8327
-0.0015461 0.0077521 0.419 -0.41411 -0.35856 -0.83663
-0.0015498 0.0085476 0.42 -0.32871 -0.42777 -0.842
-0.0015498 0.0093247 0.42 -0.18197 -0.49816 -0.84777
-0.0015498 0.010102 0.42 -0.025789 -0.5492 -0.83529
-0.0015498 0.010879 0.42 0.12161 -0.56745 -0.81438
-0.0015498 0.011656 0.42 0.22055 -0.57874 -0.78512
-0.0015424 0.013147 0.418 0.47138 -0.55704 -0.68375
-0.0015387 0.013887 0.417 0.50643 -0.52248 -0.68596
-0.0015387 0.014659 0.417 0.48543 -0.57141 -0.6617
-0.0015351 0.015393 0.416 0.43516 -0.56473 -0.70122
-0.0015314 0.016892 0.415 0.32315 -0.56479 -0.75934
-0.0015314 0.01766 0.415 0.2623 -0.59011 -0.76352
-0.0015277 0.018383 0.414 0.15074 -0.56288 -0.81268
-0.0015277 0.019149 0.414 0.077366 -0.57923 -0.81149
-0.0015277 0.020681 0.414 -0.034027 -0.59057 -0.80627
-0.0015277 0.021447 0.414 -0.089385 -0.59339 -0.79994
-0.0015277 0.022213 0.414 -0.16486 -0.57163 -0.80378
-0.0015314 0.023034 0.415 -0.21356 -0.55886 -0.80129
-0.0015314 0.023802 0.415 -0.28176 -0.5373 -0.79494
-0.0015314 0.02457 0.415 -0.31788 -0.52662 -0.78843
-0.0015351 0.025399 0.416 -0.38226 -0.51323 -0.76842
-0.0015351 0.026168 0.416 -0.44489 -0.48723 -0.75145
-0.0015351 0.026938 0.416 -0.49536 -0.45748 -0.73847
-0.0015387 0.027774 0.417 -0.52894 -0.43837 -0.72667
-0.0015424 0.028614 0.418 -0.5527 -0.43708 -0.70957
-0.0015461 0.029458 0.419 -0.59571 -0.42232 -0.68321
-0.0015461 0.030233 0.419 -0.56645 -0.41618 -0.71129
-0.0015498 0.031082 0.42 -0.61631 -0.40626 -0.67463
-0.0015498 0.031859 0.42 -0.50731 -0.43079 -0.74636
-0.00079889 -0.11296 0.433 -0.1999 0.78901 -0.58095
-0.00080074 -0.11241 0.434 -0.066413 0.85275 -0.51807
-0.00080074 -0.11161 0.434 -0.03368 0.85372 -0.51965
-0.00080258 -0.11106 0.435 -0.027129 0.89623 -0.44277
-0.00080258 -0.11026 0.435 -0.053141 0.88726 -0.45821
-0.00085978 -0.10001 0.466 -0.1351 -0.46893 -0.87284
-0.00085978 -0.099149 0.466 -0.17177 -0.46043 -0.87092
-0.00085978 -0.098287 0.466 -0.18753 -0.44145 -0.87747
-0.00085978 -0.097425 0.466 -0.17967 -0.41301 -0.89283
-0.00085978 -0.096562 0.466 -0.15016 -0.38456 -0.9108
-0.00086162 -0.095906 0.467 -0.12637 -0.4957 -0.85925
-0.00086162 -0.095042 0.467 -0.081871 -0.48699 -0.86956
-0.00086162 -0.094178 0.467 -0.027049 -0.47055 -0.88196
-0.00086162 -0.093314 0.467 0.051067 -0.47222 -0.88
-0.00086162 -0.09245 0.467 0.14212 -0.47394 -0.86901
-0.00086162 -0.091586 0.467 0.24373 -0.49125 -0.83622
-0.00085978 -0.090527 0.466 0.37447 -0.35651 -0.85596
-0.00085978 -0.089665 0.466 0.42523 -0.38011 -0.8214
-0.00085793 -0.088612 0.465 0.56778 -0.24257 -0.78663
-0.00085609 -0.087563 0.464 0.63786 -0.16768 -0.75168
-0.00085424 -0.086518 0.463 0.68366 -0.11064 -0.72137
-0.0008524 -0.085476 0.462 0.69675 -0.069576 -0.71394
-0.00085055 -0.084438 0.461 0.69784 -0.047213 -0.71469
-0.00085055 -0.083586 0.461 0.71684 -0.10264 -0.68964
-0.00084686 -0.082374 0.459 0.71528 -0.059195 -0.69632
-0.00084502 -0.081347 0.458 0.75212 -0.082963 -0.65379
-0.00084502 -0.0805 0.458 0.68965 -0.070824 -0.72067
-0.00076937 -0.054777 0.417 0.55737 -0.32766 -0.76288
-0.00076753 -0.053876 0.416 0.47204 -0.303 -0.82787
-0.00076753 -0.053106 0.416 0.53992 -0.33018 -0.77425
-0.00076568 -0.052211 0.415 0.46772 -0.29684 -0.83254
-0.00076568 -0.051443 0.415 0.51396 -0.32765 -0.79277
-0.00076384 -0.050553 0.414 0.47919 -0.30072 -0.82459
-0.00076384 -0.049787 0.414 0.47737 -0.32147 -0.81778
-0.00076199 -0.048903 0.413 0.46728 -0.30837 -0.82859
-0.00076199 -0.048139 0.413 0.46997 -0.31081 -0.82615
-0.00076015 -0.04726 0.412 0.45437 -0.29939 -0.839
-0.00076015 -0.046498 0.412 0.44448 -0.29076 -0.84729
-0.00076015 -0.045735 0.412 0.43517 -0.28684 -0.85343
-0.0007583 -0.044864 0.411 0.42149 -0.28365 -0.86133
-0.0007583 -0.044104 0.411 0.39406 -0.27974 -0.87548
-0.0007583 -0.043343 0.411 0.37144 -0.27998 -0.88524
-0.00075646 -0.042479 0.41 0.36193 -0.27555 -0.89055
-0.00075646 -0.041721 0.41 0.35208 -0.26504 -0.89766
-0.00075646 -0.040962 0.41 0.33629 -0.26849 -0.90268
-0.00075461 -0.040105 0.409 0.3293 -0.26707 -0.90567
-0.00075461 -0.039349 0.409 0.31283 -0.27321 -0.90967
-0.00075461 -0.038592 0.409 0.29875 -0.27999 -0.91233
-0.00075461 -0.037835 0.409 0.27722 -0.28647 -0.91711
-0.00075277 -0.036988 0.408 0.27173 -0.28206 -0.92011
-0.00075277 -0.036233 0.408 0.25221 -0.27991 -0.92631
-0.00075277 -0.035478 0.408 0.22493 -0.27245 -0.93551
-0.00075277 -0.034723 0.408 0.19614 -0.2608 -0.94526
-0.00075277 -0.033969 0.408 0.16953 -0.25046 -0.95317
-0.00075092 -0.033132 0.407 0.14347 -0.24618 -0.95855
-0.00075092 -0.032379 0.407 0.12109 -0.23198 -0.96515
-0.00075092 -0.031626 0.407 0.09301 -0.21855 -0.97138
-0.00075092 -0.030873 0.407 0.060251 -0.20171 -0.97759
-0.00075092 -0.03012 0.407 0.036716 -0.18953 -0.98119
-0.00075092 -0.029367 0.407 0.024905 -0.17709 -0.98388
-0.00075092 -0.028614 0.407 0.01518 -0.17084 -0.98518
-0.00075092 -0.027861 0.407 0.0032567 -0.16455 -0.98636
-0.00075092 -0.027108 0.407 -0.0032561 -0.1656 -0.98619
-0.00075092 -0.026355 0.407 -0.0086811 -0.16665 -0.98598
-0.00075092 -0.025602 0.407 -0.013019 -0.16769 -0.98575
-0.00075092 -0.024849 0.407 -0.01627 -0.16874 -0.98553
-0.00075092 -0.024096 0.407 -0.018435 -0.16978 -0.98531
-0.00075092 -0.023343 0.407 -0.02491 -0.17605 -0.98407
-0.00075092 -0.02259 0.407 -0.034607 -0.18226 -0.98264
-0.00075092 -0.021837 0.407 -0.041037 -0.18846 -0.98122
-0.00075092 -0.021084 0.407 -0.048468 -0.19978 -0.97864
-0.00075092 -0.020331 0.407 -0.066562 -0.20984 -0.97547
-0.00075092 -0.019578 0.407 -0.082435 -0.21673 -0.97275
-0.00075277 -0.018871 0.408 -0.10646 -0.21977 -0.96972
-0.00075277 -0.018117 0.408 -0.13666 -0.22397 -0.96497
-0.00075277 -0.017362 0.408 -0.16421 -0.23198 -0.95876
-0.00075277 -0.016607 0.408 -0.18219 -0.23912 -0.95374
-0.00075277 -0.015852 0.408 -0.19486 -0.24732 -0.94914
-0.00075277 -0.015097 0.408 -0.21187 -0.24546 -0.94597
-0.00075277 -0.014342 0.408 -0.22597 -0.23982 -0.94415
-0.00075461 -0.013621 0.409 -0.23434 -0.23781 -0.94262
-0.00075461 -0.012864 0.409 -0.24224 -0.2354 -0.94122
-0.00075461 -0.012107 0.409 -0.2492 -0.23208 -0.94023
-0.00075461 -0.011351 0.409 -0.25443 -0.22497 -0.94056
-0.00075461 -0.010594 0.409 -0.2611 -0.22552 -0.9386
-0.00075646 -0.0098612 0.41 -0.27869 -0.22193 -0.93439
-0.00075646 -0.0091027 0.41 -0.29721 -0.20909 -0.93164
-0.00075646 -0.0083441 0.41 -0.30879 -0.20056 -0.92974
-0.00075646 -0.0075856 0.41 -0.34031 -0.18676 -0.92158
-0.0007583 -0.0068437 0.411 -0.37135 -0.17922 -0.91103
-0.0007583 -0.0060833 0.411 -0.40942 -0.17984 -0.89444
-0.0007583 -0.0053228 0.411 -0.44648 -0.17638 -0.87724
-0.00076015 -0.0045735 0.412 -0.47923 -0.17081 -0.86091
-0.00076015 -0.0038113 0.412 -0.50334 -0.1664 -0.84792
-0.00076199 -0.0030564 0.413 -0.51615 -0.17067 -0.83932
-0.00076199 -0.0022923 0.413 -0.5241 -0.1697 -0.83458
-0.00076384 -0.0015319 0.414 -0.52084 -0.17403 -0.83573
-0.00076384 -0.00076596 0.414 -0.51119 -0.18562 -0.83919
-0.00076568 0 0.415 -0.49293 -0.19096 -0.84886
-0.00076568 0.00076781 0.415 -0.48586 -0.19967 -0.85092
-0.00076568 0.0015356 0.415 -0.47906 -0.20488 -0.85354
-0.00076753 0.002309 0.416 -0.48546 -0.21476 -0.84747
-0.00076753 0.0030786 0.416 -0.49523 -0.2244 -0.83928
-0.00076937 0.0038575 0.417 -0.50939 -0.23582 -0.82759
-0.00077122 0.0046401 0.418 -0.52431 -0.24969 -0.8141
-0.00077122 0.0054135 0.418 -0.52869 -0.25756 -0.80879
-0.00077122 0.0061869 0.418 -0.52325 -0.27821 -0.80549
-0.00077306 0.0069769 0.419 -0.49705 -0.3184 -0.80719
-0.00077491 0.0077706 0.42 -0.44227 -0.36797 -0.81792
-0.00077491 0.0085476 0.42 -0.36861 -0.43179 -0.82322
-0.00077491 0.0093247 0.42 -0.23584 -0.50686 -0.82914
-0.00077675 0.010126 0.421 -0.14156 -0.53612 -0.83219
-0.00077675 0.010905 0.421 -0.013573 -0.5603 -0.82818
-0.00077675 0.011684 0.421 0.085917 -0.57522 -0.81347
-0.00077491 0.012433 0.42 0.25425 -0.63053 -0.73334
-0.00077491 0.01321 0.42 0.31955 -0.63049 -0.70737
-0.00077122 0.01392 0.418 0.47484 -0.59447 -0.64894
-0.00076937 0.014659 0.417 0.45812 -0.55238 -0.69642
-0.00076937 0.01543 0.417 0.42863 -0.60484 -0.67116
-0.00076753 0.016163 0.416 0.37467 -0.59049 -0.71481
-0.00076753 0.016932 0.416 0.34224 -0.61943 -0.70653
-0.00076568 0.01766 0.415 0.22326 -0.59943 -0.76866
-0.00076568 0.018427 0.415 0.17545 -0.61557 -0.7683
-0.00076568 0.019195 0.415 0.10061 -0.62507 -0.77405
-0.00076568 0.019963 0.415 0.032279 -0.63085 -0.77523
-0.00076568 0.020731 0.415 -0.0049218 -0.63641 -0.77133
-0.00076568 0.021499 0.415 -0.063655 -0.62998 -0.774
-0.00076568 0.022266 0.415 -0.13506 -0.60713 -0.78304
-0.00076568 0.023034 0.415 -0.19467 -0.59317 -0.78118
-0.00076753 0.023859 0.416 -0.24633 -0.58098 -0.77575
-0.00076753 0.024629 0.416 -0.30239 -0.56578 -0.76711
-0.00076753 0.025399 0.416 -0.36793 -0.53686 -0.75922
-0.00076937 0.026231 0.417 -0.43436 -0.51374 -0.73987
-0.00076937 0.027003 0.417 -0.48137 -0.48176 -0.73225
-0.00077122 0.027841 0.418 -0.52259 -0.47246 -0.7097
-0.00077122 0.028614 0.418 -0.52483 -0.45155 -0.72157
-0.00077306 0.029458 0.419 -0.55945 -0.44519 -0.69916
-0.00077491 0.030305 0.42 -0.61384 -0.4316 -0.661
-0.00077675 0.031156 0.421 -0.66178 -0.42033 -0.62078
-0.00077306 0.031784 0.419 -0.16556 -0.44726 -0.87895
0 -0.11403 0.431 -0.32275 0.74639 -0.58201
0 -0.11349 0.432 -0.19024 0.81543 -0.5467
0 -0.1127 0.432 -0.17994 0.80596 -0.56396
0 -0.11216 0.433 -0.03764 0.86163 -0.50614
0 -0.11135 0.433 -0.014871 0.86576 -0.50024
0 -0.11055 0.433 0.0081848 0.86551 -0.50082
0 -0.10975 0.433 0.045243 0.86814 -0.49425
0 -0.10895 0.433 0.039693 0.86738 -0.49607
0 -0.1079 0.432 0.19608 0.83095 -0.52065
0 -0.1071 0.432 0.1924 0.84622 -0.49689
0 -0.10606 0.431 0.31506 0.81119 -0.49265
0 -0.10001 0.466 -0.25001 -0.47033 -0.84634
0 -0.099362 0.467 -0.063564 -0.53418 -0.84298
0 -0.098498 0.467 -0.11138 -0.52863 -0.84152
0 -0.097634 0.467 -0.1369 -0.5073 -0.85083
0 -0.09677 0.467 -0.1384 -0.48201 -0.86516
0 -0.095906 0.467 -0.11593 -0.46239 -0.87907
0 -0.095042 0.467 -0.069681 -0.44581 -0.89241
0 -0.094178 0.467 -0.015956 -0.42859 -0.90336
0 -0.093314 0.467 0.059572 -0.43543 -0.89825
0 -0.09245 0.467 0.15231 -0.45238 -0.87872
0 -0.091586 0.467 0.25738 -0.48282 -0.83704
0 -0.090722 0.467 0.30875 -0.50933 -0.80328
0 -0.089665 0.466 0.45155 -0.37064 -0.81162
0 -0.088803 0.466 0.48297 -0.41007 -0.77368
0 -0.087752 0.465 0.61156 -0.29738 -0.73318
0 -0.086705 0.464 0.67169 -0.22936 -0.70443
0 -0.085476 0.462 0.69212 -0.073309 -0.71805
0 -0.084622 0.462 0.72352 -0.15661 -0.67231
0 -0.083404 0.46 0.67896 -0.065347 -0.73127
0 -0.082374 0.459 0.69676 -0.089231 -0.71174
0 -0.081347 0.458 0.74753 -0.12437 -0.65248
0 -0.0805 0.458 0.70479 -0.11984 -0.69922
0 -0.053876 0.416 0.41651 -0.26714 -0.86899
0 -0.053106 0.416 0.48943 -0.31894 -0.81163
0 -0.052337 0.416 0.54154 -0.35999 -0.7597
0 -0.051443 0.415 0.487 -0.31897 -0.81307
0 -0.050675 0.415 0.50714 -0.36076 -0.78272
0 -0.049787 0.414 0.46626 -0.3296 -0.82096
0 -0.049021 0.414 0.48111 -0.34918 -0.80412
0 -0.048139 0.413 0.46495 -0.32839 -0.82218
0 -0.047375 0.413 0.46454 -0.32981 -0.82185
0 -0.046498 0.412 0.45055 -0.317 -0.83457
0 -0.045735 0.412 0.44352 -0.31878 -0.83766
0 -0.044864 0.411 0.42469 -0.31173 -0.84998
0 -0.044104 0.411 0.40211 -0.31407 -0.86004
0 -0.043343 0.411 0.378 -0.31255 -0.87145
0 -0.042479 0.41 0.36121 -0.31039 -0.87931
0 -0.041721 0.41 0.35247 -0.30032 -0.88633
0 -0.040962 0.41 0.33313 -0.29908 -0.89419
0 -0.040204 0.41 0.32126 -0.29686 -0.89926
0 -0.039349 0.409 0.30121 -0.30136 -0.90469
0 -0.038592 0.409 0.28781 -0.30978 -0.9062
0 -0.037835 0.409 0.27298 -0.31296 -0.90969
0 -0.037079 0.409 0.26802 -0.30717 -0.91314
0 -0.036233 0.408 0.25469 -0.30719 -0.91693
0 -0.035478 0.408 0.23336 -0.30252 -0.92414
0 -0.034723 0.408 0.20484 -0.2962 -0.9329
0 -0.033969 0.408 0.17772 -0.28748 -0.94115
0 -0.033214 0.408 0.15572 -0.28573 -0.94557
0 -0.032459 0.408 0.13162 -0.27814 -0.95148
0 -0.031626 0.407 0.1065 -0.26603 -0.95806
0 -0.030873 0.407 0.074392 -0.24905 -0.96563
0 -0.03012 0.407 0.043777 -0.23851 -0.97015
0 -0.029367 0.407 0.035352 -0.22648 -0.97337
0 -0.028614 0.407 0.027919 -0.21738 -0.97569
0 -0.027861 0.407 0.017221 -0.20822 -0.97793
0 -0.027108 0.407 0.010776 -0.2031 -0.9791
0 -0.026355 0.407 -0.0010776 -0.20311 -0.97916
0 -0.025602 0.407 -0.011853 -0.20309 -0.97909
0 -0.024849 0.407 -0.021548 -0.20306 -0.97893
0 -0.024096 0.407 -0.03016 -0.20302 -0.97871
0 -0.023401 0.408 -0.036456 -0.21172 -0.97665
0 -0.022646 0.408 -0.044936 -0.21979 -0.97451
0 -0.021891 0.408 -0.055565 -0.22271 -0.9733
0 -0.021136 0.408 -0.060742 -0.23273 -0.97064
0 -0.020381 0.408 -0.075433 -0.2405 -0.96771
0 -0.019626 0.408 -0.086947 -0.24426 -0.9658
0 -0.018871 0.408 -0.11092 -0.24862 -0.96223
0 -0.018117 0.408 -0.13984 -0.25164 -0.95767
0 -0.017362 0.408 -0.16621 -0.25645 -0.95216
0 -0.016607 0.408 -0.18322 -0.25953 -0.9482
0 -0.015852 0.408 -0.19509 -0.26181 -0.9452
0 -0.015097 0.408 -0.21614 -0.2568 -0.94199
0 -0.014377 0.409 -0.22761 -0.25266 -0.9404
0 -0.013621 0.409 -0.23455 -0.25032 -0.93932
0 -0.012864 0.409 -0.24056 -0.24707 -0.93866
0 -0.012107 0.409 -0.24564 -0.24291 -0.93843
0 -0.011351 0.409 -0.24847 -0.24369 -0.93749
0 -0.01062 0.41 -0.25828 -0.24534 -0.9344
0 -0.0098612 0.41 -0.27577 -0.23746 -0.93143
0 -0.0091027 0.41 -0.29305 -0.22954 -0.92813
0 -0.0083441 0.41 -0.30354 -0.224 -0.92611
0 -0.0075856 0.41 -0.32957 -0.21343 -0.91969
0 -0.0068437 0.411 -0.36588 -0.20709 -0.90733
0 -0.0060833 0.411 -0.40549 -0.19879 -0.89222
0 -0.0053228 0.411 -0.44338 -0.19493 -0.87488
0 -0.0045735 0.412 -0.48041 -0.18941 -0.85635
0 -0.0038113 0.412 -0.50404 -0.18826 -0.84291
0 -0.0030564 0.413 -0.5174 -0.18524 -0.83546
0 -0.0022923 0.413 -0.52521 -0.18506 -0.83061
0 -0.0015319 0.414 -0.52175 -0.19108 -0.83142
0 -0.00076596 0.414 -0.51594 -0.19699 -0.83367
0 0 0.415 -0.49738 -0.20076 -0.84398
0 0.00076781 0.415 -0.48896 -0.20962 -0.84674
0 0.0015393 0.416 -0.47934 -0.21387 -0.85117
0 0.002309 0.416 -0.48747 -0.22722 -0.84305
0 0.003086 0.417 -0.49661 -0.23868 -0.83451
0 0.0038575 0.417 -0.51547 -0.2478 -0.8203
0 0.004629 0.417 -0.52687 -0.24909 -0.81263
0 0.0054135 0.418 -0.53616 -0.26776 -0.80052
0 0.0061869 0.418 -0.53268 -0.27777 -0.79944
0 0.0069769 0.419 -0.51339 -0.31636 -0.79771
0 0.0077706 0.42 -0.47198 -0.36028 -0.80463
0 0.0085476 0.42 -0.40828 -0.41528 -0.81292
0 0.0093469 0.421 -0.31005 -0.48697 -0.81654
0 0.010126 0.421 -0.17526 -0.55172 -0.81541
0 0.010905 0.421 -0.047495 -0.59215 -0.80443
0 0.011711 0.422 -0.21194 -0.42936 -0.87791
0 0.012463 0.421 0.13637 -0.63562 -0.75986
0 0.013241 0.421 0.20929 -0.64279 -0.7369
0 0.013987 0.42 0.38343 -0.64948 -0.65663
0 0.014694 0.418 0.46703 -0.60375 -0.64605
0 0.015467 0.418 0.44594 -0.64221 -0.62346
