-0.001583 0.012699 0.429 -0.58858 -0.32984 -0.73809
-0.001583 0.013493 0.429 -0.53811 -0.32533 -0.77756
-0.0015867 0.01432 0.43 -0.57024 -0.34695 -0.74461
-0.0015904 0.015151 0.431 -0.61433 -0.3358 -0.71402
-0.0015941 0.015985 0.432 -0.65616 -0.31756 -0.68454
-0.0016089 0.018553 0.436 -0.73594 -0.13699 -0.66305
-0.0016125 0.020213 0.437 -0.62244 -0.033586 -0.78195
-0.0016162 0.02269 0.438 -0.3287 -0.082303 -0.94084
-0.0008524 -0.10001 0.462 -0.34998 0.43315 -0.8306
-0.00085424 -0.099367 0.463 -0.15422 0.42845 -0.89031
-0.00085424 -0.098511 0.463 -0.2095 0.4166 -0.88462
-0.00085424 -0.097654 0.463 -0.22417 0.4089 -0.88462
-0.00085424 -0.096797 0.463 -0.22056 0.40577 -0.88696
-0.00085424 -0.095941 0.463 -0.19812 0.3976 -0.89592
-0.00085609 -0.09529 0.464 -0.16909 0.38442 -0.90754
-0.00085609 -0.094431 0.464 -0.14388 0.37851 -0.91435
-0.00085609 -0.093573 0.464 -0.10791 0.36731 -0.92382
-0.00085609 -0.092714 0.464 -0.043928 0.36834 -0.92865
-0.00085609 -0.091856 0.464 0.031526 0.3584 -0.93304
-0.00085609 -0.090997 0.464 0.14215 0.34949 -0.92609
-0.00085609 -0.090139 0.464 0.25754 0.3404 -0.90432
-0.00085609 -0.08928 0.464 0.34919 0.31412 -0.88283
-0.00085424 -0.088231 0.463 0.46845 0.30674 -0.82853
-0.00085424 -0.087375 0.463 0.52375 0.27586 -0.80597
-0.0008524 -0.086331 0.462 0.59698 0.26985 -0.75551
-0.00085055 -0.085291 0.461 0.64231 0.2605 -0.72081
-0.00084871 -0.084255 0.46 0.67211 0.23257 -0.70297
-0.00084686 -0.083223 0.459 0.69838 0.19941 -0.68739
-0.00084686 -0.082374 0.459 0.66281 0.24983 -0.70588
-0.00084502 -0.081347 0.458 0.66673 0.23898 -0.70594
-0.00084317 -0.080324 0.457 0.6777 0.21405 -0.70349
-0.00078782 -0.060041 0.427 0.55644 -0.53584 -0.63502
-0.00078598 -0.059112 0.426 0.52722 -0.55836 -0.64053
-0.00078598 -0.058324 0.426 0.61961 -0.52111 -0.58696
-0.00078413 -0.057401 0.425 0.60678 -0.53559 -0.58734
-0.00078229 -0.056481 0.424 0.60953 -0.5401 -0.58031
-0.00078044 -0.055565 0.423 0.60433 -0.53011 -0.59479
-0.0007786 -0.054653 0.422 0.5867 -0.51245 -0.62704
-0.00077675 -0.053745 0.421 0.54895 -0.47632 -0.68686
-0.00077491 -0.05284 0.42 0.50331 -0.44855 -0.73857
-0.00077491 -0.052063 0.42 0.50923 -0.48044 -0.71405
-0.00077306 -0.051164 0.419 0.45956 -0.45578 -0.76228
-0.00077306 -0.050389 0.419 0.45405 -0.4827 -0.74889
-0.00077122 -0.049495 0.418 0.39854 -0.46664 -0.78957
-0.00077122 -0.048722 0.418 0.38855 -0.48889 -0.78103
-0.00077122 -0.047948 0.418 0.36902 -0.49808 -0.78469
-0.00076937 -0.047062 0.417 0.33183 -0.49608 -0.80237
-0.00076937 -0.04629 0.417 0.31088 -0.5012 -0.80756
-0.00076937 -0.045519 0.417 0.28886 -0.5065 -0.81242
-0.00076753 -0.04464 0.416 0.2669 -0.50948 -0.81805
-0.00076753 -0.04387 0.416 0.25456 -0.51124 -0.82088
-0.00076753 -0.043101 0.416 0.23067 -0.51758 -0.82396
-0.00076753 -0.042331 0.416 0.21243 -0.52296 -0.82546
-0.00076753 -0.041562 0.416 0.18503 -0.52593 -0.83016
-0.00076753 -0.040792 0.416 0.16309 -0.52992 -0.83222
-0.00076568 -0.039926 0.415 0.14398 -0.53306 -0.83374
-0.00076568 -0.039158 0.415 0.12428 -0.53705 -0.83435
-0.00076568 -0.03839 0.415 0.11046 -0.54362 -0.83203
-0.00076568 -0.037623 0.415 0.085955 -0.5518 -0.82953
-0.00076568 -0.036855 0.415 0.063583 -0.55459 -0.82969
-0.00076568 -0.036087 0.415 0.04371 -0.56132 -0.82645
-0.00076568 -0.035319 0.415 0.038212 -0.56628 -0.82332
-0.00076568 -0.034551 0.415 0.029217 -0.57124 -0.82026
-0.00076568 -0.033784 0.415 0.031001 -0.57062 -0.82063
-0.00076568 -0.033016 0.415 0.023035 -0.57074 -0.82081
-0.00076568 -0.032248 0.415 0.038904 -0.57224 -0.81916
-0.00076568 -0.03148 0.415 0.058388 -0.56992 -0.81963
-0.00076568 -0.030712 0.415 0.075991 -0.56924 -0.81865
-0.00076568 -0.029944 0.415 0.097505 -0.5622 -0.82124
-0.00076568 -0.029177 0.415 0.11131 -0.5541 -0.82498
-0.00076384 -0.02834 0.414 0.11569 -0.54733 -0.82888
-0.00076384 -0.027574 0.414 0.12016 -0.53696 -0.835
-0.00076384 -0.026809 0.414 0.1148 -0.52698 -0.84209
-0.00076384 -0.026043 0.414 0.094817 -0.51684 -0.85082
-0.00076384 -0.025277 0.414 0.066812 -0.50988 -0.85765
-0.00076384 -0.024511 0.414 0.032718 -0.50246 -0.86398
-0.00076384 -0.023745 0.414 0.01412 -0.49283 -0.87001
-0.00076384 -0.022979 0.414 -0.011354 -0.48497 -0.87446
-0.00076384 -0.022213 0.414 -0.036112 -0.47669 -0.87833
-0.00076384 -0.021447 0.414 -0.073322 -0.4691 -0.8801
-0.00076384 -0.020681 0.414 -0.09337 -0.46461 -0.88058
-0.00076384 -0.019915 0.414 -0.11537 -0.45832 -0.88127
-0.00076384 -0.019149 0.414 -0.13161 -0.45364 -0.88142
-0.00076384 -0.018383 0.414 -0.14063 -0.44551 -0.88416
-0.00076568 -0.01766 0.415 -0.14183 -0.4377 -0.88786
-0.00076568 -0.016892 0.415 -0.1512 -0.43708 -0.88662
-0.00076568 -0.016124 0.415 -0.1532 -0.43541 -0.8871
-0.00076568 -0.015356 0.415 -0.14119 -0.43388 -0.88984
-0.00076568 -0.014588 0.415 -0.13081 -0.43451 -0.89112
-0.00076568 -0.013821 0.415 -0.11279 -0.43548 -0.89311
-0.00076568 -0.013053 0.415 -0.11819 -0.43984 -0.89026
-0.00076568 -0.012285 0.415 -0.12068 -0.44507 -0.88733
-0.00076568 -0.011517 0.415 -0.12921 -0.45666 -0.88021
-0.00076568 -0.010749 0.415 -0.14422 -0.46531 -0.87332
-0.00076753 -0.010006 0.416 -0.17705 -0.47699 -0.86089
-0.00076753 -0.0092359 0.416 -0.20881 -0.4892 -0.84681
-0.00076753 -0.0084662 0.416 -0.23839 -0.49519 -0.83544
-0.00076753 -0.0076966 0.416 -0.27627 -0.50172 -0.81973
-0.00076753 -0.0069269 0.416 -0.31004 -0.50695 -0.80429
-0.00076937 -0.0061721 0.417 -0.33331 -0.51067 -0.79254
-0.00076937 -0.0054006 0.417 -0.34821 -0.5137 -0.78413
-0.00076937 -0.004629 0.417 -0.36308 -0.50793 -0.78114
-0.00077122 -0.0038668 0.418 -0.40172 -0.51327 -0.7584
-0.00077122 -0.0030934 0.418 -0.43316 -0.49404 -0.75386
-0.00077306 -0.0023256 0.419 -0.46055 -0.48309 -0.74466
-0.00077491 -0.0015541 0.42 -0.4898 -0.4617 -0.73954
-0.00077491 -0.00077706 0.42 -0.51991 -0.4348 -0.73528
-0.00077491 0 0.42 -0.5328 -0.41564 -0.73713
-0.00077675 0.00077891 0.421 -0.54837 -0.39251 -0.73839
-0.0007786 0.0015615 0.422 -0.54257 -0.35221 -0.7626
-0.0007786 0.0023423 0.422 -0.55439 -0.34229 -0.75861
-0.00078044 0.0031304 0.423 -0.54835 -0.32028 -0.77249
-0.00078044 0.003913 0.423 -0.54508 -0.3144 -0.7772
-0.00078229 0.0047068 0.424 -0.53264 -0.31871 -0.78404
-0.00078413 0.0055042 0.425 -0.52858 -0.32708 -0.78334
-0.00078413 0.0062905 0.425 -0.52487 -0.33146 -0.78399
-0.00078598 0.0070934 0.426 -0.519 -0.34176 -0.78348
-0.00078598 0.0078816 0.426 -0.51839 -0.35007 -0.78021
-0.00078598 0.0086698 0.426 -0.50733 -0.3479 -0.7884
-0.00078782 0.0094801 0.427 -0.51977 -0.35486 -0.77712
-0.00078967 0.010294 0.428 -0.53427 -0.35664 -0.76639
-0.00078967 0.011086 0.428 -0.54038 -0.34854 -0.76584
-0.00079151 0.011906 0.429 -0.57163 -0.35164 -0.74134
-0.00079151 0.012699 0.429 -0.56544 -0.33593 -0.75328
-0.00079336 0.013525 0.43 -0.59922 -0.34506 -0.7224
-0.0007952 0.014353 0.431 -0.63487 -0.3384 -0.69456
-0.00079705 0.015186 0.432 -0.68742 -0.31572 -0.65404
-0.00079705 0.015985 0.432 -0.60872 -0.32842 -0.72222
-0.00080627 0.018596 0.437 -0.59234 0.20237 -0.77986
-0.00080627 0.019404 0.437 -0.68097 -0.045496 -0.7309
0 -0.099153 0.462 -0.3085 0.39278 -0.86634
0 -0.098511 0.463 -0.13456 0.38277 -0.91399
0 -0.097654 0.463 -0.18781 0.37151 -0.90923
0 -0.096797 0.463 -0.21832 0.36788 -0.90388
0 -0.095941 0.463 -0.213 0.36419 -0.90664
0 -0.095084 0.463 -0.18891 0.35201 -0.91673
0 -0.094431 0.464 -0.16598 0.3435 -0.92437
0 -0.093573 0.464 -0.12171 0.33624 -0.93388
0 -0.092714 0.464 -0.05361 0.33346 -0.94124
0 -0.091856 0.464 0.031937 0.32486 -0.94522
0 -0.090997 0.464 0.14386 0.31761 -0.93725
0 -0.090139 0.464 0.26124 0.3098 -0.91421
0 -0.089088 0.463 0.37667 0.29864 -0.87689
0 -0.088231 0.463 0.46633 0.27532 -0.84067
0 -0.087375 0.463 0.50699 0.24241 -0.82716
0 -0.086331 0.462 0.58629 0.24328 -0.77271
0 -0.085291 0.461 0.6355 0.24594 -0.73188
0 -0.084255 0.46 0.66456 0.23298 -0.70999
0 -0.083223 0.459 0.68721 0.20463 -0.69705
0 -0.082194 0.458 0.70253 0.17114 -0.69077
0 -0.081169 0.457 0.71207 0.13032 -0.68991
0 -0.080324 0.457 0.6539 0.22901 -0.72109
0 -0.079304 0.456 0.66723 0.20111 -0.71719
0 -0.060181 0.428 0.58917 -0.53621 -0.60445
0 -0.059251 0.427 0.55245 -0.55568 -0.62131
0 -0.058324 0.426 0.53333 -0.57039 -0.62467
0 -0.057401 0.425 0.54437 -0.57392 -0.61178
0 -0.056614 0.425 0.59143 -0.55458 -0.58536
0 -0.055697 0.424 0.59774 -0.55988 -0.57379
0 -0.054783 0.423 0.59421 -0.55252 -0.58449
0 -0.053872 0.422 0.57845 -0.53216 -0.61823
0 -0.052966 0.421 0.53201 -0.50065 -0.68287
0 -0.052063 0.42 0.47782 -0.47399 -0.73961
0 -0.051286 0.42 0.48419 -0.50553 -0.71414
0 -0.050389 0.419 0.42918 -0.48328 -0.76305
0 -0.049613 0.419 0.41974 -0.5109 -0.7502
0 -0.048722 0.418 0.36411 -0.49538 -0.78868
0 -0.047948 0.418 0.35166 -0.51509 -0.78168
0 -0.047175 0.418 0.33578 -0.52476 -0.78223
0 -0.04629 0.417 0.29617 -0.51496 -0.80442
0 -0.045519 0.417 0.279 -0.52289 -0.80545
0 -0.044747 0.417 0.25629 -0.52793 -0.8097
0 -0.043976 0.417 0.2493 -0.52852 -0.81149
0 -0.043101 0.416 0.23073 -0.53192 -0.81475
0 -0.042331 0.416 0.21214 -0.53546 -0.81748
0 -0.041562 0.416 0.1886 -0.53686 -0.82232
0 -0.040792 0.416 0.17041 -0.53992 -0.82429
0 -0.040022 0.416 0.14948 -0.54302 -0.82631
0 -0.039253 0.416 0.12738 -0.54719 -0.82726
0 -0.038483 0.416 0.11123 -0.55196 -0.82642
0 -0.037713 0.416 0.089626 -0.55928 -0.82412
0 -0.036855 0.415 0.064816 -0.5649 -0.82261
0 -0.036087 0.415 0.037213 -0.5699 -0.82087
0 -0.035319 0.415 0.029158 -0.57361 -0.81861
0 -0.034551 0.415 0.018503 -0.57729 -0.81633
0 -0.033784 0.415 0.019404 -0.57611 -0.81714
0 -0.033016 0.415 0.011467 -0.57618 -0.81724
0 -0.032248 0.415 0.028175 -0.57774 -0.81573
0 -0.03148 0.415 0.053815 -0.57362 -0.81736
0 -0.030712 0.415 0.07767 -0.57035 -0.81772
0 -0.029944 0.415 0.099939 -0.56446 -0.81939
0 -0.029177 0.415 0.11898 -0.55604 -0.82259
0 -0.028409 0.415 0.12847 -0.54803 -0.82653
0 -0.027641 0.415 0.13734 -0.53801 -0.83167
0 -0.026873 0.415 0.13478 -0.52863 -0.83809
0 -0.026105 0.415 0.11611 -0.51875 -0.847
0 -0.025277 0.414 0.083135 -0.51401 -0.85375
0 -0.024511 0.414 0.047579 -0.50425 -0.86225
0 -0.023745 0.414 0.020688 -0.49419 -0.86911
0 -0.022979 0.414 -0.0085116 -0.4857 -0.87408
0 -0.022213 0.414 -0.037061 -0.47667 -0.8783
0 -0.021499 0.415 -0.073185 -0.46823 -0.88057
0 -0.020731 0.415 -0.093278 -0.46225 -0.88183
0 -0.019963 0.415 -0.12084 -0.4564 -0.88153
0 -0.019195 0.415 -0.13685 -0.45395 -0.88046
0 -0.018427 0.415 -0.13976 -0.45226 -0.88087
0 -0.01766 0.415 -0.1351 -0.45256 -0.88144
0 -0.016892 0.415 -0.14417 -0.45497 -0.87876
0 -0.016124 0.415 -0.14102 -0.45963 -0.87684
0 -0.015356 0.415 -0.12997 -0.45885 -0.87896
0 -0.014588 0.415 -0.12135 -0.46232 -0.87837
0 -0.013821 0.415 -0.11067 -0.4688 -0.87634
0 -0.013084 0.416 -0.11745 -0.47411 -0.8726
0 -0.012315 0.416 -0.12072 -0.47968 -0.8691
0 -0.011545 0.416 -0.13471 -0.48731 -0.86278
0 -0.010775 0.416 -0.1591 -0.49523 -0.85407
0 -0.010006 0.416 -0.19051 -0.50389 -0.8425
0 -0.0092359 0.416 -0.22401 -0.51265 -0.82886
0 -0.0084662 0.416 -0.25376 -0.51577 -0.81828
0 -0.0077151 0.417 -0.28538 -0.52002 -0.80507
0 -0.0069436 0.417 -0.31367 -0.52257 -0.7928
0 -0.0061721 0.417 -0.33087 -0.52138 -0.78657
0 -0.0054135 0.418 -0.36197 -0.52625 -0.76944
0 -0.0046401 0.418 -0.37999 -0.52322 -0.76279
0 -0.003876 0.419 -0.40308 -0.51635 -0.75559
0 -0.0031008 0.419 -0.43028 -0.49887 -0.75232
0 -0.0023256 0.419 -0.45011 -0.48305 -0.75104
0 -0.0015541 0.42 -0.47362 -0.46355 -0.74887
0 -0.00077706 0.42 -0.50065 -0.43729 -0.74708
0 0 0.421 -0.51319 -0.41706 -0.75013
0 0.00078076 0.422 -0.5102 -0.37736 -0.77285
0 0.0015615 0.422 -0.53215 -0.36745 -0.76275
0 0.0023478 0.423 -0.52911 -0.34001 -0.77745
0 0.0031304 0.423 -0.54094 -0.33569 -0.77117
0 0.0039223 0.424 -0.54155 -0.32973 -0.7733
0 0.0047068 0.424 -0.52805 -0.32727 -0.78362
0 0.0055042 0.425 -0.53485 -0.34344 -0.772
0 0.0062905 0.425 -0.52623 -0.33966 -0.77956
0 0.0070934 0.426 -0.52683 -0.35984 -0.77004
0 0.0079001 0.427 -0.52451 -0.36716 -0.76817
0 0.0086901 0.427 -0.51377 -0.37778 -0.77028
0 0.0094801 0.427 -0.50999 -0.37441 -0.77442
0 0.010294 0.428 -0.527 -0.3769 -0.76172
0 0.011086 0.428 -0.51448 -0.36515 -0.77587
0 0.011906 0.429 -0.54981 -0.37211 -0.74782
0 0.012699 0.429 -0.52484 -0.34623 -0.7776
0 0.013525 0.43 -0.56178 -0.36219 -0.74378
0 0.014353 0.431 -0.59468 -0.36105 -0.71833
0 0.016022 0.433 -0.69149 -0.32515 -0.64508
0 0.016862 0.434 -0.71372 -0.31047 -0.62786
0 0.017706 0.435 -0.71972 -0.31965 -0.61629
0 0.018596 0.437 -0.72386 -0.18249 -0.66538
0.0008524 -0.099153 0.462 -0.24133 0.35222 -0.90427
0.0008524 -0.098298 0.462 -0.2969 0.34599 -0.89003
0.0008524 -0.097443 0.462 -0.31176 0.3399 -0.88729
0.0008524 -0.096588 0.462 -0.2927 0.34029 -0.89361
0.00085424 -0.095941 0.463 -0.22157 0.33144 -0.91709
0.00085424 -0.095084 0.463 -0.20056 0.32143 -0.92545
0.00085424 -0.094228 0.463 -0.17235 0.31675 -0.93272
0.00085424 -0.093371 0.463 -0.12653 0.31409 -0.94092
0.00085609 -0.092714 0.464 -0.055863 0.31142 -0.94863
0.00085609 -0.091856 0.464 0.033076 0.30511 -0.95174
0.00085609 -0.090997 0.464 0.14405 0.29549 -0.94442
0.00085424 -0.089944 0.463 0.26137 0.28555 -0.92204
0.00085424 -0.089088 0.463 0.37647 0.26938 -0.8864
0.00085424 -0.088231 0.463 0.45708 0.2371 -0.85724
0.0008524 -0.087186 0.462 0.54577 0.23198 -0.80518
0.00085055 -0.086144 0.461 0.60547 0.2242 -0.76364
0.00085055 -0.085291 0.461 0.62929 0.21717 -0.74622
0.00084871 -0.084255 0.46 0.66019 0.20837 -0.72162
0.00084686 -0.083223 0.459 0.67967 0.18949 -0.70862
0.00084502 -0.082194 0.458 0.69397 0.16732 -0.7003
0.00084317 -0.081169 0.457 0.70093 0.13116 -0.70107
0.00084133 -0.080148 0.456 0.70936 0.097701 -0.69805
0.00084133 -0.079304 0.456 0.64654 0.20639 -0.73443
0.00078967 -0.060181 0.428 0.46259 -0.59247 -0.65954
0.00078967 -0.059389 0.428 0.57544 -0.55384 -0.60177
0.00078782 -0.058461 0.427 0.5399 -0.57691 -0.61293
0.00078598 -0.057536 0.426 0.53588 -0.58671 -0.60713
0.00078598 -0.056747 0.426 0.57029 -0.56705 -0.59433
0.00078413 -0.055828 0.425 0.57631 -0.5758 -0.57992
0.00078229 -0.054912 0.424 0.58888 -0.5806 -0.56225
0.00078044 -0.054 0.423 0.58594 -0.57102 -0.57498
0.0007786 -0.053092 0.422 0.56446 -0.55556 -0.61052
0.00077675 -0.052187 0.421 0.50811 -0.52137 -0.68556
0.00077675 -0.051408 0.421 0.50944 -0.54443 -0.66638
0.00077491 -0.050509 0.42 0.45585 -0.52906 -0.71574
0.00077306 -0.049613 0.419 0.38881 -0.51065 -0.76685
0.00077306 -0.048838 0.419 0.38414 -0.53497 -0.75249
0.00077306 -0.048063 0.419 0.3671 -0.54657 -0.75267
0.00077122 -0.047175 0.418 0.32013 -0.537 -0.78048
0.00077122 -0.046401 0.418 0.30221 -0.54551 -0.78172
0.00077122 -0.045628 0.418 0.27851 -0.55096 -0.78669
0.00077122 -0.044855 0.418 0.25859 -0.55052 -0.79377
0.00076937 -0.043976 0.417 0.24044 -0.54586 -0.80263
0.00076937 -0.043204 0.417 0.22326 -0.54883 -0.80557
0.00076937 -0.042433 0.417 0.20682 -0.55027 -0.80897
0.00076937 -0.041661 0.417 0.18117 -0.55074 -0.81478
0.00076753 -0.040792 0.416 0.16092 -0.55422 -0.81667
0.00076753 -0.040022 0.416 0.14265 -0.5576 -0.81776
0.00076753 -0.039253 0.416 0.12422 -0.56139 -0.81818
0.00076753 -0.038483 0.416 0.10726 -0.56727 -0.81652
0.00076753 -0.037713 0.416 0.085079 -0.57379 -0.81457
0.00076753 -0.036944 0.416 0.059633 -0.57719 -0.81443
0.00076753 -0.036174 0.416 0.036705 -0.58303 -0.81162
0.00076753 -0.035404 0.416 0.028715 -0.58833 -0.80811
0.00076753 -0.034635 0.416 0.018194 -0.59354 -0.8046
0.00076753 -0.033865 0.416 0.023425 -0.5918 -0.80575
0.00076753 -0.033095 0.416 0.019089 -0.59185 -0.80582
0.00076753 -0.032326 0.416 0.033878 -0.58993 -0.80674
0.00076753 -0.031556 0.416 0.057534 -0.58418 -0.80958
0.00076753 -0.030786 0.416 0.084081 -0.57559 -0.81341
0.00076753 -0.030017 0.416 0.10835 -0.56483 -0.81807
0.00076753 -0.029247 0.416 0.1285 -0.55324 -0.82305
0.00076753 -0.028477 0.416 0.13834 -0.54204 -0.82889
0.00076568 -0.027641 0.415 0.14684 -0.53092 -0.8346
0.00076568 -0.026873 0.415 0.14276 -0.51957 -0.84242
0.00076568 -0.026105 0.415 0.12158 -0.50701 -0.85332
0.00076568 -0.025338 0.415 0.094624 -0.50234 -0.85948
0.00076568 -0.02457 0.415 0.064555 -0.49448 -0.86679
0.00076568 -0.023802 0.415 0.03208 -0.48458 -0.87416
0.00076568 -0.023034 0.415 0.00094917 -0.47611 -0.87938
0.00076568 -0.022266 0.415 -0.0257 -0.47081 -0.88186
0.00076568 -0.021499 0.415 -0.065645 -0.46773 -0.88143
0.00076568 -0.020731 0.415 -0.089383 -0.46465 -0.88097
0.00076568 -0.019963 0.415 -0.11564 -0.46412 -0.87819
0.00076568 -0.019195 0.415 -0.13144 -0.46394 -0.87606
0.00076568 -0.018427 0.415 -0.13509 -0.46445 -0.87524
0.00076568 -0.01766 0.415 -0.13208 -0.46757 -0.87403
0.00076568 -0.016892 0.415 -0.14267 -0.47269 -0.8696
0.00076753 -0.016163 0.416 -0.14008 -0.47773 -0.86727
0.00076753 -0.015393 0.416 -0.13428 -0.48168 -0.866
0.00076753 -0.014623 0.416 -0.12557 -0.4879 -0.86382
0.00076753 -0.013854 0.416 -0.11404 -0.49557 -0.86105
0.00076753 -0.013084 0.416 -0.12466 -0.49908 -0.85754
0.00076753 -0.012315 0.416 -0.13107 -0.50819 -0.85121
0.00076753 -0.011545 0.416 -0.14764 -0.51168 -0.8464
0.00076753 -0.010775 0.416 -0.17181 -0.52208 -0.83541
0.00076753 -0.010006 0.416 -0.20136 -0.52988 -0.82382
0.00076937 -0.0092581 0.417 -0.23148 -0.53398 -0.81319
0.00076937 -0.0084866 0.417 -0.25691 -0.53403 -0.80549
0.00076937 -0.0077151 0.417 -0.28603 -0.53387 -0.79572
0.00076937 -0.0069436 0.417 -0.31062 -0.52831 -0.79019
0.00077122 -0.0061869 0.418 -0.34271 -0.54048 -0.7684
0.00077122 -0.0054135 0.418 -0.3618 -0.53546 -0.76314
0.00077306 -0.0046512 0.419 -0.37671 -0.53735 -0.75455
0.00077306 -0.003876 0.419 -0.39298 -0.52901 -0.75214
0.00077491 -0.0031082 0.42 -0.41474 -0.5142 -0.75073
0.00077491 -0.0023312 0.42 -0.43513 -0.49397 -0.75276
0.00077491 -0.0015541 0.42 -0.45455 -0.47335 -0.75453
0.00077675 -0.00077891 0.421 -0.47752 -0.45058 -0.75429
0.00077675 0 0.421 -0.49016 -0.42417 -0.76146
0.0007786 0.00078076 0.422 -0.49622 -0.3958 -0.77273
0.00078044 0.0015652 0.423 -0.50003 -0.35818 -0.78847
0.00078044 0.0023478 0.423 -0.52194 -0.35308 -0.77648
0.00078229 0.0031378 0.424 -0.52877 -0.3355 -0.77964
0.00078229 0.0039223 0.424 -0.53657 -0.33368 -0.77508
0.00078413 0.0047179 0.425 -0.54304 -0.34324 -0.76635
0.00078413 0.0055042 0.425 -0.53735 -0.3448 -0.76966
0.00078598 0.0063053 0.426 -0.54279 -0.35996 -0.75882
0.00078598 0.0070934 0.426 -0.53121 -0.36259 -0.76573
0.00078782 0.0079001 0.427 -0.53252 -0.37903 -0.75681
0.00078782 0.0086901 0.427 -0.5124 -0.39177 -0.76417
0.00078967 0.0095023 0.428 -0.51293 -0.40305 -0.75792
0.00078967 0.010294 0.428 -0.50935 -0.39552 -0.76428
0.00079151 0.011112 0.429 -0.53446 -0.40107 -0.74397
0.00079336 0.011933 0.43 -0.56527 -0.40819 -0.71683
0.00079336 0.012729 0.43 -0.56469 -0.39139 -0.72659
0.0007952 0.013556 0.431 -0.59981 -0.38741 -0.7001
0.0007952 0.014353 0.431 -0.54255 -0.36836 -0.75495
0.00079889 0.015221 0.433 -0.70248 -0.3713 -0.60717
0.00080074 0.016059 0.434 -0.71922 -0.35348 -0.59815
0.00080074 0.016862 0.434 -0.6895 -0.28379 -0.66637
0.00080258 0.017706 0.435 -0.69779 -0.27303 -0.66223
0.00080812 0.020259 0.438 -0.69476 -0.17034 -0.69878
0.0017048 -0.099153 0.462 -0.15921 0.31987 -0.93399
0.0017048 -0.098298 0.462 -0.23607 0.31652 -0.91874
0.0017048 -0.097443 0.462 -0.27529 0.31175 -0.90941
0.0017048 -0.096588 0.462 -0.27989 0.31428 -0.90713
0.0017048 -0.095734 0.462 -0.25145 0.31478 -0.91525
0.0017085 -0.095084 0.463 -0.20858 0.30483 -0.92929
0.0017085 -0.094228 0.463 -0.17776 0.29936 -0.93743
0.0017085 -0.093371 0.463 -0.13354 0.29734 -0.94539
0.0017085 -0.092514 0.463 -0.064626 0.29185 -0.95428
0.0017085 -0.091658 0.463 0.028699 0.28896 -0.95691
0.0017085 -0.090801 0.463 0.14066 0.2778 -0.95029
0.0017085 -0.089944 0.463 0.25513 0.26965 -0.92855
0.0017085 -0.089088 0.463 0.36933 0.25359 -0.89403
0.0017085 -0.088231 0.463 0.43845 0.21787 -0.87195
0.0017048 -0.087186 0.462 0.53679 0.20864 -0.81751
0.0017011 -0.086144 0.461 0.60464 0.20035 -0.77089
0.0016974 -0.085106 0.46 0.64271 0.18449 -0.74357
0.0016937 -0.084072 0.459 0.66676 0.15339 -0.72932
0.0016937 -0.083223 0.459 0.6758 0.17213 -0.7167
0.00169 -0.082194 0.458 0.68913 0.15787 -0.70723
0.0016863 -0.081169 0.457 0.69369 0.12655 -0.70907
0.0016827 -0.080148 0.456 0.6961 0.098619 -0.71114
0.0016827 -0.079304 0.456 0.6297 0.20396 -0.74959
0.0016753 -0.078117 0.454 0.71382 0.0047162 -0.70032
0.001583 -0.060322 0.429 0.50028 -0.60754 -0.61694
0.0015793 -0.059389 0.428 0.45225 -0.61429 -0.64662
0.0015793 -0.058598 0.428 0.55279 -0.5816 -0.5968
0.0015756 -0.057671 0.427 0.53804 -0.59399 -0.59807
0.001572 -0.056747 0.426 0.54489 -0.59679 -0.58902
0.001572 -0.055959 0.426 0.55493 -0.58669 -0.58978
0.0015683 -0.055042 0.425 0.5712 -0.59286 -0.56767
0.0015646 -0.054128 0.424 0.58195 -0.59571 -0.5536
0.0015609 -0.053217 0.423 0.57327 -0.5893 -0.56929
0.0015572 -0.052311 0.422 0.54766 -0.56417 -0.61789
0.0015535 -0.051408 0.421 0.48954 -0.53251 -0.6905
0.0015535 -0.050629 0.421 0.48356 -0.56079 -0.67208
0.0015498 -0.049732 0.42 0.42083 -0.54513 -0.72508
0.0015498 -0.048955 0.42 0.40477 -0.56475 -0.71918
0.0015461 -0.048063 0.419 0.34679 -0.55004 -0.75973
0.0015461 -0.047288 0.419 0.33273 -0.56335 -0.75626
0.0015461 -0.046512 0.419 0.3122 -0.56807 -0.76147
0.0015424 -0.045628 0.418 0.27007 -0.56396 -0.78039
0.0015424 -0.044855 0.418 0.254 -0.56594 -0.78435
0.0015424 -0.044081 0.418 0.24248 -0.56534 -0.78841
0.0015387 -0.043204 0.417 0.21178 -0.56328 -0.79867
0.0015387 -0.042433 0.417 0.1984 -0.56954 -0.79766
0.0015387 -0.041661 0.417 0.1772 -0.57215 -0.80078
0.0015387 -0.04089 0.417 0.15166 -0.57747 -0.8022
0.0015387 -0.040118 0.417 0.12947 -0.58101 -0.80353
0.0015387 -0.039347 0.417 0.10801 -0.58421 -0.80438
0.0015387 -0.038575 0.417 0.088985 -0.58757 -0.80427
0.0015387 -0.037804 0.417 0.070693 -0.59235 -0.80257
0.0015387 -0.037032 0.417 0.045595 -0.5971 -0.80087
0.0015387 -0.036261 0.417 0.023982 -0.60302 -0.79736
0.0015351 -0.035404 0.416 0.022293 -0.60451 -0.79628
0.0015351 -0.034635 0.416 0.017998 -0.60511 -0.79594
0.0015387 -0.033946 0.417 0.029222 -0.59912 -0.80013
0.0015387 -0.033175 0.417 0.031019 -0.59633 -0.80214
0.0015387 -0.032403 0.417 0.051004 -0.59139 -0.80477
0.0015387 -0.031632 0.417 0.078103 -0.58415 -0.80788
0.0015387 -0.03086 0.417 0.1064 -0.57401 -0.8119
0.0015351 -0.030017 0.416 0.13089 -0.56328 -0.81583
0.0015351 -0.029247 0.416 0.15387 -0.5494 -0.82127
0.0015351 -0.028477 0.416 0.16405 -0.53614 -0.82803
0.0015351 -0.027708 0.416 0.16991 -0.52355 -0.83488
0.0015351 -0.026938 0.416 0.16574 -0.51482 -0.84113
0.0015351 -0.026168 0.416 0.1382 -0.50837 -0.84998
0.0015314 -0.025338 0.415 0.10915 -0.50365 -0.85699
0.0015314 -0.02457 0.415 0.069915 -0.4992 -0.86366
0.0015314 -0.023802 0.415 0.032826 -0.49384 -0.86893
0.0015314 -0.023034 0.415 -0.0028295 -0.48626 -0.87381
0.0015314 -0.022266 0.415 -0.034042 -0.48093 -0.8761
0.0015314 -0.021499 0.415 -0.073668 -0.47846 -0.87502
0.0015314 -0.020731 0.415 -0.09237 -0.47843 -0.87325
0.0015314 -0.019963 0.415 -0.11364 -0.47953 -0.87013
0.0015351 -0.019241 0.416 -0.12889 -0.48061 -0.86741
0.0015351 -0.018472 0.416 -0.13141 -0.48329 -0.86554
0.0015351 -0.017702 0.416 -0.13215 -0.48536 -0.86427
0.0015351 -0.016932 0.416 -0.14057 -0.49249 -0.85889
0.0015351 -0.016163 0.416 -0.14122 -0.49521 -0.85722
0.0015351 -0.015393 0.416 -0.13844 -0.4961 -0.85716
0.0015351 -0.014623 0.416 -0.13264 -0.50062 -0.85545
0.0015351 -0.013854 0.416 -0.12836 -0.50837 -0.85152
0.0015351 -0.013084 0.416 -0.13506 -0.51328 -0.84753
0.0015351 -0.012315 0.416 -0.13685 -0.52238 -0.84166
0.0015387 -0.011573 0.417 -0.14771 -0.52454 -0.83848
0.0015387 -0.010801 0.417 -0.17518 -0.53295 -0.82782
0.0015387 -0.01003 0.417 -0.2075 -0.53572 -0.81851
0.0015387 -0.0092581 0.417 -0.23458 -0.53619 -0.81085
0.0015387 -0.0084866 0.417 -0.25504 -0.53217 -0.80731
0.0015424 -0.0077336 0.418 -0.30044 -0.5413 -0.78532
0.0015424 -0.0069602 0.418 -0.32745 -0.54165 -0.7742
0.0015461 -0.0062017 0.419 -0.34908 -0.54413 -0.76293
0.0015461 -0.0054265 0.419 -0.3703 -0.54009 -0.75577
0.0015461 -0.0046512 0.419 -0.38017 -0.53606 -0.75373
0.0015498 -0.0038853 0.42 -0.3931 -0.52882 -0.75221
0.0015498 -0.0031082 0.42 -0.40573 -0.51539 -0.75482
0.0015535 -0.0023367 0.421 -0.42091 -0.49628 -0.75931
0.0015535 -0.0015578 0.421 -0.43767 -0.47768 -0.76176
0.0015535 -0.00077891 0.421 -0.45842 -0.45473 -0.76359
0.0015572 0 0.422 -0.46131 -0.42539 -0.77861
0.0015572 0.00078076 0.422 -0.47645 -0.41096 -0.77725
0.0015609 0.0015652 0.423 -0.49025 -0.38563 -0.78163
0.0015609 0.0023478 0.423 -0.50502 -0.36923 -0.78014
0.0015646 0.0031378 0.424 -0.52311 -0.35853 -0.77319
0.0015646 0.0039223 0.424 -0.5241 -0.34017 -0.78077
0.0015683 0.0047179 0.425 -0.54358 -0.35591 -0.76016
0.0015683 0.0055042 0.425 -0.53156 -0.35181 -0.7705
0.001572 0.0063053 0.426 -0.54662 -0.37099 -0.75071
0.001572 0.0070934 0.426 -0.52807 -0.36888 -0.7649
0.0015756 0.0079001 0.427 -0.53317 -0.39241 -0.7495
0.0015793 0.0087105 0.428 -0.51666 -0.41764 -0.74742
0.0015793 0.0095023 0.428 -0.50442 -0.41748 -0.75582
0.001583 0.010318 0.429 -0.51732 -0.43088 -0.73941
0.001583 0.011112 0.429 -0.51207 -0.41298 -0.75314
0.0015867 0.011933 0.43 -0.54618 -0.41659 -0.72673
0.0015867 0.012729 0.43 -0.52886 -0.38655 -0.75557
0.0015904 0.013556 0.431 -0.55892 -0.38988 -0.73185
0.0015941 0.014387 0.432 -0.60245 -0.38582 -0.69871
0.0015978 0.015221 0.433 -0.67098 -0.36244 -0.64686
0.0016015 0.016059 0.434 -0.69101 -0.3511 -0.63185
0.0016125 0.020213 0.437 -0.61244 0.0088739 -0.79047
0.0025517 -0.099791 0.461 -0.28293 0.30073 -0.91078
0.0025517 -0.098938 0.461 -0.35857 0.28865 -0.88775
0.0025517 -0.098085 0.461 -0.40466 0.28401 -0.86924
0.0025572 -0.097443 0.462 -0.23923 0.27838 -0.9302
0.0025572 -0.096588 0.462 -0.26606 0.28322 -0.92141
0.0025572 -0.095734 0.462 -0.25609 0.28552 -0.92352
0.0025627 -0.095084 0.463 -0.21507 0.27416 -0.93733
0.0025627 -0.094228 0.463 -0.18282 0.27165 -0.94487
0.0025627 -0.093371 0.463 -0.133 0.26619 -0.9547
0.0025627 -0.092514 0.463 -0.067063 0.26193 -0.96275
0.0025627 -0.091658 0.463 0.028962 0.25808 -0.96569
0.0025627 -0.090801 0.463 0.13935 0.2418 -0.96027
0.0025627 -0.089944 0.463 0.24838 0.23227 -0.94041
0.0025627 -0.089088 0.463 0.3629 0.21766 -0.90605
0.0025572 -0.088041 0.462 0.46779 0.20373 -0.86004
0.0025572 -0.087186 0.462 0.52353 0.17169 -0.83453
0.0025517 -0.086144 0.461 0.59894 0.16616 -0.78337
0.0025461 -0.085106 0.46 0.64073 0.15481 -0.75199
0.0025406 -0.084072 0.459 0.66628 0.13725 -0.73296
0.0025351 -0.083042 0.458 0.68558 0.10742 -0.72003
0.0025351 -0.082194 0.458 0.68533 0.13714 -0.7152
0.0025295 -0.081169 0.457 0.69019 0.11391 -0.7146
0.002524 -0.080148 0.456 0.68886 0.09447 -0.71871
0.0025185 -0.07913 0.455 0.69731 0.064553 -0.71386
0.0025129 -0.078117 0.454 0.70383 0.01119 -0.71028
0.0025129 -0.077277 0.454 0.66129 0.12765 -0.73919
0.0025074 -0.076268 0.453 0.68838 0.083187 -0.72056
0.0023745 -0.059528 0.429 0.48771 -0.61889 -0.61572
0.002369 -0.058598 0.428 0.44757 -0.62177 -0.64271
0.002369 -0.057806 0.428 0.54259 -0.59301 -0.59493
0.0023635 -0.056881 0.427 0.54049 -0.59904 -0.59077
0.0023579 -0.055959 0.426 0.55412 -0.59878 -0.57828
0.0023579 -0.055171 0.426 0.55588 -0.59276 -0.58278
0.0023524 -0.054255 0.425 0.57479 -0.59876 -0.55776
0.0023469 -0.053343 0.424 0.57753 -0.60172 -0.55171
0.0023413 -0.052435 0.423 0.56581 -0.59227 -0.57365
0.0023358 -0.05153 0.422 0.52564 -0.57043 -0.63113
0.0023303 -0.050629 0.421 0.45936 -0.54498 -0.70142
0.0023303 -0.04985 0.421 0.45196 -0.56993 -0.68623
0.0023247 -0.048955 0.42 0.38224 -0.55514 -0.73873
0.0023247 -0.048178 0.42 0.36989 -0.57158 -0.73244
0.0023192 -0.047288 0.419 0.31301 -0.55506 -0.77067
0.0023192 -0.046512 0.419 0.30267 -0.57068 -0.76336
0.0023192 -0.045737 0.419 0.2791 -0.57846 -0.76648
0.0023192 -0.044962 0.419 0.25675 -0.58121 -0.77219
0.0023137 -0.044081 0.418 0.23703 -0.57316 -0.78442
0.0023137 -0.043308 0.418 0.21973 -0.57654 -0.78697
0.0023137 -0.042535 0.418 0.20361 -0.58049 -0.7884
0.0023137 -0.041761 0.418 0.17902 -0.57892 -0.79549
0.0023137 -0.040988 0.418 0.15015 -0.58619 -0.79614
0.0023081 -0.040118 0.417 0.12048 -0.59391 -0.79546
0.0023081 -0.039347 0.417 0.10069 -0.59905 -0.79436
0.0023081 -0.038575 0.417 0.079102 -0.60562 -0.79182
0.0023081 -0.037804 0.417 0.059344 -0.61124 -0.78922
0.0023081 -0.037032 0.417 0.033793 -0.6167 -0.78648
0.0023081 -0.036261 0.417 0.01686 -0.61956 -0.78477
0.0023081 -0.035489 0.417 0.019347 -0.6216 -0.7831
0.0023081 -0.034718 0.417 0.019307 -0.62365 -0.78147
0.0023081 -0.033946 0.417 0.034475 -0.62134 -0.78278
0.0023081 -0.033175 0.417 0.04464 -0.61903 -0.7841
0.0023081 -0.032403 0.417 0.062819 -0.60952 -0.79028
0.0023081 -0.031632 0.417 0.087191 -0.59927 -0.79578
0.0023081 -0.03086 0.417 0.12139 -0.58555 -0.8015
0.0023081 -0.030089 0.417 0.14614 -0.5682 -0.80981
0.0023081 -0.029317 0.417 0.16774 -0.55087 -0.81756
0.0023081 -0.028546 0.417 0.17501 -0.53421 -0.82703
0.0023026 -0.027708 0.416 0.18114 -0.52313 -0.83278
0.0023026 -0.026938 0.416 0.1762 -0.51452 -0.83918
0.0023026 -0.026168 0.416 0.14723 -0.50703 -0.84926
0.0023026 -0.025399 0.416 0.11571 -0.49756 -0.85968
0.0023026 -0.024629 0.416 0.078404 -0.49239 -0.86684
0.0023026 -0.023859 0.416 0.032797 -0.49152 -0.87025
0.0023026 -0.02309 0.416 -0.0065748 -0.48893 -0.8723
0.0023026 -0.02232 0.416 -0.03654 -0.49146 -0.87013
0.0023026 -0.02155 0.416 -0.074623 -0.49394 -0.86629
0.0023026 -0.020781 0.416 -0.091998 -0.49671 -0.86303
0.0023026 -0.020011 0.416 -0.11195 -0.49915 -0.85925
0.0023026 -0.019241 0.416 -0.12647 -0.49897 -0.85734
0.0023026 -0.018472 0.416 -0.12823 -0.49954 -0.85675
0.0023026 -0.017702 0.416 -0.12811 -0.50092 -0.85596
0.0023026 -0.016932 0.416 -0.13576 -0.50585 -0.85187
0.0023026 -0.016163 0.416 -0.13506 -0.51328 -0.84753
0.0023081 -0.01543 0.417 -0.13643 -0.51427 -0.84671
0.0023081 -0.014659 0.417 -0.13082 -0.51731 -0.84574
0.0023081 -0.013887 0.417 -0.12689 -0.52151 -0.84375
0.0023081 -0.013116 0.417 -0.13376 -0.52365 -0.84137
0.0023081 -0.012344 0.417 -0.13999 -0.53155 -0.83538
0.0023081 -0.011573 0.417 -0.1546 -0.53292 -0.83192
0.0023081 -0.010801 0.417 -0.18453 -0.53885 -0.82194
0.0023081 -0.01003 0.417 -0.21251 -0.53927 -0.81488
0.0023137 -0.0092803 0.418 -0.24974 -0.54431 -0.80085
0.0023137 -0.0085069 0.418 -0.2793 -0.54608 -0.7898
0.0023137 -0.0077336 0.418 -0.30716 -0.54065 -0.78316
0.0023192 -0.0069769 0.419 -0.33601 -0.53646 -0.77415
0.0023192 -0.0062017 0.419 -0.35227 -0.53472 -0.7681
0.0023247 -0.0054394 0.42 -0.37337 -0.52808 -0.76271
0.0023247 -0.0046623 0.42 -0.37895 -0.52679 -0.76085
0.0023247 -0.0038853 0.42 -0.3877 -0.51873 -0.76198
0.0023303 -0.0031156 0.421 -0.39596 -0.50918 -0.76417
0.0023303 -0.0023367 0.421 -0.40861 -0.49305 -0.76808
0.0023358 -0.0015615 0.422 -0.41122 -0.46254 -0.78546
0.0023358 -0.00078076 0.422 -0.43886 -0.44919 -0.77823
0.0023358 0 0.422 -0.44972 -0.43527 -0.77993
0.0023413 0.00078261 0.423 -0.45573 -0.41536 -0.78726
0.0023413 0.0015652 0.423 -0.47875 -0.40157 -0.78073
0.0023469 0.0023534 0.424 -0.49705 -0.38675 -0.77677
0.0023469 0.0031378 0.424 -0.51337 -0.37126 -0.77371
0.0023524 0.0039315 0.425 -0.53799 -0.3697 -0.75755
0.0023524 0.0047179 0.425 -0.53856 -0.35704 -0.7632
0.0023579 0.0055171 0.426 -0.55083 -0.37638 -0.74493
0.0023579 0.0063053 0.426 -0.54368 -0.37056 -0.75306
0.0023635 0.0071101 0.427 -0.54508 -0.39112 -0.74156
0.002369 0.0079186 0.428 -0.54243 -0.4119 -0.73219
0.0023745 0.0087308 0.429 -0.52185 -0.42785 -0.73798
0.0023745 0.0095245 0.429 -0.51274 -0.44441 -0.73457
0.0023801 0.010342 0.43 -0.5187 -0.45385 -0.72455
0.0023801 0.011138 0.43 -0.52682 -0.44366 -0.725
0.0023801 0.011933 0.43 -0.51746 -0.41311 -0.74938
0.0023856 0.012759 0.431 -0.54366 -0.42327 -0.72476
0.0023911 0.013587 0.432 -0.58966 -0.42884 -0.68439
0.0023967 0.01442 0.433 -0.65832 -0.41368 -0.62888
0.0024022 0.015256 0.434 -0.69679 -0.41434 -0.5855
0.0033948 -0.099574 0.46 -0.46588 0.25614 -0.84696
0.0034022 -0.098938 0.461 -0.29736 0.26137 -0.91829
0.0034022 -0.098085 0.461 -0.36271 0.25655 -0.89589
0.0034022 -0.097232 0.461 -0.38274 0.2545 -0.88811
0.0034096 -0.096588 0.462 -0.2466 0.25395 -0.93525
0.0034096 -0.095734 0.462 -0.25203 0.25446 -0.93366
0.0034096 -0.094879 0.462 -0.22407 0.25533 -0.94053
0.003417 -0.094228 0.463 -0.18924 0.2501 -0.94955
0.003417 -0.093371 0.463 -0.13935 0.2418 -0.96027
0.003417 -0.092514 0.463 -0.077807 0.23464 -0.96896
0.003417 -0.091658 0.463 0.019742 0.23531 -0.97172
0.003417 -0.090801 0.463 0.12817 0.22018 -0.967
0.003417 -0.089944 0.463 0.24226 0.20407 -0.94851
0.003417 -0.089088 0.463 0.35766 0.18628 -0.91508
0.0034096 -0.088041 0.462 0.4637 0.16983 -0.86956
0.0034096 -0.087186 0.462 0.51491 0.13999 -0.84574
0.0034022 -0.086144 0.461 0.59693 0.13107 -0.79152
0.0033948 -0.085106 0.46 0.63975 0.11887 -0.75934
0.0033875 -0.084072 0.459 0.66781 0.10913 -0.73629
0.0033801 -0.083042 0.458 0.68651 0.081883 -0.72249
0.0033727 -0.082015 0.457 0.69488 0.062798 -0.71638
0.0033727 -0.081169 0.457 0.69043 0.089553 -0.71783
0.0033653 -0.080148 0.456 0.68612 0.078713 -0.72322
0.0033579 -0.07913 0.455 0.6899 0.054432 -0.72185
0.0033506 -0.078117 0.454 0.69433 0.0058664 -0.71964
0.0033506 -0.077277 0.454 0.65544 0.1067 -0.74767
0.0033432 -0.076268 0.453 0.67752 0.068929 -0.73226
0.0033358 -0.075264 0.452 0.68705 0.033839 -0.72582
0.0033284 -0.074263 0.451 0.70452 -0.003546 -0.70967
0.003321 -0.073265 0.45 0.72991 -0.018244 -0.6833
0.0032915 -0.070964 0.446 0.79713 -0.36524 -0.48082
0.0032841 -0.069981 0.445 0.81025 -0.32232 -0.4895
0.0032694 -0.068847 0.443 0.76008 -0.42512 -0.49148
0.003262 -0.067874 0.442 0.76154 -0.39457 -0.51417
0.0032399 -0.065789 0.439 0.76644 -0.45177 -0.45659
0.0032251 -0.064681 0.437 0.75226 -0.52604 -0.39671
0.0032103 -0.06358 0.435 0.70855 -0.58992 -0.38724
0.0031956 -0.062487 0.433 0.61998 -0.63206 -0.46489
0.0031808 -0.060603 0.431 0.5583 -0.62277 -0.54814
0.0031734 -0.059667 0.43 0.5118 -0.62572 -0.58867
0.0031661 -0.058735 0.429 0.48095 -0.62365 -0.61624
0.0031661 -0.057941 0.429 0.55208 -0.59916 -0.57985
0.0031587 -0.057014 0.428 0.53502 -0.60545 -0.58922
0.0031513 -0.056091 0.427 0.54471 -0.60301 -0.58281
0.0031513 -0.055301 0.427 0.53651 -0.59355 -0.59988
0.0031439 -0.054383 0.426 0.56499 -0.59578 -0.57081
0.0031365 -0.053469 0.425 0.57961 -0.60083 -0.55051
0.0031292 -0.052559 0.424 0.57902 -0.59775 -0.55446
0.0031218 -0.051652 0.423 0.55564 -0.59169 -0.5841
0.0031144 -0.050749 0.422 0.49928 -0.56849 -0.65386
0.003107 -0.04985 0.421 0.42364 -0.54777 -0.72144
0.003107 -0.049071 0.421 0.41809 -0.57228 -0.70548
0.0030996 -0.048178 0.42 0.34808 -0.54999 -0.75918
0.0030996 -0.047401 0.42 0.34171 -0.57268 -0.74516
0.0030996 -0.046623 0.42 0.32057 -0.58471 -0.74522
0.0030996 -0.045846 0.42 0.29056 -0.5885 -0.75448
0.0030923 -0.044962 0.419 0.25428 -0.58106 -0.77312
0.0030923 -0.044187 0.419 0.24322 -0.58366 -0.77472
0.0030923 -0.043412 0.419 0.22371 -0.58718 -0.77793
0.0030849 -0.042535 0.418 0.19815 -0.58565 -0.78597
0.0030849 -0.041761 0.418 0.17497 -0.58922 -0.7888
0.0030849 -0.040988 0.418 0.1437 -0.59764 -0.78878
0.0030849 -0.040215 0.418 0.10802 -0.60677 -0.78751
0.0030849 -0.039441 0.418 0.088552 -0.61058 -0.78699
0.0030849 -0.038668 0.418 0.068279 -0.61365 -0.78662
0.0030849 -0.037895 0.418 0.045461 -0.61706 -0.7856
0.0030849 -0.037121 0.418 0.021792 -0.6227 -0.78215
0.0030849 -0.036348 0.418 0.0075254 -0.62538 -0.78028
0.0030849 -0.035574 0.418 0.013371 -0.62585 -0.77983
0.0030849 -0.034801 0.418 0.017539 -0.62632 -0.77937
0.0030849 -0.034028 0.418 0.036805 -0.62396 -0.78059
0.0030849 -0.033254 0.418 0.055391 -0.61933 -0.78317
0.0030849 -0.032481 0.418 0.07682 -0.61117 -0.78776
0.0030849 -0.031708 0.418 0.10301 -0.59853 -0.79445
0.0030849 -0.030934 0.418 0.14124 -0.58475 -0.79882
0.0030775 -0.030089 0.417 0.16851 -0.56961 -0.80446
0.0030775 -0.029317 0.417 0.19029 -0.5563 -0.8089
0.0030775 -0.028546 0.417 0.19625 -0.54431 -0.81561
0.0030775 -0.027774 0.417 0.19519 -0.53463 -0.82223
0.0030775 -0.027003 0.417 0.18266 -0.5278 -0.82949
0.0030701 -0.026168 0.416 0.14972 -0.52528 -0.83765
0.0030701 -0.025399 0.416 0.11748 -0.5204 -0.8458
0.0030701 -0.024629 0.416 0.078812 -0.51908 -0.85108
0.0030701 -0.023859 0.416 0.03127 -0.51911 -0.85413
0.0030701 -0.02309 0.416 -0.0055261 -0.51801 -0.85535
0.0030701 -0.02232 0.416 -0.033076 -0.52042 -0.85327
0.0030701 -0.02155 0.416 -0.06875 -0.52014 -0.85131
0.0030701 -0.020781 0.416 -0.088649 -0.52131 -0.84875
0.0030701 -0.020011 0.416 -0.11029 -0.52083 -0.8465
0.0030701 -0.019241 0.416 -0.12621 -0.52247 -0.84327
0.0030701 -0.018472 0.416 -0.13043 -0.52479 -0.84118
0.0030775 -0.017745 0.417 -0.12837 -0.52467 -0.84157
0.0030775 -0.016973 0.417 -0.13427 -0.52749 -0.83888
0.0030775 -0.016202 0.417 -0.13206 -0.53213 -0.8363
0.0030775 -0.01543 0.417 -0.13206 -0.53213 -0.8363
0.0030775 -0.014659 0.417 -0.12897 -0.5368 -0.8338
0.0030775 -0.013887 0.417 -0.12685 -0.54072 -0.83159
0.0030849 -0.013147 0.418 -0.1342 -0.5424 -0.82934
0.0030849 -0.012374 0.418 -0.14596 -0.54519 -0.82551
0.0030849 -0.0116 0.418 -0.16523 -0.54778 -0.82015
0.0030849 -0.010827 0.418 -0.19482 -0.55075 -0.81161
0.0030849 -0.010054 0.418 -0.2275 -0.54914 -0.80417
0.0030849 -0.0092803 0.418 -0.25423 -0.54679 -0.79774
0.0030923 -0.0085273 0.419 -0.2847 -0.54939 -0.78557
0.0030923 -0.0077521 0.419 -0.30994 -0.54153 -0.78146
0.0030923 -0.0069769 0.419 -0.33338 -0.53799 -0.77423
0.0030996 -0.0062165 0.42 -0.35223 -0.53221 -0.76986
0.0030996 -0.0054394 0.42 -0.37264 -0.52537 -0.76493
0.0030996 -0.0046623 0.42 -0.37661 -0.5222 -0.76516
0.003107 -0.0038945 0.421 -0.38473 -0.51965 -0.76286
0.003107 -0.0031156 0.421 -0.38694 -0.50905 -0.76886
0.0031144 -0.0023423 0.422 -0.38867 -0.4817 -0.78543
0.0031144 -0.0015615 0.422 -0.40459 -0.4754 -0.78122
0.0031144 -0.00078076 0.422 -0.42366 -0.45886 -0.781
0.0031218 0 0.423 -0.42842 -0.44129 -0.78849
0.0031218 0.00078261 0.423 -0.4379 -0.43419 -0.78723
0.0031292 0.0015689 0.424 -0.46049 -0.41545 -0.78445
0.0031292 0.0023534 0.424 -0.47983 -0.40528 -0.77814
0.0031292 0.0031378 0.424 -0.49293 -0.37843 -0.78346
0.0031365 0.0039315 0.425 -0.53024 -0.37715 -0.75935
0.0031365 0.0047179 0.425 -0.52365 -0.35343 -0.77516
0.0031439 0.0055171 0.426 -0.54442 -0.37906 -0.74828
0.0031513 0.0063201 0.427 -0.56093 -0.39507 -0.72751
0.0031587 0.0071267 0.428 -0.55659 -0.41511 -0.71965
0.0031661 0.0079371 0.429 -0.54403 -0.41962 -0.7266
0.0031661 0.0087308 0.429 -0.53041 -0.4432 -0.72267
0.0031661 0.0095245 0.429 -0.51149 -0.44623 -0.73434
0.0031734 0.010342 0.43 -0.51803 -0.46066 -0.72072
0.0031734 0.011138 0.43 -0.50609 -0.443 -0.74002
0.0031808 0.011961 0.431 -0.53141 -0.44182 -0.72277
0.0031808 0.012759 0.431 -0.49203 -0.40914 -0.76844
0.0031882 0.013587 0.432 -0.54107 -0.40729 -0.73577
0.0031956 0.01442 0.433 -0.60818 -0.3884 -0.69229
0.003203 0.015256 0.434 -0.65476 -0.37969 -0.65354
0.0042528 -0.098938 0.461 -0.24941 0.22184 -0.94265
0.0042528 -0.098085 0.461 -0.32769 0.2164 -0.91967
0.0042528 -0.097232 0.461 -0.3624 0.21381 -0.90717
0.0042528 -0.096379 0.461 -0.35087 0.21859 -0.91055
0.004262 -0.095734 0.462 -0.2515 0.2195 -0.94264
0.004262 -0.094879 0.462 -0.23244 0.22328 -0.94663
0.004262 -0.094024 0.462 -0.19548 0.22081 -0.95553
0.0042712 -0.093371 0.463 -0.14041 0.21003 -0.96756
0.0042712 -0.092514 0.463 -0.083026 0.20511 -0.97521
0.0042712 -0.091658 0.463 0.016093 0.20579 -0.97846
0.0042712 -0.090801 0.463 0.12163 0.18805 -0.9746
0.0042712 -0.089944 0.463 0.23403 0.17619 -0.95613
0.004262 -0.088895 0.462 0.34619 0.15652 -0.92502
0.004262 -0.088041 0.462 0.45377 0.14205 -0.87973
0.0042528 -0.086997 0.461 0.53824 0.11964 -0.83425
0.0042528 -0.086144 0.461 0.59029 0.09464 -0.80163
0.0042435 -0.085106 0.46 0.63781 0.084503 -0.76555
0.0042343 -0.084072 0.459 0.66976 0.082591 -0.73797
0.0042251 -0.083042 0.458 0.68927 0.061704 -0.72187
0.0042159 -0.082015 0.457 0.6947 0.045095 -0.71788
0.0042159 -0.081169 0.457 0.69256 0.060777 -0.7188
0.0042066 -0.080148 0.456 0.68597 0.053859 -0.72563
0.0041974 -0.07913 0.455 0.68091 0.039999 -0.73128
0.0041882 -0.078117 0.454 0.68448 0.0027857 -0.72903
0.004179 -0.077106 0.453 0.68993 -0.040803 -0.72272
0.004179 -0.076268 0.453 0.66619 0.049917 -0.74411
0.0041697 -0.075264 0.452 0.67956 0.013416 -0.7335
0.0041605 -0.074263 0.451 0.69935 -0.042333 -0.71352
0.0041513 -0.073265 0.45 0.72405 -0.06812 -0.68638
0.0041421 -0.072272 0.449 0.75946 -0.078373 -0.64581
0.0041236 -0.071123 0.447 0.80937 -0.27377 -0.51959
0.0041052 -0.069981 0.445 0.77986 -0.3898 -0.48977
0.0040959 -0.069003 0.444 0.78139 -0.3622 -0.50817
0.0040775 -0.067874 0.442 0.72499 -0.46481 -0.50828
0.0040683 -0.066905 0.441 0.74225 -0.44461 -0.50138
0.004059 -0.065939 0.44 0.75042 -0.42377 -0.50724
0.0040498 -0.064977 0.439 0.77215 -0.39375 -0.49873
0.0040314 -0.063872 0.437 0.75959 -0.49108 -0.42644
0.0040129 -0.062775 0.435 0.71483 -0.56935 -0.40603
0.0039945 -0.061685 0.433 0.61381 -0.62005 -0.48865
0.0039852 -0.060744 0.432 0.57675 -0.61865 -0.53352
0.003976 -0.059806 0.431 0.54817 -0.62567 -0.55502
0.0039668 -0.058871 0.43 0.5038 -0.62956 -0.59147
0.0039576 -0.057941 0.429 0.49439 -0.61813 -0.61114
0.0039576 -0.057147 0.429 0.53944 -0.60968 -0.58076
0.0039483 -0.056222 0.428 0.5362 -0.61097 -0.58242
0.0039391 -0.055301 0.427 0.54454 -0.60981 -0.57585
0.0039391 -0.054511 0.427 0.54885 -0.60084 -0.58117
0.0039299 -0.053595 0.426 0.57148 -0.60296 -0.55665
0.0039207 -0.052683 0.425 0.58349 -0.60299 -0.54401
0.0039114 -0.051774 0.424 0.57177 -0.59866 -0.56097
0.0039022 -0.05087 0.423 0.53485 -0.58926 -0.60556
0.003893 -0.049969 0.422 0.4686 -0.56524 -0.6789
0.003893 -0.049188 0.422 0.45447 -0.5885 -0.66868
0.0038838 -0.048292 0.421 0.38131 -0.57448 -0.72428
0.0038838 -0.047513 0.421 0.36894 -0.58964 -0.71847
0.0038745 -0.046623 0.42 0.30434 -0.57822 -0.75699
0.0038745 -0.045846 0.42 0.28628 -0.58958 -0.75527
0.0038745 -0.045069 0.42 0.26566 -0.59572 -0.75799
0.0038745 -0.044292 0.42 0.24625 -0.59713 -0.76341
0.0038653 -0.043412 0.419 0.21731 -0.59517 -0.77366
0.0038653 -0.042636 0.419 0.19411 -0.59928 -0.77665
0.0038653 -0.041861 0.419 0.16688 -0.60245 -0.78052
0.0038653 -0.041086 0.419 0.13671 -0.61099 -0.77974
0.0038561 -0.040215 0.418 0.092464 -0.61897 -0.77995
0.0038561 -0.039441 0.418 0.075559 -0.62764 -0.77483
0.0038561 -0.038668 0.418 0.057123 -0.63239 -0.77254
0.0038561 -0.037895 0.418 0.037172 -0.63594 -0.77084
0.0038561 -0.037121 0.418 0.017265 -0.64115 -0.76722
0.0038561 -0.036348 0.418 0.0073848 -0.64315 -0.7657
0.0038561 -0.035574 0.418 0.013107 -0.64455 -0.76445
0.0038561 -0.034801 0.418 0.021318 -0.64351 -0.76514
0.0038561 -0.034028 0.418 0.043494 -0.6416 -0.7658
0.0038561 -0.033254 0.418 0.064141 -0.63799 -0.76737
0.0038561 -0.032481 0.418 0.087146 -0.62654 -0.7745
0.0038561 -0.031708 0.418 0.11392 -0.61316 -0.7817
0.0038561 -0.030934 0.418 0.15181 -0.59797 -0.78701
0.0038561 -0.030161 0.418 0.17775 -0.58182 -0.79365
0.0038561 -0.029388 0.418 0.2019 -0.56734 -0.79835
0.0038561 -0.028614 0.418 0.20429 -0.55788 -0.80438
0.0038469 -0.027774 0.417 0.19835 -0.54441 -0.81503
0.0038469 -0.027003 0.417 0.18553 -0.54364 -0.81855
0.0038469 -0.026231 0.417 0.15068 -0.54448 -0.82513
0.0038469 -0.02546 0.417 0.11722 -0.54074 -0.83299
0.0038469 -0.024688 0.417 0.077441 -0.53969 -0.83829
0.0038376 -0.023859 0.416 0.028868 -0.54518 -0.83782
0.0038376 -0.02309 0.416 -0.0090248 -0.54539 -0.83814
0.0038376 -0.02232 0.416 -0.037804 -0.54754 -0.83593
0.0038469 -0.021602 0.417 -0.069865 -0.54755 -0.83385
0.0038376 -0.020781 0.416 -0.082221 -0.55168 -0.83
0.0038469 -0.020059 0.417 -0.10168 -0.54791 -0.83034
0.0038469 -0.019288 0.417 -0.11127 -0.54858 -0.82866
0.0038469 -0.018516 0.417 -0.11495 -0.54649 -0.82954
0.0038469 -0.017745 0.417 -0.11759 -0.54632 -0.82928
0.0038469 -0.016973 0.417 -0.12798 -0.54685 -0.82739
0.0038561 -0.016241 0.418 -0.1302 -0.54763 -0.82653
0.0038561 -0.015467 0.418 -0.13475 -0.54545 -0.82724
0.0038561 -0.014694 0.418 -0.13622 -0.54779 -0.82545
0.0038561 -0.01392 0.418 -0.1341 -0.55161 -0.82325
0.0038561 -0.013147 0.418 -0.13756 -0.55135 -0.82286
0.0038561 -0.012374 0.418 -0.14935 -0.55281 -0.81981
0.0038561 -0.0116 0.418 -0.16784 -0.55355 -0.81573
0.0038561 -0.010827 0.418 -0.19602 -0.55358 -0.8094
0.0038653 -0.010078 0.419 -0.2257 -0.55198 -0.80273
0.0038653 -0.0093025 0.419 -0.2588 -0.54672 -0.79632
0.0038653 -0.0085273 0.419 -0.28872 -0.54271 -0.78874
0.0038653 -0.0077521 0.419 -0.31229 -0.53198 -0.78706
0.0038745 -0.0069935 0.42 -0.34374 -0.53066 -0.77476
0.0038745 -0.0062165 0.42 -0.35981 -0.52458 -0.77159
0.0038838 -0.0054524 0.421 -0.3753 -0.52071 -0.76682
0.0038838 -0.0046735 0.421 -0.3739 -0.52103 -0.76728
0.0038838 -0.0038945 0.421 -0.37947 -0.51393 -0.76934
0.003893 -0.003123 0.422 -0.37182 -0.50005 -0.78212
0.003893 -0.0023423 0.422 -0.38231 -0.49294 -0.78157
0.003893 -0.0015615 0.422 -0.3918 -0.48119 -0.78418
0.0039022 -0.00078261 0.423 -0.40564 -0.46755 -0.7854
0.0039022 0 0.423 -0.41671 -0.45381 -0.78766
0.0039022 0.00078261 0.423 -0.41903 -0.44053 -0.79394
0.0039114 0.0015689 0.424 -0.44665 -0.43304 -0.78293
0.0039114 0.0023534 0.424 -0.45924 -0.41456 -0.78565
0.0039207 0.0031452 0.425 -0.49923 -0.40724 -0.7648
0.0039207 0.0039315 0.425 -0.51042 -0.38097 -0.77093
0.0039299 0.004729 0.426 -0.54845 -0.38517 -0.74219
0.0039391 0.0055301 0.427 -0.56074 -0.40257 -0.72354
0.0039391 0.0063201 0.427 -0.55427 -0.39697 -0.73157
0.0039483 0.0071267 0.428 -0.55966 -0.42293 -0.71268
0.0039576 0.0079371 0.429 -0.55491 -0.43901 -0.70664
0.0039668 0.0087512 0.43 -0.52232 -0.44907 -0.72493
0.0039668 0.0095467 0.43 -0.52233 -0.46766 -0.71306
0.0039668 0.010342 0.43 -0.50197 -0.46369 -0.73008
0.003976 0.011164 0.431 -0.51599 -0.46725 -0.71794
0.003976 0.011961 0.431 -0.48479 -0.42867 -0.76238
0.0039852 0.012788 0.432 -0.52295 -0.43889 -0.73068
0.0039945 0.013619 0.433 -0.57992 -0.44358 -0.68333
0.0040037 0.014453 0.434 -0.63393 -0.43791 -0.63747
0.0051033 -0.098938 0.461 -0.20649 0.17694 -0.96232
0.0051033 -0.098085 0.461 -0.29268 0.17156 -0.94069
0.0051033 -0.097232 0.461 -0.33751 0.1696 -0.92592
0.0051033 -0.096379 0.461 -0.33688 0.17487 -0.92517
0.0051144 -0.095734 0.462 -0.24714 0.17425 -0.95318
0.0051144 -0.094879 0.462 -0.23685 0.18068 -0.9546
0.0051144 -0.094024 0.462 -0.20091 0.17519 -0.96382
0.0051144 -0.093169 0.462 -0.14463 0.16874 -0.97499
0.0051144 -0.092315 0.462 -0.089486 0.16708 -0.98187
0.0051255 -0.091658 0.463 0.013352 0.16739 -0.9858
0.0051255 -0.090801 0.463 0.1178 0.14779 -0.98198
0.0051144 -0.08975 0.462 0.22541 0.13618 -0.9647
0.0051144 -0.088895 0.462 0.33763 0.12005 -0.93359
0.0051144 -0.088041 0.462 0.44682 0.10903 -0.88796
0.0051033 -0.086997 0.461 0.53293 0.091293 -0.84122
0.0051033 -0.086144 0.461 0.58102 0.067142 -0.81111
0.0050923 -0.085106 0.46 0.63442 0.059267 -0.77072
0.0050812 -0.084072 0.459 0.67111 0.063259 -0.73866
0.0050701 -0.083042 0.458 0.69149 0.048488 -0.72076
0.005059 -0.082015 0.457 0.69427 0.035934 -0.71882
0.005059 -0.081169 0.457 0.69201 0.043473 -0.72058
0.005048 -0.080148 0.456 0.68146 0.037319 -0.7309
0.0050369 -0.07913 0.455 0.6728 0.025679 -0.73938
0.0050258 -0.078117 0.454 0.67012 -0.0090025 -0.7422
0.0050148 -0.077106 0.453 0.66964 -0.051063 -0.74093
0.0050148 -0.076268 0.453 0.6538 0.012843 -0.75656
0.0050037 -0.075264 0.452 0.66881 -0.026189 -0.74297
0.0049926 -0.074263 0.451 0.6905 -0.096145 -0.71691
0.0049926 -0.073428 0.451 0.64028 0.019119 -0.7679
0.0049705 -0.072272 0.449 0.75066 -0.16409 -0.63999
0.0049483 -0.071123 0.447 0.78633 -0.35276 -0.50719
0.0049373 -0.070139 0.446 0.79907 -0.34225 -0.49432
0.0049262 -0.069158 0.445 0.79498 -0.32115 -0.51466
0.0049041 -0.068028 0.443 0.7457 -0.42249 -0.51521
0.004893 -0.067056 0.442 0.74641 -0.40607 -0.52724
0.0048708 -0.065939 0.44 0.70544 -0.51544 -0.4865
0.0048708 -0.065125 0.44 0.74771 -0.38104 -0.54382
0.0048487 -0.064019 0.438 0.74858 -0.48364 -0.45356
0.0048266 -0.06292 0.436 0.71544 -0.5731 -0.39963
0.0048044 -0.061828 0.434 0.62555 -0.61977 -0.47389
0.0047934 -0.060884 0.433 0.60821 -0.61227 -0.50518
0.0047712 -0.059806 0.431 0.45201 -0.64297 -0.61828
0.0047712 -0.059008 0.431 0.54328 -0.62384 -0.56184
0.0047601 -0.058076 0.43 0.5132 -0.62035 -0.59312
0.0047601 -0.05728 0.43 0.5471 -0.61163 -0.57148
0.0047491 -0.056353 0.429 0.53216 -0.61437 -0.58254
0.004738 -0.05543 0.428 0.53514 -0.61512 -0.57902
0.004738 -0.054638 0.428 0.53628 -0.60069 -0.59293
