0.017205 -0.057969 0.373 0.55816 -0.15227 -0.81564
0.017205 -0.057278 0.373 0.55336 -0.15977 -0.81748
0.017159 -0.056437 0.372 0.51328 -0.15508 -0.84409
0.017159 -0.055748 0.372 0.45011 -0.1542 -0.87956
0.017159 -0.05506 0.372 0.38684 -0.14862 -0.91009
0.017113 -0.054226 0.371 0.31102 -0.13923 -0.94015
0.017113 -0.053539 0.371 0.2316 -0.13115 -0.96393
0.017113 -0.052853 0.371 0.15977 -0.11684 -0.98022
0.017113 -0.052167 0.371 0.093132 -0.1155 -0.98893
0.017113 -0.05148 0.371 0.0011997 -0.11246 -0.99366
0.017113 -0.050794 0.371 -0.08375 -0.10499 -0.99094
0.017113 -0.050107 0.371 -0.17976 -0.09081 -0.97951
0.017113 -0.049421 0.371 -0.26362 -0.072961 -0.96186
0.017113 -0.048735 0.371 -0.34592 -0.060875 -0.93629
0.017113 -0.048048 0.371 -0.40083 -0.053957 -0.91456
0.017159 -0.047489 0.372 -0.43433 -0.047525 -0.8995
0.017159 -0.046801 0.372 -0.46616 -0.038209 -0.88387
0.017205 -0.046237 0.373 -0.50141 -0.036233 -0.86445
0.017205 -0.045547 0.373 -0.53522 -0.032348 -0.84409
0.017205 -0.044857 0.373 -0.55298 -0.017746 -0.833
0.017205 -0.044167 0.373 -0.55306 0.0066529 -0.83311
0.017251 -0.043593 0.374 -0.58634 -0.037692 -0.80919
0.017297 -0.043016 0.375 -0.58867 -0.053804 -0.80658
0.017343 -0.042435 0.376 -0.59093 -0.066857 -0.80395
0.017343 -0.041739 0.376 -0.58097 -0.078917 -0.81009
0.017389 -0.041153 0.377 -0.54258 -0.092982 -0.83484
0.017389 -0.040455 0.377 -0.4758 -0.11164 -0.87244
0.017435 -0.039863 0.378 -0.39151 -0.13552 -0.91014
0.017435 -0.039164 0.378 -0.31327 -0.15177 -0.93746
0.017435 -0.038464 0.378 -0.24675 -0.16367 -0.95516
0.017435 -0.037765 0.378 -0.20351 -0.16646 -0.96482
0.017435 -0.037066 0.378 -0.19045 -0.16246 -0.96816
0.017435 -0.036366 0.378 -0.17831 -0.16061 -0.97078
0.017482 -0.035761 0.379 -0.17357 -0.15475 -0.97259
0.017482 -0.03506 0.379 -0.20331 -0.15719 -0.96641
0.017482 -0.034359 0.379 -0.23735 -0.1427 -0.96089
0.017482 -0.033658 0.379 -0.26084 -0.1385 -0.9554
0.017482 -0.032957 0.379 -0.28372 -0.13867 -0.94883
0.017482 -0.032255 0.379 -0.30946 -0.13099 -0.94185
0.017528 -0.031637 0.38 -0.32434 -0.1137 -0.93908
0.017528 -0.030934 0.38 -0.3381 -0.11312 -0.93429
0.017528 -0.030231 0.38 -0.35282 -0.10708 -0.92954
0.017528 -0.029528 0.38 -0.38092 -0.11007 -0.91803
0.017574 -0.028901 0.381 -0.40451 -0.11069 -0.90781
0.017574 -0.028196 0.381 -0.43698 -0.10371 -0.89347
0.017574 -0.027491 0.381 -0.47268 -0.096534 -0.87593
0.01762 -0.026857 0.382 -0.51395 -0.10748 -0.85106
0.01762 -0.02615 0.382 -0.53757 -0.10565 -0.83657
0.017666 -0.02551 0.383 -0.56003 -0.098964 -0.82254
0.017666 -0.024801 0.383 -0.57108 -0.098436 -0.81497
0.017712 -0.024155 0.384 -0.58074 -0.11615 -0.80576
0.017712 -0.023445 0.384 -0.5563 -0.09759 -0.82523
0.017758 -0.022794 0.385 -0.60249 -0.11713 -0.78948
0.017804 -0.022139 0.386 -0.67537 -0.13138 -0.72569
0.017804 -0.021425 0.386 -0.59748 -0.11425 -0.7937
0.017804 -0.02071 0.386 -0.48201 -0.10335 -0.87005
0.018312 -0.019832 0.397 -0.049852 -0.3756 -0.92544
0.018312 -0.019097 0.397 -0.084173 -0.38186 -0.92038
0.018312 -0.018363 0.397 -0.10752 -0.38394 -0.91707
0.018312 -0.017628 0.397 -0.10901 -0.38529 -0.91634
0.018312 -0.016894 0.397 -0.10867 -0.37673 -0.91993
0.018312 -0.016159 0.397 -0.11133 -0.37042 -0.92217
0.018312 -0.015425 0.397 -0.12763 -0.37147 -0.91963
0.018312 -0.01469 0.397 -0.13674 -0.37191 -0.91814
0.018312 -0.013956 0.397 -0.15367 -0.37539 -0.91404
0.018312 -0.013221 0.397 -0.18718 -0.36615 -0.91153
0.018358 -0.012518 0.398 -0.22643 -0.35701 -0.90624
0.018358 -0.011782 0.398 -0.25334 -0.3537 -0.9004
0.018358 -0.011045 0.398 -0.29657 -0.34571 -0.89024
0.018358 -0.010309 0.398 -0.32096 -0.33129 -0.88726
0.018404 -0.0095967 0.399 -0.35034 -0.33485 -0.87472
0.018404 -0.0088585 0.399 -0.357 -0.32544 -0.87558
0.018404 -0.0081203 0.399 -0.33817 -0.30322 -0.8909
0.01845 -0.0074006 0.4 -0.43712 -0.33984 -0.83273
0.01845 -0.0066605 0.4 -0.4156 -0.29055 -0.86189
0.01845 -0.0059204 0.4 -0.3817 -0.2068 -0.90085
0.021033 0.013499 0.456 0.46621 0.29753 -0.83314
0.020987 0.014311 0.455 0.32672 0.31236 -0.89201
0.020987 0.015153 0.455 0.38807 0.31831 -0.86491
0.020987 0.015994 0.455 0.409 0.31649 -0.85589
0.020941 0.016799 0.454 0.35462 0.30512 -0.88382
0.020941 0.017639 0.454 0.35076 0.3166 -0.88133
0.020895 0.018438 0.453 0.40494 0.29127 -0.86671
0.020895 0.019277 0.453 0.3555 0.30503 -0.8835
0.020895 0.020115 0.453 0.25085 0.32725 -0.91104
0.020849 0.020907 0.452 0.29698 0.22261 -0.92857
0.020849 0.021743 0.452 0.21919 0.21694 -0.95126
0.020849 0.024252 0.452 0.027782 0.11757 -0.99268
0.020849 0.025088 0.452 -0.093398 0.062906 -0.99364
0.020849 0.025924 0.452 -0.088441 0.051564 -0.99475
0.020895 0.02682 0.453 -0.21938 0.26724 -0.93833
0.018037 -0.061217 0.376 0.64759 -0.18386 -0.73947
0.017989 -0.060361 0.375 0.5708 -0.18958 -0.7989
0.017989 -0.059667 0.375 0.63692 -0.18184 -0.74918
0.017941 -0.058816 0.374 0.57835 -0.18362 -0.79485
0.017941 -0.058124 0.374 0.5891 -0.18945 -0.78553
0.017893 -0.057278 0.373 0.55488 -0.18952 -0.81006
0.017845 -0.056437 0.372 0.51639 -0.18571 -0.83597
0.017845 -0.055748 0.372 0.45903 -0.18769 -0.86837
0.017845 -0.05506 0.372 0.39742 -0.1825 -0.89931
0.017797 -0.054226 0.371 0.32206 -0.18017 -0.92942
0.017797 -0.053539 0.371 0.24209 -0.17244 -0.95481
0.017797 -0.052853 0.371 0.1679 -0.16158 -0.97247
0.017797 -0.052167 0.371 0.097313 -0.15622 -0.98292
0.017797 -0.05148 0.371 0.0071502 -0.16043 -0.98702
0.017797 -0.050794 0.371 -0.08324 -0.15179 -0.9849
0.017797 -0.050107 0.371 -0.17304 -0.13969 -0.97496
0.017797 -0.049421 0.371 -0.2524 -0.12931 -0.95894
0.017797 -0.048735 0.371 -0.33217 -0.1183 -0.93577
0.017845 -0.048178 0.372 -0.38956 -0.11413 -0.9139
0.017845 -0.047489 0.372 -0.42222 -0.11552 -0.8991
0.017893 -0.046927 0.373 -0.45677 -0.11203 -0.8825
0.017893 -0.046237 0.373 -0.49233 -0.11266 -0.86309
0.017893 -0.045547 0.373 -0.53016 -0.10876 -0.84089
0.017893 -0.044857 0.373 -0.54455 -0.091182 -0.83376
0.017893 -0.044167 0.373 -0.5409 -0.051711 -0.8395
0.017941 -0.043593 0.374 -0.58793 -0.10336 -0.80228
0.017989 -0.043016 0.375 -0.597 -0.12737 -0.79207
0.018037 -0.042435 0.376 -0.59671 -0.13349 -0.79128
0.018085 -0.04185 0.377 -0.58267 -0.14313 -0.8
0.018085 -0.041153 0.377 -0.54605 -0.15321 -0.82362
0.018085 -0.040455 0.377 -0.47628 -0.16378 -0.86391
0.018133 -0.039863 0.378 -0.39244 -0.17808 -0.90237
0.018133 -0.039164 0.378 -0.30841 -0.1863 -0.93283
0.018133 -0.038464 0.378 -0.24022 -0.19119 -0.9517
0.018133 -0.037765 0.378 -0.20055 -0.18749 -0.96158
0.018133 -0.037066 0.378 -0.18418 -0.18481 -0.96536
0.018181 -0.036463 0.379 -0.1751 -0.17804 -0.96832
0.018181 -0.035761 0.379 -0.17538 -0.16918 -0.96986
0.018181 -0.03506 0.379 -0.20414 -0.16491 -0.96495
0.018181 -0.034359 0.379 -0.23179 -0.14843 -0.96137
0.018181 -0.033658 0.379 -0.25532 -0.14533 -0.95587
0.018181 -0.032957 0.379 -0.27833 -0.14437 -0.94957
0.018229 -0.03234 0.38 -0.30365 -0.132 -0.9436
0.018229 -0.031637 0.38 -0.31908 -0.12154 -0.9399
0.018229 -0.030934 0.38 -0.33278 -0.12417 -0.93479
0.018229 -0.030231 0.38 -0.34855 -0.11805 -0.92983
0.018277 -0.029606 0.381 -0.37785 -0.11843 -0.91826
0.018277 -0.028901 0.381 -0.40431 -0.11489 -0.90738
0.018277 -0.028196 0.381 -0.43839 -0.10982 -0.89205
0.018277 -0.027491 0.381 -0.47563 -0.10142 -0.87378
0.018325 -0.026857 0.382 -0.51372 -0.11141 -0.85069
0.018325 -0.02615 0.382 -0.53743 -0.10127 -0.8372
0.018373 -0.02551 0.383 -0.56156 -0.096697 -0.82177
0.018373 -0.024801 0.383 -0.57045 -0.092324 -0.81613
0.018421 -0.024155 0.384 -0.584 -0.11355 -0.80377
0.018469 -0.023506 0.385 -0.63055 -0.13325 -0.76462
0.018469 -0.022794 0.385 -0.59306 -0.10958 -0.79767
0.018517 -0.022139 0.386 -0.6655 -0.13172 -0.73469
0.018517 -0.021425 0.386 -0.57979 -0.10414 -0.80808
0.019044 -0.020566 0.397 -0.12809 -0.41096 -0.90261
0.019044 -0.019832 0.397 -0.15086 -0.42339 -0.8933
0.019044 -0.019097 0.397 -0.17011 -0.43018 -0.88657
0.019044 -0.018363 0.397 -0.16889 -0.43191 -0.88596
0.019044 -0.017628 0.397 -0.14625 -0.43177 -0.89005
0.019044 -0.016894 0.397 -0.11862 -0.42618 -0.89683
0.019044 -0.016159 0.397 -0.11376 -0.42035 -0.9002
0.019092 -0.015463 0.398 -0.12446 -0.41977 -0.89906
0.019092 -0.014727 0.398 -0.12849 -0.41872 -0.89898
0.019092 -0.013991 0.398 -0.14035 -0.41887 -0.89714
0.019092 -0.013254 0.398 -0.16824 -0.4129 -0.8951
0.019092 -0.012518 0.398 -0.20885 -0.40053 -0.89216
0.019092 -0.011782 0.398 -0.23813 -0.39112 -0.889
0.019092 -0.011045 0.398 -0.27886 -0.37815 -0.88274
0.01914 -0.010335 0.399 -0.32058 -0.37186 -0.87118
0.01914 -0.0095967 0.399 -0.33499 -0.35804 -0.87154
0.01914 -0.0088585 0.399 -0.32236 -0.33848 -0.88403
0.019188 -0.0081406 0.4 -0.41571 -0.37467 -0.82874
0.019188 -0.0074006 0.4 -0.40074 -0.3396 -0.85093
0.019188 -0.0066605 0.4 -0.36744 -0.27432 -0.88867
0.021827 0.013469 0.455 0.30515 0.30605 -0.90178
0.021827 0.014311 0.455 0.39352 0.30744 -0.86638
0.021827 0.015153 0.455 0.43598 0.30764 -0.84574
0.021779 0.015959 0.454 0.33815 0.31093 -0.88825
0.021779 0.016799 0.454 0.36798 0.30814 -0.87729
0.021731 0.0176 0.453 0.37657 0.28943 -0.88001
0.021731 0.018438 0.453 0.37362 0.30833 -0.87484
0.021731 0.019277 0.453 0.30759 0.32598 -0.89394
0.021731 0.020115 0.453 0.20988 0.34579 -0.91454
0.021683 0.020907 0.452 0.23892 0.26238 -0.93492
0.021683 0.021743 0.452 0.1725 0.26085 -0.94984
0.021683 0.023415 0.452 0.03377 0.21569 -0.97588
0.021683 0.024252 0.452 -0.017413 0.18479 -0.98262
0.021683 0.025088 0.452 -0.101 0.13868 -0.98517
0.021683 0.025924 0.452 -0.1 0.12619 -0.98695
0.021731 0.02682 0.453 -0.27372 0.29523 -0.91538
0.021731 0.027658 0.453 -0.2392 0.25862 -0.93589
0.018731 -0.061217 0.376 0.604 -0.22052 -0.76587
0.018681 -0.060361 0.375 0.5149 -0.23977 -0.82304
0.018681 -0.059667 0.375 0.60857 -0.21319 -0.76432
0.018631 -0.058816 0.374 0.54653 -0.22447 -0.80679
0.018631 -0.058124 0.374 0.57769 -0.21826 -0.78653
0.018581 -0.057278 0.373 0.55204 -0.22102 -0.80399
0.018581 -0.056588 0.373 0.51692 -0.21809 -0.82778
0.018531 -0.055748 0.372 0.46491 -0.21842 -0.85799
0.018531 -0.05506 0.372 0.4073 -0.21428 -0.8878
0.018531 -0.054372 0.372 0.33443 -0.21903 -0.91662
0.018482 -0.053539 0.371 0.25824 -0.21328 -0.94224
0.018482 -0.052853 0.371 0.17904 -0.20174 -0.96294
0.018482 -0.052167 0.371 0.1012 -0.1995 -0.97466
0.018482 -0.05148 0.371 0.016522 -0.21065 -0.97742
0.018482 -0.050794 0.371 -0.07545 -0.20221 -0.97643
0.018482 -0.050107 0.371 -0.16806 -0.1932 -0.96666
0.018482 -0.049421 0.371 -0.25152 -0.17867 -0.95122
0.018482 -0.048735 0.371 -0.32933 -0.17538 -0.92778
0.018531 -0.048178 0.372 -0.38521 -0.17412 -0.90625
0.018531 -0.047489 0.372 -0.42056 -0.18249 -0.88872
0.018581 -0.046927 0.373 -0.45256 -0.18491 -0.87235
0.018581 -0.046237 0.373 -0.48977 -0.18761 -0.85143
0.018581 -0.045547 0.373 -0.52142 -0.17929 -0.83425
0.018631 -0.044977 0.374 -0.55759 -0.18921 -0.80826
0.018631 -0.044285 0.374 -0.57533 -0.17484 -0.79901
0.018631 -0.043593 0.374 -0.57885 -0.16593 -0.79837
0.018681 -0.043016 0.375 -0.59667 -0.19649 -0.77806
0.018731 -0.042435 0.376 -0.59276 -0.20105 -0.77988
0.01878 -0.04185 0.377 -0.57837 -0.20752 -0.78894
0.01878 -0.041153 0.377 -0.54056 -0.21851 -0.81243
0.01883 -0.040562 0.378 -0.47328 -0.22542 -0.85158
0.01883 -0.039863 0.378 -0.38926 -0.23669 -0.8902
0.01883 -0.039164 0.378 -0.30847 -0.2424 -0.91983
0.01883 -0.038464 0.378 -0.2438 -0.2409 -0.93943
0.01883 -0.037765 0.378 -0.20083 -0.23065 -0.95209
0.01888 -0.037164 0.379 -0.18001 -0.22355 -0.95793
0.01888 -0.036463 0.379 -0.1683 -0.21433 -0.96215
0.01888 -0.035761 0.379 -0.16648 -0.20355 -0.96481
0.01888 -0.03506 0.379 -0.18781 -0.19296 -0.96306
0.01888 -0.034359 0.379 -0.21462 -0.17552 -0.9608
0.01888 -0.033658 0.379 -0.23853 -0.16797 -0.9565
0.01888 -0.032957 0.379 -0.26311 -0.16034 -0.95135
0.01893 -0.03234 0.38 -0.29124 -0.13799 -0.94664
0.01893 -0.031637 0.38 -0.30983 -0.12846 -0.94207
0.01893 -0.030934 0.38 -0.32768 -0.12873 -0.93598
0.01893 -0.030231 0.38 -0.34855 -0.11805 -0.92983
0.01898 -0.029606 0.381 -0.37795 -0.1163 -0.91849
0.01898 -0.028901 0.381 -0.40881 -0.1136 -0.90552
0.01898 -0.028196 0.381 -0.44171 -0.11064 -0.89031
0.01903 -0.027563 0.382 -0.47649 -0.11216 -0.872
0.01903 -0.026857 0.382 -0.51496 -0.11522 -0.84944
0.019079 -0.026218 0.383 -0.54036 -0.10182 -0.83525
0.019079 -0.02551 0.383 -0.56015 -0.091951 -0.82327
0.019129 -0.024866 0.384 -0.58687 -0.11677 -0.80122
0.019129 -0.024155 0.384 -0.58056 -0.10568 -0.80733
0.019179 -0.023506 0.385 -0.62819 -0.1286 -0.76735
0.019179 -0.022794 0.385 -0.57767 -0.10495 -0.8095
0.019229 -0.022139 0.386 -0.65111 -0.13061 -0.74766
0.019229 -0.021425 0.386 -0.56238 -0.094397 -0.82147
0.019777 -0.020566 0.397 -0.22678 -0.45745 -0.85983
0.019777 -0.019832 0.397 -0.23326 -0.46855 -0.85209
0.019777 -0.019097 0.397 -0.22609 -0.47296 -0.85158
0.019777 -0.018363 0.397 -0.20327 -0.46767 -0.86021
0.019777 -0.017628 0.397 -0.16489 -0.45967 -0.87265
0.019827 -0.016936 0.398 -0.10867 -0.44741 -0.8877
0.019827 -0.0162 0.398 -0.11254 -0.45191 -0.88494
0.019827 -0.015463 0.398 -0.11915 -0.45548 -0.88224
0.019827 -0.014727 0.398 -0.12421 -0.45285 -0.88289
0.019827 -0.013991 0.398 -0.13708 -0.44972 -0.88259
0.019827 -0.013254 0.398 -0.16084 -0.44258 -0.88218
0.019827 -0.012518 0.398 -0.20284 -0.4312 -0.87916
0.019876 -0.011811 0.399 -0.23222 -0.41925 -0.87767
0.019876 -0.011073 0.399 -0.27244 -0.41017 -0.87037
0.019876 -0.010335 0.399 -0.30283 -0.39706 -0.8664
0.019876 -0.0095967 0.399 -0.3045 -0.37615 -0.8751
0.019926 -0.0088807 0.4 -0.38087 -0.40553 -0.83096
0.019926 -0.0081406 0.4 -0.36507 -0.38133 -0.8493
0.019926 -0.0074006 0.4 -0.33393 -0.33126 -0.88247
0.019976 -0.0066772 0.401 -0.45331 -0.3771 -0.80766
0.022666 0.013469 0.455 0.38532 0.26726 -0.88323
0.022666 0.014311 0.455 0.45888 0.2665 -0.84759
0.022616 0.015119 0.454 0.3371 0.27275 -0.90109
0.022616 0.015959 0.454 0.37963 0.27625 -0.88293
0.022566 0.016762 0.453 0.36903 0.26224 -0.89166
0.022566 0.0176 0.453 0.37292 0.26924 -0.88794
0.022566 0.018438 0.453 0.34819 0.29183 -0.89084
0.022517 0.019234 0.452 0.37504 0.25035 -0.89257
0.022517 0.02007 0.452 0.27614 0.26132 -0.92491
0.022517 0.020907 0.452 0.19597 0.26718 -0.94351
0.022517 0.021743 0.452 0.1409 0.26878 -0.95284
0.022517 0.023415 0.452 0.0040383 0.23844 -0.97115
0.022517 0.024252 0.452 -0.044766 0.22561 -0.97319
0.022517 0.025088 0.452 -0.10967 0.18729 -0.97616
0.022517 0.025924 0.452 -0.11663 0.17579 -0.97749
0.022566 0.02682 0.453 -0.33671 0.28485 -0.89749
0.022566 0.027658 0.453 -0.2987 0.25047 -0.92089
0.019424 -0.060522 0.376 0.65592 -0.23298 -0.71798
0.019373 -0.059667 0.375 0.57506 -0.24369 -0.78098
0.019321 -0.058816 0.374 0.51867 -0.24819 -0.81816
0.019321 -0.058124 0.374 0.56485 -0.24268 -0.7887
0.019269 -0.057278 0.373 0.5462 -0.24465 -0.80113
0.019269 -0.056588 0.373 0.51348 -0.25062 -0.82069
0.019218 -0.055748 0.372 0.46225 -0.25496 -0.84931
0.019218 -0.05506 0.372 0.40548 -0.25799 -0.87694
0.019218 -0.054372 0.372 0.33434 -0.26499 -0.90443
0.019166 -0.053539 0.371 0.25993 -0.26703 -0.92797
0.019166 -0.052853 0.371 0.17638 -0.2627 -0.94862
0.019166 -0.052167 0.371 0.099631 -0.26341 -0.95953
0.019166 -0.05148 0.371 0.016278 -0.269 -0.963
0.019166 -0.050794 0.371 -0.07424 -0.26722 -0.96077
0.019166 -0.050107 0.371 -0.15971 -0.26239 -0.95165
0.019166 -0.049421 0.371 -0.23825 -0.24551 -0.93966
0.019218 -0.048866 0.372 -0.31184 -0.24371 -0.91835
0.019218 -0.048178 0.372 -0.36682 -0.24063 -0.89863
0.019218 -0.047489 0.372 -0.40558 -0.24922 -0.87943
0.019269 -0.046927 0.373 -0.4402 -0.25659 -0.86046
0.019269 -0.046237 0.373 -0.47724 -0.25102 -0.84216
0.019321 -0.045669 0.374 -0.5226 -0.25815 -0.81256
0.019321 -0.044977 0.374 -0.55376 -0.25171 -0.79372
0.019321 -0.044285 0.374 -0.56868 -0.23442 -0.78845
0.019321 -0.043593 0.374 -0.56952 -0.21384 -0.79367
0.019373 -0.043016 0.375 -0.59643 -0.25478 -0.76116
0.019424 -0.042435 0.376 -0.58909 -0.2624 -0.76428
0.019476 -0.04185 0.377 -0.57177 -0.26578 -0.77617
0.019476 -0.041153 0.377 -0.52957 -0.27735 -0.80164
0.019528 -0.040562 0.378 -0.46159 -0.28135 -0.8413
0.019528 -0.039863 0.378 -0.37719 -0.28341 -0.88171
0.019528 -0.039164 0.378 -0.30125 -0.28104 -0.91119
0.019579 -0.038566 0.379 -0.23591 -0.27264 -0.93275
0.019579 -0.037865 0.379 -0.19904 -0.25536 -0.94613
0.019579 -0.037164 0.379 -0.17356 -0.24613 -0.95357
0.019579 -0.036463 0.379 -0.15756 -0.23513 -0.95911
0.019579 -0.035761 0.379 -0.15247 -0.22353 -0.9627
0.019579 -0.03506 0.379 -0.17741 -0.20641 -0.96225
0.019579 -0.034359 0.379 -0.20215 -0.18914 -0.96092
0.019579 -0.033658 0.379 -0.22528 -0.17837 -0.95783
0.019631 -0.033043 0.38 -0.25472 -0.17009 -0.95194
0.019631 -0.03234 0.38 -0.28352 -0.15139 -0.94694
0.019631 -0.031637 0.38 -0.30314 -0.14395 -0.94201
0.019631 -0.030934 0.38 -0.32777 -0.14807 -0.93308
0.019631 -0.030231 0.38 -0.35522 -0.13909 -0.92438
0.019683 -0.029606 0.381 -0.38072 -0.13513 -0.91476
0.019683 -0.028901 0.381 -0.41226 -0.13211 -0.90144
0.019683 -0.028196 0.381 -0.4406 -0.13119 -0.88806
0.019734 -0.027563 0.382 -0.47577 -0.13715 -0.86881
0.019734 -0.026857 0.382 -0.51494 -0.13753 -0.84612
0.019786 -0.026218 0.383 -0.53658 -0.12725 -0.8342
0.019786 -0.02551 0.383 -0.55717 -0.1132 -0.82264
0.019838 -0.024866 0.384 -0.58389 -0.12585 -0.80202
0.019838 -0.024155 0.384 -0.57153 -0.1154 -0.81243
0.019889 -0.023506 0.385 -0.61819 -0.12686 -0.77572
0.019889 -0.022794 0.385 -0.56057 -0.11288 -0.82038
0.019941 -0.022139 0.386 -0.63296 -0.13155 -0.76293
0.019941 -0.021425 0.386 -0.53835 -0.10851 -0.83571
0.020561 -0.020618 0.398 -0.056791 -0.45582 -0.88826
0.020561 -0.019882 0.398 -0.097715 -0.46716 -0.87876
0.020561 -0.019145 0.398 -0.14009 -0.47338 -0.86965
0.020561 -0.018409 0.398 -0.15245 -0.47622 -0.86601
0.020561 -0.017673 0.398 -0.13959 -0.4785 -0.86692
0.020561 -0.016936 0.398 -0.11265 -0.48215 -0.86882
0.020561 -0.0162 0.398 -0.10957 -0.48272 -0.8689
0.020561 -0.015463 0.398 -0.11238 -0.48228 -0.86878
0.020561 -0.014727 0.398 -0.11412 -0.47498 -0.87257
0.020561 -0.013991 0.398 -0.12491 -0.46478 -0.87657
0.020561 -0.013254 0.398 -0.15004 -0.44743 -0.88164
0.020613 -0.012549 0.399 -0.19451 -0.45721 -0.86783
0.020613 -0.011811 0.399 -0.22023 -0.44016 -0.87049
0.020613 -0.011073 0.399 -0.2576 -0.42215 -0.86915
0.020613 -0.010335 0.399 -0.27538 -0.38669 -0.88013
0.020664 -0.0096207 0.4 -0.34632 -0.42706 -0.83527
0.020664 -0.0088807 0.4 -0.3299 -0.39619 -0.85685
0.020664 -0.0081406 0.4 -0.29985 -0.3471 -0.8886
0.020716 -0.0074191 0.401 -0.43825 -0.39593 -0.80695
0.023506 0.013469 0.455 0.4481 0.23899 -0.86145
0.023454 0.014279 0.454 0.31468 0.24795 -0.91624
0.023454 0.015119 0.454 0.3808 0.24152 -0.89256
0.023402 0.015924 0.453 0.31496 0.25067 -0.9154
0.023402 0.016762 0.453 0.37565 0.23922 -0.89535
0.023402 0.0176 0.453 0.36953 0.24385 -0.89665
0.023351 0.018398 0.452 0.40829 0.23103 -0.88313
0.023351 0.019234 0.452 0.33696 0.23263 -0.91233
0.023351 0.02007 0.452 0.24293 0.24239 -0.93927
0.023351 0.020907 0.452 0.16908 0.25121 -0.95305
0.023351 0.021743 0.452 0.12129 0.25022 -0.96056
0.023351 0.023415 0.452 -0.01102 0.23422 -0.97212
0.023351 0.024252 0.452 -0.064563 0.22999 -0.97105
0.023351 0.025088 0.452 -0.12164 0.20219 -0.97176
0.023351 0.025924 0.452 -0.13996 0.19342 -0.97108
0.023351 0.02676 0.452 -0.12509 0.18624 -0.97451
0.023402 0.027658 0.453 -0.35452 0.22135 -0.90847
0.020118 -0.061217 0.376 0.50525 -0.27273 -0.81874
0.020118 -0.060522 0.376 0.6151 -0.25841 -0.7449
0.020065 -0.059667 0.375 0.53584 -0.27204 -0.7993
0.020065 -0.058973 0.375 0.59803 -0.25838 -0.75868
0.020011 -0.058124 0.374 0.54564 -0.27157 -0.7928
0.020011 -0.057432 0.374 0.54647 -0.27343 -0.79158
0.019958 -0.056588 0.373 0.50923 -0.27974 -0.8139
0.019958 -0.055898 0.373 0.46093 -0.28665 -0.83987
0.019904 -0.05506 0.372 0.40479 -0.29235 -0.86642
0.019904 -0.054372 0.372 0.33821 -0.30087 -0.89168
0.019904 -0.053684 0.372 0.2681 -0.30899 -0.9125
0.019904 -0.052995 0.372 0.18405 -0.31224 -0.932
0.019851 -0.052167 0.371 0.10603 -0.31153 -0.9443
0.019851 -0.05148 0.371 0.020604 -0.31734 -0.94809
0.019851 -0.050794 0.371 -0.071944 -0.31659 -0.94583
0.019851 -0.050107 0.371 -0.16092 -0.30513 -0.93862
0.019904 -0.049554 0.372 -0.23659 -0.29159 -0.92682
0.019904 -0.048866 0.372 -0.30894 -0.28741 -0.90662
0.019904 -0.048178 0.372 -0.36186 -0.28847 -0.88648
0.019958 -0.047617 0.373 -0.40186 -0.30134 -0.8647
0.019958 -0.046927 0.373 -0.43548 -0.30441 -0.84717
0.019958 -0.046237 0.373 -0.46708 -0.29278 -0.83434
0.020011 -0.045669 0.374 -0.51797 -0.31201 -0.79646
0.020011 -0.044977 0.374 -0.54482 -0.29994 -0.78307
0.020011 -0.044285 0.374 -0.55517 -0.27497 -0.78497
0.020065 -0.04371 0.375 -0.58745 -0.30659 -0.74893
0.020118 -0.04313 0.376 -0.5895 -0.31164 -0.74523
0.020118 -0.042435 0.376 -0.5787 -0.31843 -0.7508
0.020172 -0.04185 0.377 -0.55644 -0.32369 -0.76524
0.020225 -0.041262 0.378 -0.49281 -0.31708 -0.8103
0.020225 -0.040562 0.378 -0.44067 -0.32786 -0.83566
0.020225 -0.039863 0.378 -0.36109 -0.32077 -0.87562
0.020279 -0.039267 0.379 -0.28602 -0.31087 -0.90639
0.020279 -0.038566 0.379 -0.22421 -0.29154 -0.92991
0.020279 -0.037865 0.379 -0.18512 -0.27468 -0.94355
0.020279 -0.037164 0.379 -0.15308 -0.26378 -0.95236
0.020279 -0.036463 0.379 -0.14366 -0.25156 -0.95712
0.020279 -0.035761 0.379 -0.14632 -0.2398 -0.95973
0.020279 -0.03506 0.379 -0.16797 -0.22296 -0.96025
0.020279 -0.034359 0.379 -0.19054 -0.20698 -0.95961
0.020279 -0.033658 0.379 -0.21278 -0.19413 -0.95762
0.020332 -0.033043 0.38 -0.24772 -0.18555 -0.9509
0.020332 -0.03234 0.38 -0.27645 -0.17119 -0.94566
0.020332 -0.031637 0.38 -0.29701 -0.16688 -0.94018
0.020332 -0.030934 0.38 -0.32828 -0.1746 -0.9283
0.020386 -0.030311 0.381 -0.35094 -0.16743 -0.92131
0.020386 -0.029606 0.381 -0.37796 -0.16657 -0.91071
0.020386 -0.028901 0.381 -0.41513 -0.15656 -0.89619
0.020386 -0.028196 0.381 -0.44805 -0.15685 -0.88014
0.020439 -0.027563 0.382 -0.48294 -0.15617 -0.86162
0.020439 -0.026857 0.382 -0.52091 -0.15319 -0.83976
0.020493 -0.026218 0.383 -0.54015 -0.15076 -0.82796
0.020493 -0.02551 0.383 -0.56243 -0.13852 -0.81516
0.020493 -0.024801 0.383 -0.55951 -0.12833 -0.81883
0.020546 -0.024155 0.384 -0.56005 -0.13572 -0.81727
0.0206 -0.023506 0.385 -0.60565 -0.14286 -0.7828
0.0206 -0.022794 0.385 -0.52612 -0.13169 -0.84015
0.0206 -0.022081 0.385 -0.38424 -0.10931 -0.91674
0.020653 -0.021425 0.386 -0.49428 -0.13371 -0.85896
0.021295 -0.021354 0.398 -0.14565 -0.49737 -0.85523
0.021295 -0.020618 0.398 -0.18856 -0.502 -0.84406
0.021295 -0.019882 0.398 -0.20738 -0.50792 -0.83607
0.021295 -0.019145 0.398 -0.20291 -0.50825 -0.83696
0.021295 -0.018409 0.398 -0.17837 -0.50589 -0.84396
0.021349 -0.017717 0.399 -0.11453 -0.49915 -0.85892
0.021349 -0.016979 0.399 -0.098433 -0.51208 -0.85328
0.021349 -0.016241 0.399 -0.098686 -0.51194 -0.85333
0.021349 -0.015502 0.399 -0.10427 -0.50952 -0.85412
0.021349 -0.014764 0.399 -0.10872 -0.4991 -0.85969
0.021349 -0.014026 0.399 -0.11803 -0.48861 -0.86448
0.021349 -0.013288 0.399 -0.1452 -0.4682 -0.87161
0.021349 -0.012549 0.399 -0.18128 -0.45076 -0.87404
0.021349 -0.011811 0.399 -0.19975 -0.42753 -0.88166
0.021349 -0.011073 0.399 -0.23518 -0.3848 -0.89253
0.021402 -0.010361 0.4 -0.30279 -0.44872 -0.84081
0.021402 -0.0096207 0.4 -0.30469 -0.40855 -0.86038
0.021402 -0.0088807 0.4 -0.26357 -0.36458 -0.89309
0.021456 -0.008161 0.401 -0.3926 -0.43783 -0.80881
0.021456 -0.0074191 0.401 -0.37604 -0.38096 -0.84467
0.024345 0.013469 0.455 0.49276 0.20274 -0.84622
0.024292 0.014279 0.454 0.35867 0.20726 -0.91016
0.024292 0.015119 0.454 0.41282 0.20111 -0.88833
0.024238 0.015924 0.453 0.33703 0.20774 -0.91829
0.024238 0.016762 0.453 0.38218 0.2023 -0.90167
0.024185 0.017562 0.452 0.38202 0.19919 -0.90243
0.024185 0.018398 0.452 0.39401 0.20137 -0.89678
0.024185 0.019234 0.452 0.31602 0.20433 -0.92649
0.024185 0.02007 0.452 0.22968 0.21349 -0.94956
0.024185 0.020907 0.452 0.15912 0.21968 -0.96251
0.024131 0.021695 0.451 0.12958 0.20241 -0.97069
0.024185 0.024252 0.452 -0.085178 0.21117 -0.97373
0.024185 0.025088 0.452 -0.14229 0.19578 -0.97027
0.024185 0.025924 0.452 -0.17763 0.19206 -0.96517
0.024185 0.02676 0.452 -0.16968 0.18261 -0.96843
0.024185 0.027597 0.452 -0.11107 0.18238 -0.97693
0.020867 -0.06138 0.377 0.65471 -0.25399 -0.71193
0.020812 -0.060522 0.376 0.57054 -0.28327 -0.77087
0.020756 -0.059667 0.375 0.49641 -0.29679 -0.81578
0.020756 -0.058973 0.375 0.57387 -0.27691 -0.77071
0.020701 -0.058124 0.374 0.53035 -0.29096 -0.79628
0.020701 -0.057432 0.374 0.5416 -0.29331 -0.78781
0.020646 -0.056588 0.373 0.49789 -0.30178 -0.81304
0.020646 -0.055898 0.373 0.45614 -0.31323 -0.83296
0.02059 -0.05506 0.372 0.40082 -0.32142 -0.85792
0.02059 -0.054372 0.372 0.34023 -0.33083 -0.88023
0.02059 -0.053684 0.372 0.27102 -0.34055 -0.90032
0.02059 -0.052995 0.372 0.19352 -0.34517 -0.91837
0.02059 -0.052307 0.372 0.10988 -0.34773 -0.93113
0.02059 -0.051619 0.372 0.025905 -0.35268 -0.93538
0.02059 -0.050931 0.372 -0.065158 -0.35401 -0.93297
0.02059 -0.050242 0.372 -0.15943 -0.34244 -0.92591
0.02059 -0.049554 0.372 -0.23569 -0.3284 -0.91466
0.02059 -0.048866 0.372 -0.31417 -0.32081 -0.89352
0.02059 -0.048178 0.372 -0.36706 -0.3199 -0.87346
0.020646 -0.047617 0.373 -0.41028 -0.33077 -0.84986
0.020646 -0.046927 0.373 -0.43799 -0.33077 -0.83591
0.020646 -0.046237 0.373 -0.45877 -0.31472 -0.83095
0.020701 -0.045669 0.374 -0.51773 -0.33849 -0.78574
0.020701 -0.044977 0.374 -0.5399 -0.31708 -0.77972
0.020756 -0.044403 0.375 -0.57555 -0.33283 -0.74697
0.020756 -0.04371 0.375 -0.57999 -0.32868 -0.74538
0.020812 -0.04313 0.376 -0.5857 -0.33713 -0.73709
0.020867 -0.042548 0.377 -0.56679 -0.34339 -0.74888
0.020923 -0.041961 0.378 -0.52694 -0.32796 -0.78408
0.020923 -0.041262 0.378 -0.47939 -0.34425 -0.80726
0.020923 -0.040562 0.378 -0.42016 -0.34768 -0.83821
0.020978 -0.039969 0.379 -0.3419 -0.33163 -0.87928
0.020978 -0.039267 0.379 -0.2659 -0.31563 -0.91087
0.020978 -0.038566 0.379 -0.20397 -0.29687 -0.93288
0.020978 -0.037865 0.379 -0.16206 -0.28198 -0.94564
0.020978 -0.037164 0.379 -0.13522 -0.26969 -0.95341
0.020978 -0.036463 0.379 -0.13237 -0.25723 -0.95724
0.020978 -0.035761 0.379 -0.14276 -0.24631 -0.95862
0.020978 -0.03506 0.379 -0.16105 -0.23072 -0.9596
0.020978 -0.034359 0.379 -0.18138 -0.21705 -0.95916
0.021033 -0.033747 0.38 -0.20734 -0.20788 -0.95593
0.021033 -0.033043 0.38 -0.24703 -0.19953 -0.94824
0.021033 -0.03234 0.38 -0.27443 -0.19057 -0.94254
0.021033 -0.031637 0.38 -0.29943 -0.19541 -0.93389
0.021033 -0.030934 0.38 -0.32952 -0.20063 -0.92259
0.021089 -0.030311 0.381 -0.34967 -0.20064 -0.91514
0.021089 -0.029606 0.381 -0.3795 -0.19611 -0.90417
0.021089 -0.028901 0.381 -0.41471 -0.18589 -0.89076
0.021089 -0.028196 0.381 -0.45052 -0.18728 -0.8729
0.021144 -0.027563 0.382 -0.47968 -0.18553 -0.8576
0.021144 -0.026857 0.382 -0.5124 -0.18438 -0.83872
0.021144 -0.02615 0.382 -0.51734 -0.16648 -0.83943
0.021199 -0.02551 0.383 -0.55552 -0.16881 -0.81419
0.021255 -0.024866 0.384 -0.57647 -0.17821 -0.79745
0.021255 -0.024155 0.384 -0.54512 -0.16719 -0.82152
0.02131 -0.023506 0.385 -0.59048 -0.17114 -0.7887
0.02131 -0.022794 0.385 -0.49868 -0.16308 -0.85131
0.02203 -0.022091 0.398 -0.22093 -0.51317 -0.82937
0.02203 -0.021354 0.398 -0.25472 -0.51782 -0.81669
0.02203 -0.020618 0.398 -0.28891 -0.5241 -0.80115
0.022085 -0.019932 0.399 -0.083732 -0.51777 -0.85141
0.022085 -0.019193 0.399 -0.12549 -0.52126 -0.84412
0.022085 -0.018455 0.399 -0.13683 -0.52292 -0.84133
0.022085 -0.017717 0.399 -0.12446 -0.52423 -0.84243
0.022085 -0.016979 0.399 -0.09527 -0.52486 -0.84584
0.022085 -0.016241 0.399 -0.092226 -0.51667 -0.85121
0.022085 -0.015502 0.399 -0.097811 -0.507 -0.85638
0.022085 -0.014764 0.399 -0.098248 -0.49278 -0.86459
0.022085 -0.014026 0.399 -0.099758 -0.46981 -0.87711
0.022085 -0.013288 0.399 -0.12349 -0.43226 -0.89325
0.022085 -0.012549 0.399 -0.15842 -0.39385 -0.90542
0.02214 -0.011841 0.4 -0.21441 -0.48699 -0.84668
0.02214 -0.011101 0.4 -0.25481 -0.44493 -0.85855
0.02214 -0.010361 0.4 -0.27542 -0.3901 -0.87862
0.02214 -0.0096207 0.4 -0.25805 -0.33558 -0.90598
0.022196 -0.0089029 0.401 -0.34087 -0.45551 -0.82239
0.022196 -0.008161 0.401 -0.32757 -0.40529 -0.85348
0.022251 -0.0074376 0.402 -0.46007 -0.45871 -0.76021
0.025185 0.012627 0.455 0.43622 0.15609 -0.8862
0.025185 0.013469 0.455 0.53016 0.15676 -0.83328
0.025129 0.014279 0.454 0.40272 0.15438 -0.90221
0.025129 0.015119 0.454 0.44578 0.14801 -0.88282
0.025074 0.015924 0.453 0.36051 0.15019 -0.92058
0.025074 0.016762 0.453 0.39012 0.15185 -0.90815
0.025018 0.017562 0.452 0.37309 0.16074 -0.91377
0.025018 0.018398 0.452 0.37986 0.15852 -0.91136
0.025018 0.019234 0.452 0.30186 0.16209 -0.93947
0.025018 0.02007 0.452 0.22065 0.16525 -0.96125
0.024963 0.02086 0.451 0.18426 0.16031 -0.96971
0.024963 0.021695 0.451 0.13478 0.16465 -0.9771
0.024963 0.023364 0.451 -0.030861 0.15177 -0.98793
0.024963 0.024198 0.451 -0.055697 0.15682 -0.98606
0.024963 0.025032 0.451 -0.056765 0.15003 -0.98705
0.024963 0.025867 0.451 -0.015782 0.14823 -0.98883
0.025018 0.02676 0.452 -0.22201 0.14524 -0.96417
0.025018 0.027597 0.452 -0.16212 0.14635 -0.97586
0.025018 0.028433 0.452 -0.12118 0.14538 -0.98193
0.021563 -0.06138 0.377 0.60489 -0.28307 -0.7443
0.021506 -0.060522 0.376 0.51156 -0.30696 -0.80255
0.021506 -0.059826 0.376 0.60866 -0.28843 -0.73915
0.021448 -0.058973 0.375 0.5361 -0.30679 -0.78643
0.021448 -0.058279 0.375 0.56358 -0.30445 -0.76791
0.021391 -0.057432 0.374 0.53154 -0.31537 -0.78613
0.021391 -0.05674 0.374 0.49757 -0.33047 -0.80201
0.021334 -0.055898 0.373 0.45157 -0.3407 -0.82462
0.021334 -0.055208 0.373 0.39467 -0.35605 -0.84703
0.021277 -0.054372 0.372 0.33528 -0.36768 -0.86741
0.021277 -0.053684 0.372 0.26612 -0.38428 -0.88403
0.021277 -0.052995 0.372 0.18982 -0.39049 -0.90082
0.021277 -0.052307 0.372 0.10759 -0.39634 -0.91178
0.021277 -0.051619 0.372 0.025435 -0.39481 -0.91841
0.021277 -0.050931 0.372 -0.064058 -0.3932 -0.91722
0.021277 -0.050242 0.372 -0.15684 -0.38172 -0.91087
0.021277 -0.049554 0.372 -0.22691 -0.36812 -0.90166
0.021277 -0.048866 0.372 -0.30592 -0.35804 -0.88217
0.021334 -0.048307 0.373 -0.35955 -0.34922 -0.86531
0.021334 -0.047617 0.373 -0.40927 -0.35271 -0.84149
0.021334 -0.046927 0.373 -0.43303 -0.34484 -0.83281
0.021391 -0.046361 0.374 -0.48988 -0.35747 -0.79513
0.021391 -0.045669 0.374 -0.5126 -0.34447 -0.7865
0.021448 -0.045097 0.375 -0.5596 -0.34707 -0.75259
0.021448 -0.044403 0.375 -0.57222 -0.3406 -0.74602
0.021506 -0.043826 0.376 -0.58623 -0.35336 -0.72902
0.021506 -0.04313 0.376 -0.58221 -0.35768 -0.73013
0.021563 -0.042548 0.377 -0.5581 -0.36898 -0.74322
0.02162 -0.041961 0.378 -0.52361 -0.36633 -0.76918
0.02162 -0.041262 0.378 -0.46803 -0.38198 -0.79689
0.021677 -0.04067 0.379 -0.37742 -0.36568 -0.85078
0.021677 -0.039969 0.379 -0.32629 -0.36748 -0.87091
0.021677 -0.039267 0.379 -0.24841 -0.35297 -0.90206
0.021677 -0.038566 0.379 -0.18677 -0.3333 -0.92414
0.021677 -0.037865 0.379 -0.14697 -0.32287 -0.93496
0.021677 -0.037164 0.379 -0.11814 -0.31119 -0.94298
0.021677 -0.036463 0.379 -0.11416 -0.30025 -0.94701
0.021677 -0.035761 0.379 -0.12486 -0.28043 -0.95172
0.021677 -0.03506 0.379 -0.13882 -0.26225 -0.95496
0.021734 -0.03445 0.38 -0.16198 -0.25127 -0.95427
0.021734 -0.033747 0.38 -0.19283 -0.24148 -0.95105
0.021734 -0.033043 0.38 -0.23818 -0.22753 -0.94419
0.021734 -0.03234 0.38 -0.2714 -0.22444 -0.93593
0.021734 -0.031637 0.38 -0.29736 -0.22677 -0.92744
0.021734 -0.030934 0.38 -0.33323 -0.22799 -0.91486
0.021792 -0.030311 0.381 -0.35305 -0.22869 -0.90723
0.021792 -0.029606 0.381 -0.38283 -0.22086 -0.89703
0.021792 -0.028901 0.381 -0.41719 -0.2163 -0.88271
0.021849 -0.02827 0.382 -0.45143 -0.21852 -0.86513
0.021849 -0.027563 0.382 -0.47609 -0.22096 -0.85118
0.021849 -0.026857 0.382 -0.50578 -0.20665 -0.83754
0.021906 -0.026218 0.383 -0.53124 -0.21594 -0.81924
0.021906 -0.02551 0.383 -0.543 -0.20782 -0.81361
0.021963 -0.024866 0.384 -0.5623 -0.21083 -0.7996
0.021963 -0.024155 0.384 -0.51086 -0.20222 -0.83554
0.02202 -0.023506 0.385 -0.56265 -0.2025 -0.80151
0.022764 -0.022091 0.398 -0.33743 -0.53347 -0.7756
0.022764 -0.021354 0.398 -0.36168 -0.53587 -0.76291
0.022821 -0.02067 0.399 -0.15808 -0.54242 -0.8251
0.022821 -0.019932 0.399 -0.18648 -0.54742 -0.81581
0.022821 -0.019193 0.399 -0.18304 -0.54443 -0.81859
0.022821 -0.018455 0.399 -0.15224 -0.54005 -0.82775
0.022821 -0.017717 0.399 -0.11358 -0.5291 -0.84092
0.022878 -0.017021 0.4 -0.12134 -0.56983 -0.81275
0.022878 -0.016281 0.4 -0.11707 -0.56771 -0.81486
0.022878 -0.015541 0.4 -0.12103 -0.56209 -0.81818
0.022878 -0.014801 0.4 -0.11831 -0.55272 -0.82492
0.022878 -0.014061 0.4 -0.11524 -0.53259 -0.83849
0.022878 -0.013321 0.4 -0.12914 -0.50299 -0.85459
0.022878 -0.012581 0.4 -0.16516 -0.467 -0.86869
0.022878 -0.011841 0.4 -0.19258 -0.41404 -0.88965
0.022878 -0.011101 0.4 -0.23058 -0.35578 -0.90568
0.022878 -0.010361 0.4 -0.2443 -0.28898 -0.92564
0.022935 -0.0096448 0.401 -0.30891 -0.45956 -0.83269
0.022935 -0.0089029 0.401 -0.29492 -0.40549 -0.86522
0.022935 -0.008161 0.401 -0.27437 -0.3475 -0.89664
0.026024 0.012627 0.455 0.4789 0.10439 -0.87164
0.025967 0.013439 0.454 0.35863 0.097391 -0.92839
0.025967 0.014279 0.454 0.44229 0.10218 -0.89103
0.02591 0.015086 0.453 0.32587 0.084847 -0.9416
0.02591 0.015924 0.453 0.38327 0.09354 -0.91889
0.025852 0.016725 0.452 0.36544 0.10051 -0.92539
0.025852 0.017562 0.452 0.36666 0.11945 -0.92266
0.025852 0.018398 0.452 0.3613 0.11204 -0.9257
0.025852 0.019234 0.452 0.27944 0.12157 -0.95243
0.025795 0.020026 0.451 0.23618 0.11178 -0.96526
0.025795 0.02086 0.451 0.16171 0.11609 -0.97999
0.025795 0.021695 0.451 0.11451 0.11353 -0.98691
0.025795 0.023364 0.451 -0.029351 0.12779 -0.99137
0.025795 0.024198 0.451 -0.053444 0.13574 -0.9893
0.025795 0.025032 0.451 -0.053813 0.13843 -0.98891
0.025795 0.025867 0.451 -0.011364 0.13987 -0.9901
0.025852 0.02676 0.452 -0.22114 0.10568 -0.9695
0.025852 0.027597 0.452 -0.17318 0.11537 -0.97811
0.025852 0.028433 0.452 -0.12914 0.11403 -0.98505
0.022258 -0.06138 0.377 0.54584 -0.32233 -0.77341
0.022258 -0.060683 0.377 0.6344 -0.30315 -0.71108
0.022199 -0.059826 0.376 0.55037 -0.32992 -0.76697
0.02214 -0.058973 0.375 0.48416 -0.34612 -0.80361
0.02214 -0.058279 0.375 0.53107 -0.33969 -0.77626
0.02214 -0.057586 0.375 0.5271 -0.34503 -0.77661
0.022081 -0.05674 0.374 0.48965 -0.3572 -0.79539
0.022022 -0.055898 0.373 0.44021 -0.36532 -0.82022
0.022022 -0.055208 0.373 0.39169 -0.3836 -0.83632
0.022022 -0.054518 0.373 0.33485 -0.39538 -0.85531
0.022022 -0.053828 0.373 0.27016 -0.40829 -0.87196
0.021963 -0.052995 0.372 0.19869 -0.41652 -0.88715
0.021963 -0.052307 0.372 0.11483 -0.4213 -0.89962
0.021963 -0.051619 0.372 0.029498 -0.41945 -0.9073
0.021963 -0.050931 0.372 -0.057936 -0.41533 -0.90782
0.021963 -0.050242 0.372 -0.14987 -0.40505 -0.90193
0.021963 -0.049554 0.372 -0.21996 -0.39697 -0.89108
0.022022 -0.048997 0.373 -0.29899 -0.38396 -0.8736
0.022022 -0.048307 0.373 -0.35864 -0.37302 -0.85571
0.022022 -0.047617 0.373 -0.4104 -0.36523 -0.83557
0.022081 -0.047053 0.374 -0.46089 -0.37305 -0.80524
0.022081 -0.046361 0.374 -0.49387 -0.36414 -0.78961
0.02214 -0.045791 0.375 -0.53465 -0.37452 -0.75755
0.02214 -0.045097 0.375 -0.55925 -0.36212 -0.74573
0.022199 -0.044522 0.376 -0.58144 -0.37278 -0.72316
0.022199 -0.043826 0.376 -0.5864 -0.36789 -0.72166
0.022258 -0.043245 0.377 -0.57651 -0.38042 -0.72313
0.022317 -0.04266 0.378 -0.54523 -0.38734 -0.74343
0.022317 -0.041961 0.378 -0.5112 -0.3972 -0.76217
0.022376 -0.041371 0.379 -0.42217 -0.38364 -0.82134
0.022376 -0.04067 0.379 -0.36916 -0.39409 -0.84167
0.022376 -0.039969 0.379 -0.30763 -0.39063 -0.86762
0.022376 -0.039267 0.379 -0.22695 -0.37861 -0.8973
0.022435 -0.038668 0.38 -0.16464 -0.3586 -0.91886
0.022435 -0.037965 0.38 -0.12052 -0.34855 -0.92951
0.022435 -0.037262 0.38 -0.0951 -0.33303 -0.93811
0.022435 -0.036559 0.38 -0.096683 -0.31917 -0.94275
0.022435 -0.035856 0.38 -0.10827 -0.30276 -0.9469
0.022435 -0.035153 0.38 -0.1242 -0.289 -0.94924
0.022435 -0.03445 0.38 -0.15074 -0.28283 -0.94725
0.022435 -0.033747 0.38 -0.18581 -0.27296 -0.94391
0.022435 -0.033043 0.38 -0.23579 -0.2659 -0.93472
0.022435 -0.03234 0.38 -0.26866 -0.26356 -0.92648
0.022435 -0.031637 0.38 -0.29453 -0.26348 -0.9186
0.022494 -0.031016 0.381 -0.33448 -0.2592 -0.90606
0.022494 -0.030311 0.381 -0.35374 -0.26115 -0.89815
0.022494 -0.029606 0.381 -0.38662 -0.25461 -0.88639
0.022494 -0.028901 0.381 -0.41814 -0.2555 -0.87171
0.022554 -0.02827 0.382 -0.45467 -0.25267 -0.85407
0.022554 -0.027563 0.382 -0.4736 -0.24903 -0.8448
0.022554 -0.026857 0.382 -0.49387 -0.22729 -0.8393
0.022613 -0.026218 0.383 -0.52307 -0.24832 -0.81531
0.022672 -0.025576 0.384 -0.55364 -0.25292 -0.79342
0.022672 -0.024866 0.384 -0.54333 -0.24587 -0.80271
0.022731 -0.024218 0.385 -0.57135 -0.2515 -0.78122
0.022731 -0.023506 0.385 -0.52082 -0.24652 -0.81729
0.022731 -0.022794 0.385 -0.38112 -0.24258 -0.89213
0.023557 -0.022884 0.399 -0.16915 -0.56066 -0.81059
0.023557 -0.022146 0.399 -0.20521 -0.56498 -0.79918
0.023557 -0.021408 0.399 -0.23975 -0.56328 -0.79072
0.023557 -0.02067 0.399 -0.27675 -0.56058 -0.78049
0.023557 -0.019932 0.399 -0.26395 -0.55857 -0.78634
0.023616 -0.019241 0.4 -0.15621 -0.56949 -0.80702
0.023616 -0.018501 0.4 -0.14866 -0.57251 -0.80631
0.023616 -0.017761 0.4 -0.12919 -0.56864 -0.81238
0.023616 -0.017021 0.4 -0.090315 -0.56341 -0.82123
0.023616 -0.016281 0.4 -0.080419 -0.55199 -0.82996
0.023616 -0.015541 0.4 -0.083175 -0.52906 -0.8445
0.023616 -0.014801 0.4 -0.078568 -0.50509 -0.85948
0.023616 -0.014061 0.4 -0.082133 -0.46401 -0.88201
0.023616 -0.013321 0.4 -0.10633 -0.41892 -0.90177
0.023675 -0.012612 0.401 -0.17565 -0.58357 -0.79284
0.023675 -0.01187 0.401 -0.209 -0.54811 -0.80988
0.023675 -0.011129 0.401 -0.24912 -0.49934 -0.82982
0.023675 -0.010387 0.401 -0.2777 -0.44052 -0.85371
0.023675 -0.0096448 0.401 -0.28106 -0.38114 -0.88076
0.023734 -0.0089251 0.402 -0.33965 -0.51476 -0.78719
0.026863 0.012627 0.455 0.51068 0.066991 -0.85716
0.026863 0.013469 0.455 0.58865 0.08037 -0.80439
0.026804 0.014279 0.454 0.4694 0.065482 -0.88055
0.026745 0.015086 0.453 0.35806 0.041294 -0.93279
0.026745 0.015924 0.453 0.401 0.047918 -0.91482
0.026686 0.016725 0.452 0.37382 0.060518 -0.92553
0.026686 0.017562 0.452 0.36497 0.078843 -0.92767
0.026686 0.018398 0.452 0.34869 0.065653 -0.93494
0.026686 0.019234 0.452 0.26348 0.072503 -0.96194
0.026627 0.020026 0.451 0.23069 0.068544 -0.97061
0.026627 0.02086 0.451 0.16013 0.080027 -0.98385
0.026627 0.021695 0.451 0.11023 0.07223 -0.99128
0.026627 0.023364 0.451 -0.020593 0.093936 -0.99537
0.026627 0.024198 0.451 -0.047099 0.10568 -0.99328
0.026627 0.025032 0.451 -0.049624 0.11845 -0.99172
0.026627 0.025867 0.451 -0.012229 0.12202 -0.99245
0.026686 0.02676 0.452 -0.23116 0.056957 -0.97125
0.026686 0.027597 0.452 -0.18758 0.073032 -0.97953
0.022954 -0.060683 0.377 0.57649 -0.34247 -0.74187
0.022893 -0.059826 0.376 0.48508 -0.36818 -0.79319
0.022893 -0.05913 0.376 0.55684 -0.3626 -0.74729
0.022832 -0.058279 0.375 0.50046 -0.3747 -0.78047
0.022832 -0.057586 0.375 0.51368 -0.37536 -0.77152
0.022771 -0.05674 0.374 0.47775 -0.38394 -0.79015
0.022771 -0.056048 0.374 0.43703 -0.40022 -0.8055
0.02271 -0.055208 0.373 0.37901 -0.40976 -0.82972
0.02271 -0.054518 0.373 0.33013 -0.42415 -0.84327
0.02271 -0.053828 0.373 0.27239 -0.43317 -0.85917
0.02271 -0.053138 0.373 0.20203 -0.43756 -0.8762
0.02271 -0.052448 0.373 0.11964 -0.44101 -0.88949
0.02271 -0.051758 0.373 0.035567 -0.4396 -0.89749
0.02271 -0.051068 0.373 -0.051988 -0.4288 -0.9019
0.02271 -0.050377 0.373 -0.13887 -0.42083 -0.89644
0.02271 -0.049687 0.373 -0.21061 -0.41368 -0.88573
0.02271 -0.048997 0.373 -0.29788 -0.39884 -0.86729
0.02271 -0.048307 0.373 -0.35407 -0.39074 -0.84968
0.022771 -0.047745 0.374 -0.41815 -0.38356 -0.82343
0.022771 -0.047053 0.374 -0.4631 -0.37925 -0.80107
0.022771 -0.046361 0.374 -0.49052 -0.36406 -0.79174
0.022832 -0.045791 0.375 -0.5356 -0.38041 -0.75394
0.022832 -0.045097 0.375 -0.55535 -0.36213 -0.74864
0.022893 -0.044522 0.376 -0.58413 -0.38148 -0.71642
0.022954 -0.043943 0.377 -0.58681 -0.38816 -0.71062
0.023015 -0.04336 0.378 -0.56564 -0.39081 -0.72617
0.023015 -0.04266 0.378 -0.53673 -0.40297 -0.7413
0.023076 -0.042072 0.379 -0.47591 -0.38176 -0.79231
0.023076 -0.041371 0.379 -0.41797 -0.4024 -0.81448
0.023076 -0.04067 0.379 -0.35109 -0.40966 -0.84197
0.023076 -0.039969 0.379 -0.28015 -0.40262 -0.87144
0.023137 -0.039371 0.38 -0.20143 -0.388 -0.89938
0.023137 -0.038668 0.38 -0.13965 -0.37028 -0.91836
0.023137 -0.037965 0.38 -0.098582 -0.3561 -0.92923
0.023137 -0.037262 0.38 -0.083812 -0.34312 -0.93554
0.023137 -0.036559 0.38 -0.090913 -0.32727 -0.94055
0.023137 -0.035856 0.38 -0.10233 -0.315 -0.94356
0.023137 -0.035153 0.38 -0.11912 -0.30641 -0.94442
0.023137 -0.03445 0.38 -0.14749 -0.30523 -0.94079
0.023137 -0.033747 0.38 -0.19055 -0.30096 -0.9344
0.023137 -0.033043 0.38 -0.23672 -0.29589 -0.92542
0.023137 -0.03234 0.38 -0.27073 -0.29903 -0.91503
0.023197 -0.031721 0.381 -0.29628 -0.30078 -0.90651
0.023197 -0.031016 0.381 -0.3315 -0.29805 -0.89514
0.023197 -0.030311 0.381 -0.34986 -0.30528 -0.88566
0.023258 -0.029684 0.382 -0.38146 -0.29962 -0.87448
0.023258 -0.028977 0.382 -0.41679 -0.30447 -0.85649
0.023258 -0.02827 0.382 -0.44652 -0.29936 -0.84321
0.023319 -0.027636 0.383 -0.4735 -0.30862 -0.82495
0.023319 -0.026927 0.383 -0.49607 -0.29865 -0.8153
0.023319 -0.026218 0.383 -0.5059 -0.29267 -0.81143
0.02338 -0.025576 0.384 -0.53223 -0.30521 -0.78967
0.02338 -0.024866 0.384 -0.51152 -0.28708 -0.8099
0.023441 -0.024218 0.385 -0.53939 -0.29977 -0.78689
0.023502 -0.023567 0.386 -0.61456 -0.30721 -0.7266
0.023502 -0.022853 0.386 -0.53791 -0.29874 -0.7883
0.023502 -0.022139 0.386 -0.41864 -0.30476 -0.85549
0.023563 -0.02148 0.387 -0.51475 -0.31216 -0.79849
0.024293 -0.021408 0.399 -0.37118 -0.52659 -0.7648
0.024354 -0.020722 0.4 -0.17291 -0.56531 -0.80655
0.024354 -0.019981 0.4 -0.19416 -0.55954 -0.80574
0.024354 -0.019241 0.4 -0.17084 -0.54817 -0.81874
0.024354 -0.018501 0.4 -0.12785 -0.53626 -0.83432
0.024415 -0.017806 0.401 -0.1582 -0.62216 -0.76674
0.024415 -0.01558 0.401 -0.11464 -0.60072 -0.7912
0.024415 -0.014838 0.401 -0.10508 -0.59205 -0.79902
0.024415 -0.014096 0.401 -0.099683 -0.57248 -0.81384
0.024415 -0.013354 0.401 -0.11809 -0.54735 -0.82853
0.024415 -0.012612 0.401 -0.1587 -0.5126 -0.84383
0.027642 0.013439 0.454 0.42256 0.027036 -0.90593
0.027642 0.014279 0.454 0.48838 0.036702 -0.87186
0.027581 0.015086 0.453 0.37764 0.012779 -0.92587
0.027581 0.015924 0.453 0.40722 0.018969 -0.91313
0.02752 0.016725 0.452 0.37276 0.028873 -0.92748
0.02752 0.017562 0.452 0.35856 0.043313 -0.9325
0.02752 0.018398 0.452 0.33224 0.022913 -0.94292
0.02752 0.019234 0.452 0.24972 0.026915 -0.96794
0.027459 0.020026 0.451 0.21474 0.010621 -0.97661
0.027459 0.02086 0.451 0.1545 0.027754 -0.9876
0.027459 0.021695 0.451 0.11231 0.021502 -0.99344
0.027459 0.023364 0.451 0.00042417 0.046796 -0.9989
0.027459 0.024198 0.451 -0.030246 0.053365 -0.99812
0.027459 0.025032 0.451 -0.03581 0.064847 -0.99725
0.027459 0.025867 0.451 -0.0048343 0.075038 -0.99717
0.02752 0.02676 0.452 -0.22763 -0.024344 -0.97344
0.02752 0.027597 0.452 -0.19093 0.002834 -0.9816
0.023712 -0.061543 0.378 0.60357 -0.34339 -0.71957
0.023649 -0.060683 0.377 0.50751 -0.36321 -0.78135
0.023649 -0.059985 0.377 0.58983 -0.36041 -0.72264
0.023587 -0.05913 0.376 0.50746 -0.37801 -0.77433
0.023524 -0.058279 0.375 0.46246 -0.38028 -0.80095
0.023524 -0.057586 0.375 0.49323 -0.38781 -0.77867
0.023524 -0.056892 0.375 0.4667 -0.40493 -0.78627
0.023461 -0.056048 0.374 0.42428 -0.41445 -0.80512
0.023461 -0.055356 0.374 0.37638 -0.43022 -0.82052
0.023461 -0.054664 0.374 0.32128 -0.44053 -0.83828
0.023399 -0.053828 0.373 0.26981 -0.45048 -0.85104
0.023399 -0.053138 0.373 0.20087 -0.45667 -0.86666
0.023399 -0.052448 0.373 0.12573 -0.45834 -0.87984
0.023399 -0.051758 0.373 0.042542 -0.46243 -0.88564
0.023399 -0.051068 0.373 -0.043901 -0.45061 -0.89164
0.023399 -0.050377 0.373 -0.1249 -0.44072 -0.88891
0.023399 -0.049687 0.373 -0.19871 -0.4311 -0.88015
0.023399 -0.048997 0.373 -0.28363 -0.42014 -0.86199
0.023461 -0.048437 0.374 -0.34258 -0.41318 -0.84376
0.023461 -0.047745 0.374 -0.40946 -0.4005 -0.81972
0.023461 -0.047053 0.374 -0.45597 -0.38377 -0.803
0.023524 -0.046485 0.375 -0.51575 -0.39105 -0.76229
0.023524 -0.045791 0.375 -0.53652 -0.38007 -0.75346
0.023587 -0.045217 0.376 -0.5769 -0.38805 -0.71875
0.023649 -0.04464 0.377 -0.59307 -0.38338 -0.70802
0.023712 -0.044059 0.378 -0.58252 -0.37659 -0.72031
0.023712 -0.04336 0.378 -0.56775 -0.38844 -0.72579
0.023775 -0.042773 0.379 -0.51132 -0.37442 -0.77354
0.023775 -0.042072 0.379 -0.47098 -0.39134 -0.79059
0.023775 -0.041371 0.379 -0.40219 -0.40398 -0.82161
0.023838 -0.040777 0.38 -0.30961 -0.38881 -0.86774
0.023838 -0.040074 0.38 -0.24932 -0.39324 -0.88499
0.023838 -0.039371 0.38 -0.1746 -0.3792 -0.90869
0.023838 -0.038668 0.38 -0.11954 -0.36847 -0.92192
0.023838 -0.037965 0.38 -0.087718 -0.35646 -0.93018
0.023838 -0.037262 0.38 -0.083685 -0.34699 -0.93413
0.023838 -0.036559 0.38 -0.090647 -0.33513 -0.9378
0.023838 -0.035856 0.38 -0.10295 -0.32786 -0.9391
0.023838 -0.035153 0.38 -0.12681 -0.32989 -0.93546
0.023838 -0.03445 0.38 -0.15564 -0.33338 -0.92986
0.023838 -0.033747 0.38 -0.19809 -0.32888 -0.92336
0.0239 -0.03313 0.381 -0.2368 -0.32523 -0.91551
0.0239 -0.032426 0.381 -0.26886 -0.33275 -0.90388
0.0239 -0.031721 0.381 -0.29251 -0.33682 -0.89498
0.0239 -0.031016 0.381 -0.33004 -0.33431 -0.88279
0.0239 -0.030311 0.381 -0.34581 -0.33561 -0.87623
0.023963 -0.029684 0.382 -0.38619 -0.34511 -0.85543
0.023963 -0.028977 0.382 -0.41443 -0.34636 -0.8416
0.023963 -0.02827 0.382 -0.43264 -0.33957 -0.83517
0.024026 -0.027636 0.383 -0.4666 -0.35264 -0.81113
0.024026 -0.026927 0.383 -0.48215 -0.33583 -0.80916
0.024089 -0.026287 0.384 -0.51551 -0.36233 -0.77651
0.024089 -0.025576 0.384 -0.50183 -0.36048 -0.78627
0.024151 -0.024931 0.385 -0.54097 -0.37013 -0.75522
0.024151 -0.024218 0.385 -0.48065 -0.36416 -0.79772
0.024214 -0.023567 0.386 -0.55384 -0.37873 -0.74151
0.024277 -0.022912 0.387 -0.62392 -0.37121 -0.6877
0.024277 -0.022196 0.387 -0.54071 -0.38132 -0.74982
0.025092 -0.021462 0.4 -0.24861 -0.55784 -0.79184
0.025155 -0.020773 0.401 -0.092508 -0.62441 -0.7756
0.025155 -0.020031 0.401 -0.1626 -0.61819 -0.76903
0.025155 -0.01929 0.401 -0.17947 -0.60556 -0.7753
0.025155 -0.018548 0.401 -0.15872 -0.59417 -0.78852
0.025155 -0.017806 0.401 -0.13595 -0.57843 -0.80433
0.025155 -0.01558 0.401 -0.072054 -0.51772 -0.85251
0.025155 -0.014838 0.401 -0.061037 -0.4974 -0.86537
0.02848 0.013439 0.454 0.43581 0.0037466 -0.90003
0.02848 0.014279 0.454 0.49433 0.016782 -0.86911
0.028417 0.015086 0.453 0.38866 -0.0053024 -0.92136
0.028417 0.015924 0.453 0.41096 -0.0015275 -0.91165
0.028417 0.016762 0.453 0.38545 0.010669 -0.92267
0.028354 0.017562 0.452 0.35241 0.0073986 -0.93582
0.028354 0.018398 0.452 0.32246 -0.017545 -0.94642
0.028354 0.019234 0.452 0.24233 -0.022475 -0.96993
0.028292 0.020026 0.451 0.21764 -0.039583 -0.97523
0.028292 0.02086 0.451 0.15262 -0.035304 -0.98765
0.028229 0.021647 0.45 0.15643 -0.026233 -0.98734
0.028292 0.023364 0.451 0.013371 -0.011544 -0.99984
0.028292 0.024198 0.451 -0.022486 -0.010922 -0.99969
0.028292 0.025032 0.451 -0.029468 -0.0028565 -0.99956
0.028292 0.025867 0.451 0.00019657 0.011727 -0.99993
0.028354 0.02676 0.452 -0.22949 -0.10049 -0.96811
0.028354 0.027597 0.452 -0.19076 -0.067681 -0.9793
0.02441 -0.061543 0.378 0.54552 -0.35963 -0.75702
0.02441 -0.060844 0.378 0.62308 -0.36283 -0.69291
0.024345 -0.059985 0.377 0.53317 -0.38123 -0.75524
0.02428 -0.05913 0.376 0.44939 -0.38664 -0.80533
0.02428 -0.058435 0.376 0.50496 -0.39957 -0.76509
0.024216 -0.057586 0.375 0.46948 -0.3947 -0.78981
0.024216 -0.056892 0.375 0.45211 -0.42277 -0.78541
0.024151 -0.056048 0.374 0.40491 -0.43432 -0.80462
0.024151 -0.055356 0.374 0.35737 -0.4557 -0.81525
0.024151 -0.054664 0.374 0.30783 -0.46195 -0.83177
0.024151 -0.053972 0.374 0.25738 -0.46685 -0.84605
0.024151 -0.05328 0.374 0.19492 -0.47778 -0.85658
0.024087 -0.052448 0.373 0.1228 -0.48363 -0.86661
0.024087 -0.051758 0.373 0.043042 -0.48367 -0.87419
0.024087 -0.051068 0.373 -0.03483 -0.47575 -0.87889
