-0.015828 -0.056588 0.373 0.54976 0.37007 -0.74888
-0.015786 -0.055748 0.372 0.50182 0.38421 -0.77496
-0.015786 -0.05506 0.372 0.47369 0.4091 -0.77991
-0.015744 -0.054226 0.371 0.41101 0.42484 -0.80659
-0.015744 -0.053539 0.371 0.37803 0.45742 -0.8049
-0.015744 -0.052853 0.371 0.34238 0.47297 -0.81184
-0.015701 -0.052026 0.37 0.3125 0.49671 -0.8097
-0.015701 -0.051341 0.37 0.24756 0.52307 -0.81554
-0.015701 -0.050657 0.37 0.19675 0.54492 -0.81508
-0.015701 -0.049972 0.37 0.15789 0.55927 -0.81381
-0.015701 -0.049288 0.37 0.10892 0.56676 -0.81665
-0.015701 -0.048603 0.37 0.030594 0.58068 -0.81355
-0.015701 -0.047919 0.37 -0.025633 0.58282 -0.8122
-0.015701 -0.047234 0.37 -0.049024 0.57941 -0.81356
-0.015701 -0.045865 0.37 -0.1747 0.52605 -0.83232
-0.015786 -0.044736 0.372 -0.45446 0.5873 -0.66973
-0.015871 -0.042209 0.374 -0.37323 0.52901 -0.76213
-0.015913 -0.041628 0.375 -0.23355 0.50536 -0.8307
-0.015913 -0.040934 0.375 -0.25751 0.48221 -0.83735
-0.015913 -0.039547 0.375 -0.29946 0.43549 -0.84892
-0.015956 -0.038957 0.376 -0.16552 0.40617 -0.89868
-0.015956 -0.038261 0.376 -0.18264 0.39393 -0.90081
-0.015956 -0.037565 0.376 -0.18186 0.36656 -0.91245
-0.015956 -0.03687 0.376 -0.18807 0.35222 -0.91683
-0.015956 -0.036174 0.376 -0.18119 0.34869 -0.91956
-0.015956 -0.035478 0.376 -0.16019 0.33822 -0.92733
-0.015956 -0.034783 0.376 -0.16575 0.33498 -0.92753
-0.015956 -0.034087 0.376 -0.17092 0.3376 -0.92564
-0.015998 -0.03348 0.377 -0.1858 0.3455 -0.91984
-0.015956 -0.032696 0.376 -0.21052 0.35494 -0.91088
-0.015998 -0.032085 0.377 -0.23471 0.36231 -0.90202
-0.015998 -0.031388 0.377 -0.25799 0.36739 -0.89357
-0.015998 -0.03069 0.377 -0.29368 0.37417 -0.87963
-0.015998 -0.029993 0.377 -0.31791 0.37982 -0.86872
-0.016041 -0.029373 0.378 -0.34306 0.38563 -0.8565
-0.016041 -0.028673 0.378 -0.37195 0.39181 -0.84151
-0.016041 -0.027974 0.378 -0.38931 0.39316 -0.83299
-0.016083 -0.027347 0.379 -0.41129 0.40438 -0.8169
-0.016083 -0.026646 0.379 -0.42855 0.40548 -0.80742
-0.016083 -0.025944 0.379 -0.43874 0.40246 -0.80345
-0.016125 -0.02531 0.38 -0.46771 0.41314 -0.78139
-0.016125 -0.024607 0.38 -0.47273 0.41044 -0.77979
-0.016125 -0.023904 0.38 -0.46363 0.395 -0.79311
-0.016168 -0.023262 0.381 -0.50345 0.42715 -0.75106
-0.01621 -0.022616 0.382 -0.5131 0.43557 -0.7396
-0.01621 -0.021909 0.382 -0.50395 0.43732 -0.74484
-0.01621 -0.021203 0.382 -0.47626 0.4428 -0.75967
-0.016253 -0.020549 0.383 -0.48432 0.44765 -0.75169
-0.016253 -0.019841 0.383 -0.39673 0.45909 -0.79488
-0.016295 -0.019182 0.384 -0.44394 0.45959 -0.76922
-0.016338 -0.01852 0.385 -0.52991 0.44657 -0.72095
-0.016338 -0.017808 0.385 -0.43947 0.46228 -0.77017
-0.01672 -0.017495 0.394 -0.18798 0.21076 -0.95929
-0.01672 -0.016766 0.394 -0.25585 0.22346 -0.94054
-0.01672 -0.016037 0.394 -0.31254 0.23816 -0.91956
-0.01672 -0.015308 0.394 -0.33353 0.24601 -0.91007
-0.01672 -0.014579 0.394 -0.33073 0.2507 -0.90982
-0.016762 -0.013885 0.395 -0.27937 0.2501 -0.92704
-0.016762 -0.013154 0.395 -0.27963 0.26142 -0.92383
-0.016762 -0.012424 0.395 -0.27937 0.27065 -0.92125
-0.016762 -0.011693 0.395 -0.28143 0.28597 -0.91598
-0.016804 -0.01099 0.396 -0.26588 0.29934 -0.91635
-0.016804 -0.010257 0.396 -0.26766 0.30608 -0.91361
-0.016804 -0.0095245 0.396 -0.2648 0.31647 -0.91089
-0.016804 -0.0087919 0.396 -0.27209 0.31946 -0.9077
-0.016804 -0.0080592 0.396 -0.30141 0.32284 -0.89718
-0.016804 -0.0073265 0.396 -0.32885 0.32594 -0.88635
-0.016847 -0.0066105 0.397 -0.37859 0.32986 -0.86479
-0.016847 -0.005876 0.397 -0.42257 0.32227 -0.8471
-0.016847 -0.0051415 0.397 -0.45814 0.30956 -0.83323
-0.016889 -0.0044181 0.398 -0.50273 0.31973 -0.80314
-0.016889 -0.0036818 0.398 -0.51769 0.30781 -0.79828
-0.016932 -0.0029528 0.399 -0.51954 0.31835 -0.79292
-0.016974 -0.0022202 0.4 -0.5454 0.33992 -0.76616
-0.017017 -0.0014838 0.401 -0.57991 0.3721 -0.72474
-0.017017 -0.00074191 0.401 -0.53405 0.36143 -0.7643
-0.017017 0 0.401 -0.48366 0.31854 -0.81523
-0.019011 0.019064 0.448 0.30897 0.20818 -0.92801
-0.019011 0.019893 0.448 0.40982 0.24158 -0.87959
-0.019011 0.020722 0.448 0.44627 0.29506 -0.84486
-0.018969 0.021502 0.447 0.44101 0.19039 -0.87708
-0.018969 0.022329 0.447 0.45595 0.26182 -0.85062
-0.018926 0.023105 0.446 0.46355 0.13035 -0.87643
-0.018926 0.02393 0.446 0.43561 0.21405 -0.87432
-0.018884 0.024699 0.445 0.43123 0.080082 -0.89868
-0.018884 0.025523 0.445 0.41569 0.15354 -0.89645
-0.018884 0.026346 0.445 0.35682 0.23826 -0.90328
-0.018841 0.027108 0.444 0.31672 0.11723 -0.94125
-0.018841 0.02793 0.444 0.18994 0.16838 -0.96725
-0.018841 0.028751 0.444 0.12451 0.19356 -0.97315
-0.018841 0.031216 0.444 -0.034376 0.22811 -0.97303
-0.015952 -0.077073 0.393 0.38943 -0.30099 -0.87049
-0.015911 -0.076152 0.392 0.32587 -0.045483 -0.94432
-0.015911 -0.075426 0.392 0.30996 -0.12005 -0.94314
-0.015911 -0.074701 0.392 0.27567 -0.18919 -0.94245
-0.01583 -0.073599 0.39 0.33692 0.34138 -0.87746
-0.01579 -0.07269 0.389 0.39097 0.4637 -0.79506
-0.01583 -0.070712 0.39 0.34288 0.063996 -0.9372
-0.015749 -0.069632 0.388 0.58873 0.24741 -0.76953
-0.015749 -0.068914 0.388 0.50084 0.32617 -0.80173
-0.015384 -0.063809 0.379 0.72923 0.25742 -0.634
-0.015221 -0.059667 0.375 0.65265 0.28703 -0.70119
-0.015181 -0.058816 0.374 0.57271 0.31614 -0.75634
-0.01514 -0.057969 0.373 0.49031 0.34786 -0.79911
-0.0151 -0.057125 0.372 0.42912 0.36696 -0.82535
-0.0151 -0.056437 0.372 0.51016 0.35375 -0.78396
-0.0151 -0.055748 0.372 0.52198 0.35439 -0.77585
-0.015059 -0.054912 0.371 0.47057 0.36379 -0.80388
-0.015059 -0.054226 0.371 0.4428 0.38433 -0.81007
-0.015059 -0.053539 0.371 0.40408 0.41279 -0.81629
-0.015018 -0.05271 0.37 0.39298 0.41452 -0.82082
-0.015018 -0.052026 0.37 0.33059 0.44145 -0.83417
-0.015018 -0.051341 0.37 0.25451 0.47073 -0.84477
-0.015018 -0.050657 0.37 0.19979 0.48913 -0.84902
-0.014978 -0.049837 0.369 0.27519 0.46717 -0.84025
-0.014978 -0.048472 0.369 0.16442 0.46558 -0.8696
-0.014978 -0.047789 0.369 0.085108 0.46586 -0.88076
-0.015018 -0.04518 0.37 -0.34722 0.44611 -0.82488
-0.015181 -0.041517 0.374 -0.35949 0.50406 -0.7853
-0.015221 -0.038853 0.375 -0.31301 0.41457 -0.85449
-0.015221 -0.038159 0.375 -0.30921 0.38143 -0.87115
-0.015262 -0.037565 0.376 -0.1636 0.37303 -0.91328
-0.015262 -0.03687 0.376 -0.18293 0.35965 -0.91498
-0.015262 -0.036174 0.376 -0.17855 0.34833 -0.92021
-0.015262 -0.035478 0.376 -0.16777 0.33681 -0.9265
-0.015262 -0.034783 0.376 -0.16539 0.32323 -0.93176
-0.015262 -0.034087 0.376 -0.16767 0.32112 -0.93208
-0.015262 -0.033391 0.376 -0.18019 0.32631 -0.92793
-0.015262 -0.032696 0.376 -0.20305 0.33164 -0.9213
-0.015262 -0.032 0.376 -0.22821 0.34029 -0.91221
-0.015303 -0.031388 0.377 -0.25233 0.34586 -0.90372
-0.015303 -0.03069 0.377 -0.28498 0.35181 -0.89164
-0.015303 -0.029993 0.377 -0.30683 0.35924 -0.88136
-0.015303 -0.029295 0.377 -0.33253 0.35951 -0.87188
-0.015343 -0.028673 0.378 -0.36127 0.36331 -0.85877
-0.015343 -0.027974 0.378 -0.38624 0.3712 -0.84441
-0.015343 -0.027275 0.378 -0.40005 0.37222 -0.8375
-0.015384 -0.026646 0.379 -0.42675 0.38407 -0.81876
-0.015384 -0.025944 0.379 -0.44244 0.38785 -0.80859
-0.015424 -0.02531 0.38 -0.46398 0.39366 -0.79357
-0.015424 -0.024607 0.38 -0.47693 0.39091 -0.78723
-0.015424 -0.023904 0.38 -0.48175 0.3837 -0.78784
-0.015465 -0.023262 0.381 -0.51138 0.40607 -0.75736
-0.015465 -0.022557 0.381 -0.51569 0.40426 -0.75541
-0.015506 -0.021909 0.382 -0.51646 0.41309 -0.75008
-0.015506 -0.021203 0.382 -0.5036 0.41741 -0.75641
-0.015506 -0.020496 0.382 -0.46733 0.42042 -0.77772
-0.015546 -0.019841 0.383 -0.4621 0.43109 -0.775
-0.015587 -0.019182 0.384 -0.5097 0.42942 -0.74552
-0.015587 -0.018472 0.384 -0.42564 0.4317 -0.79528
-0.015993 -0.017495 0.394 -0.12916 0.14606 -0.98081
-0.015993 -0.016766 0.394 -0.20099 0.17212 -0.96435
-0.015993 -0.016037 0.394 -0.26027 0.19297 -0.94605
-0.015993 -0.015308 0.394 -0.29229 0.20725 -0.9336
-0.015993 -0.014579 0.394 -0.30507 0.22079 -0.92638
-0.015993 -0.01385 0.394 -0.28407 0.23897 -0.92855
-0.016033 -0.013154 0.395 -0.26548 0.24144 -0.9334
-0.016033 -0.012424 0.395 -0.26496 0.25042 -0.93118
-0.016033 -0.011693 0.395 -0.27171 0.26763 -0.92442
-0.016074 -0.01099 0.396 -0.2561 0.28796 -0.92276
-0.016074 -0.010257 0.396 -0.256 0.2968 -0.91999
-0.016074 -0.0095245 0.396 -0.25706 0.30699 -0.91634
-0.016074 -0.0087919 0.396 -0.26915 0.31056 -0.91165
-0.016074 -0.0080592 0.396 -0.29867 0.31411 -0.90118
-0.016074 -0.0073265 0.396 -0.32611 0.31919 -0.88982
-0.016114 -0.0066105 0.397 -0.37198 0.32397 -0.86987
-0.016114 -0.005876 0.397 -0.42011 0.31756 -0.8501
-0.016155 -0.0051545 0.398 -0.47143 0.3128 -0.82456
-0.016155 -0.0044181 0.398 -0.50461 0.31064 -0.80553
-0.016155 -0.0036818 0.398 -0.52756 0.30226 -0.79392
-0.016196 -0.0029528 0.399 -0.53296 0.31283 -0.78619
-0.016236 -0.0022202 0.4 -0.55457 0.33315 -0.76254
-0.016236 -0.0014801 0.4 -0.53291 0.31916 -0.78368
-0.016277 -0.00074191 0.401 -0.55172 0.36561 -0.74962
-0.016277 0 0.401 -0.51914 0.33542 -0.78612
-0.016277 0.00074191 0.401 -0.47927 0.26822 -0.83568
-0.016317 0.0014875 0.402 -0.53201 0.31279 -0.78685
-0.016358 0.0029824 0.403 -0.55074 0.29835 -0.77953
-0.016399 0.0037373 0.404 -0.61047 0.33195 -0.71913
-0.016439 0.0044958 0.405 -0.68505 0.32698 -0.65099
-0.018185 0.013262 0.448 0.052436 -0.20051 -0.97829
-0.018185 0.017406 0.448 0.1271 0.15815 -0.9792
-0.018185 0.018235 0.448 0.24601 0.17732 -0.95291
-0.018185 0.019064 0.448 0.35181 0.20133 -0.91417
-0.018185 0.019893 0.448 0.44625 0.2239 -0.86644
-0.018144 0.020675 0.447 0.38585 0.15351 -0.9097
-0.018144 0.021502 0.447 0.44856 0.19674 -0.87183
-0.018103 0.022279 0.446 0.45649 0.11369 -0.88243
-0.018103 0.023105 0.446 0.46052 0.1522 -0.8745
-0.018063 0.023876 0.445 0.43529 0.077273 -0.89697
-0.018063 0.024699 0.445 0.42742 0.11851 -0.89625
-0.018063 0.025523 0.445 0.40609 0.16152 -0.89945
-0.018022 0.026287 0.444 0.42624 0.090267 -0.90009
-0.018022 0.027108 0.444 0.30973 0.15361 -0.93834
-0.018022 0.02793 0.444 0.19593 0.1948 -0.96107
-0.018022 0.028751 0.444 0.13394 0.21241 -0.96796
-0.018022 0.031216 0.444 -0.027545 0.23467 -0.97168
-0.015227 -0.076346 0.393 0.37538 -0.43631 -0.81776
-0.015188 -0.075426 0.392 0.34309 -0.24517 -0.90674
-0.015188 -0.074701 0.392 0.29585 -0.32271 -0.89907
-0.015188 -0.073976 0.392 0.35756 -0.41501 -0.83661
-0.015072 -0.069811 0.389 0.42842 0.10196 -0.89781
-0.014685 -0.064511 0.379 0.66835 0.35905 -0.65146
-0.01453 -0.060361 0.375 0.6206 0.27779 -0.73327
-0.01453 -0.059667 0.375 0.70043 0.2237 -0.67776
-0.014491 -0.058816 0.374 0.6306 0.26784 -0.72843
-0.014452 -0.057969 0.373 0.54433 0.31112 -0.77904
-0.014413 -0.057125 0.372 0.47274 0.34261 -0.81187
-0.014413 -0.056437 0.372 0.53285 0.32348 -0.78194
-0.014375 -0.055599 0.371 0.49004 0.33706 -0.8039
-0.014375 -0.054912 0.371 0.48649 0.34595 -0.80227
-0.014336 -0.05408 0.37 0.44402 0.35361 -0.82329
-0.014336 -0.053395 0.37 0.42428 0.37841 -0.82268
-0.014336 -0.05271 0.37 0.39486 0.3899 -0.8319
-0.014336 -0.052026 0.37 0.33367 0.41352 -0.84715
-0.014297 -0.051203 0.369 0.33386 0.40556 -0.85092
-0.014297 -0.05052 0.369 0.30554 0.41761 -0.85571
-0.014297 -0.049837 0.369 0.2293 0.44211 -0.86715
-0.014297 -0.046424 0.369 -0.11651 0.4058 -0.90651
-0.014413 -0.04336 0.372 -0.48692 0.54134 -0.68546
-0.014491 -0.040133 0.374 -0.40956 0.4602 -0.7877
-0.01453 -0.038853 0.375 -0.31468 0.42702 -0.84772
-0.01453 -0.038159 0.375 -0.31908 0.39838 -0.85993
-0.01453 -0.037465 0.375 -0.30319 0.37139 -0.87758
-0.014568 -0.03687 0.376 -0.19187 0.36424 -0.91133
-0.014568 -0.036174 0.376 -0.1963 0.35396 -0.91443
-0.014568 -0.035478 0.376 -0.17947 0.33708 -0.92421
-0.014568 -0.034783 0.376 -0.16851 0.32503 -0.93057
-0.014568 -0.034087 0.376 -0.16164 0.31349 -0.93573
-0.014568 -0.033391 0.376 -0.17019 0.31503 -0.9337
-0.014568 -0.032696 0.376 -0.18939 0.31589 -0.9297
-0.014568 -0.032 0.376 -0.21205 0.32322 -0.92226
-0.014568 -0.031304 0.376 -0.24182 0.32479 -0.91435
-0.014607 -0.03069 0.377 -0.27989 0.32723 -0.90254
-0.014607 -0.029993 0.377 -0.30378 0.32942 -0.89398
-0.014607 -0.029295 0.377 -0.32691 0.3323 -0.88471
-0.014607 -0.028598 0.377 -0.35572 0.33405 -0.87285
-0.014646 -0.027974 0.378 -0.38013 0.34046 -0.86
-0.014646 -0.027275 0.378 -0.40218 0.33874 -0.85059
-0.014646 -0.026575 0.378 -0.41842 0.34272 -0.84111
-0.014685 -0.025944 0.379 -0.44213 0.35854 -0.82217
-0.014685 -0.025243 0.379 -0.45954 0.35462 -0.81429
-0.014723 -0.024607 0.38 -0.47578 0.36134 -0.80192
-0.014723 -0.023904 0.38 -0.48971 0.3604 -0.79391
-0.014762 -0.023262 0.381 -0.51878 0.37404 -0.76874
-0.014762 -0.022557 0.381 -0.52605 0.37714 -0.76226
-0.014762 -0.021852 0.381 -0.52083 0.38054 -0.76415
-0.014801 -0.021203 0.382 -0.52029 0.38414 -0.76271
-0.014801 -0.020496 0.382 -0.5007 0.38698 -0.77431
-0.014839 -0.019841 0.383 -0.50283 0.40626 -0.76297
-0.014839 -0.019132 0.383 -0.44077 0.40517 -0.80097
-0.015266 -0.017495 0.394 -0.069997 0.12065 -0.99022
-0.015266 -0.016766 0.394 -0.13983 0.14418 -0.97962
-0.015266 -0.016037 0.394 -0.20704 0.16907 -0.96361
-0.015266 -0.015308 0.394 -0.25439 0.19066 -0.94812
-0.015266 -0.014579 0.394 -0.27798 0.20774 -0.93785
-0.015266 -0.01385 0.394 -0.26915 0.23045 -0.93512
-0.015304 -0.013154 0.395 -0.25308 0.22505 -0.94091
-0.015304 -0.012424 0.395 -0.25689 0.2403 -0.93609
-0.015304 -0.011693 0.395 -0.26544 0.2584 -0.92885
-0.015304 -0.010962 0.395 -0.25391 0.26897 -0.92908
-0.015304 -0.010231 0.395 -0.24713 0.28105 -0.92733
-0.015343 -0.0095245 0.396 -0.24782 0.28989 -0.92442
-0.015343 -0.0087919 0.396 -0.26109 0.29356 -0.91959
-0.015343 -0.0080592 0.396 -0.29349 0.29165 -0.91039
-0.015343 -0.0073265 0.396 -0.3245 0.29317 -0.89931
-0.015343 -0.0065939 0.396 -0.36584 0.29922 -0.88127
-0.015382 -0.005876 0.397 -0.41365 0.29118 -0.86262
-0.015382 -0.0051415 0.397 -0.46684 0.28874 -0.83588
-0.015421 -0.0044181 0.398 -0.50568 0.28594 -0.81396
-0.015421 -0.0036818 0.398 -0.5344 0.28159 -0.79694
-0.015459 -0.0029528 0.399 -0.54049 0.2915 -0.78923
-0.015459 -0.0022146 0.399 -0.53279 0.28229 -0.79778
-0.015498 -0.0014801 0.4 -0.54801 0.3083 -0.77759
-0.015498 -0.00074006 0.4 -0.50734 0.29414 -0.80999
-0.015537 0 0.401 -0.54195 0.33806 -0.76942
-0.015537 0.00074191 0.401 -0.5244 0.28496 -0.80237
-0.015537 0.0014838 0.401 -0.45843 0.212 -0.86307
-0.015576 0.0022313 0.402 -0.517 0.26648 -0.81345
-0.015576 0.002975 0.402 -0.44928 0.19486 -0.87188
-0.015614 0.003728 0.403 -0.54571 0.22912 -0.80604
-0.017358 0.013262 0.448 0.013023 -0.10966 -0.99388
-0.017397 0.014122 0.449 0.15437 0.12644 -0.97989
-0.017358 0.017406 0.448 0.14732 0.14659 -0.97817
-0.017358 0.018235 0.448 0.27185 0.16295 -0.94844
-0.017358 0.019064 0.448 0.39126 0.178 -0.9029
-0.017358 0.019893 0.448 0.47796 0.19123 -0.85731
-0.017319 0.020675 0.447 0.40311 0.15646 -0.90168
-0.017319 0.021502 0.447 0.45851 0.17783 -0.87072
-0.01728 0.022279 0.446 0.45792 0.13873 -0.8781
-0.01728 0.023105 0.446 0.45935 0.1509 -0.87534
-0.017242 0.023876 0.445 0.43146 0.12092 -0.89399
-0.017242 0.024699 0.445 0.42475 0.13477 -0.89522
-0.017203 0.025465 0.444 0.43738 0.072441 -0.89635
-0.017203 0.026287 0.444 0.41328 0.12044 -0.9026
-0.017203 0.027108 0.444 0.31524 0.1481 -0.93738
-0.017203 0.02793 0.444 0.22112 0.17614 -0.95921
-0.017203 0.028751 0.444 0.15339 0.19236 -0.96926
-0.014465 -0.073976 0.392 0.36832 -0.44253 -0.81762
-0.014391 -0.069991 0.39 0.34577 -0.29262 -0.89153
-0.013838 -0.060361 0.375 0.66544 0.21713 -0.71418
-0.013801 -0.059508 0.374 0.58726 0.23558 -0.77435
-0.013801 -0.058816 0.374 0.67623 0.20651 -0.70715
-0.013764 -0.057969 0.373 0.59812 0.23616 -0.76582
-0.013727 -0.057125 0.372 0.52545 0.26334 -0.80905
-0.013727 -0.056437 0.372 0.56756 0.25673 -0.78228
-0.01369 -0.055599 0.371 0.5322 0.27765 -0.79979
-0.01369 -0.054912 0.371 0.51614 0.29131 -0.80544
-0.013653 -0.05408 0.37 0.46769 0.3093 -0.82801
-0.013653 -0.053395 0.37 0.44241 0.33365 -0.83243
-0.013653 -0.05271 0.37 0.40697 0.35066 -0.84345
-0.013616 -0.051885 0.369 0.37841 0.36216 -0.85185
-0.013616 -0.051203 0.369 0.31976 0.38732 -0.86472
-0.013616 -0.05052 0.369 0.27651 0.40451 -0.87173
-0.013579 -0.049702 0.368 0.33107 0.36095 -0.87184
-0.013579 -0.04834 0.368 0.18009 0.36398 -0.91383
-0.013616 -0.045058 0.369 -0.34162 0.32347 -0.88242
-0.013764 -0.042096 0.373 -0.38854 0.58964 -0.70807
-0.013801 -0.039441 0.374 -0.40865 0.45679 -0.79015
-0.013838 -0.038853 0.375 -0.29754 0.41472 -0.85993
-0.013838 -0.038159 0.375 -0.31088 0.39144 -0.8661
-0.013838 -0.037465 0.375 -0.30151 0.36467 -0.88097
-0.013838 -0.036772 0.375 -0.29168 0.35581 -0.88787
-0.013838 -0.036078 0.375 -0.24164 0.34247 -0.90792
-0.013875 -0.035478 0.376 -0.20166 0.32199 -0.92502
-0.013875 -0.034783 0.376 -0.17708 0.30765 -0.93488
-0.013875 -0.034087 0.376 -0.16601 0.29307 -0.94157
-0.013875 -0.033391 0.376 -0.16939 0.29086 -0.94165
-0.013875 -0.032696 0.376 -0.18368 0.28704 -0.94014
-0.013875 -0.032 0.376 -0.20159 0.29211 -0.9349
-0.013875 -0.031304 0.376 -0.23263 0.29905 -0.92545
-0.013875 -0.030609 0.376 -0.27441 0.29863 -0.91407
-0.013911 -0.029993 0.377 -0.3013 0.29832 -0.90566
-0.013911 -0.029295 0.377 -0.32853 0.30218 -0.89485
-0.013911 -0.028598 0.377 -0.35666 0.30546 -0.88289
-0.013911 -0.0279 0.377 -0.38095 0.31606 -0.8689
-0.013948 -0.027275 0.378 -0.39748 0.31384 -0.86227
-0.013948 -0.026575 0.378 -0.42177 0.32246 -0.84743
-0.013948 -0.025876 0.378 -0.43158 0.33019 -0.83947
-0.013985 -0.025243 0.379 -0.45342 0.34155 -0.82326
-0.013985 -0.024542 0.379 -0.46285 0.33897 -0.81906
-0.014022 -0.023904 0.38 -0.48789 0.34108 -0.80351
-0.014022 -0.023201 0.38 -0.50563 0.33081 -0.79681
-0.014022 -0.022498 0.38 -0.51131 0.32093 -0.79723
-0.014059 -0.021852 0.381 -0.5293 0.35036 -0.77271
-0.014059 -0.021147 0.381 -0.52408 0.35033 -0.77628
-0.014096 -0.020496 0.382 -0.52986 0.34966 -0.77264
-0.014096 -0.019789 0.382 -0.47392 0.35643 -0.80521
-0.014133 -0.019132 0.383 -0.50405 0.36838 -0.78117
-0.014133 -0.018424 0.383 -0.40129 0.35923 -0.84257
-0.014502 -0.017451 0.393 -0.34615 0.17082 -0.9225
-0.014539 -0.016766 0.394 -0.074606 0.14178 -0.98708
-0.014539 -0.016037 0.394 -0.14892 0.16031 -0.97577
-0.014539 -0.015308 0.394 -0.21018 0.18043 -0.96087
-0.014539 -0.014579 0.394 -0.25084 0.20044 -0.94705
-0.014539 -0.01385 0.394 -0.25124 0.22102 -0.94235
-0.014539 -0.013121 0.394 -0.25178 0.2322 -0.93952
-0.014576 -0.012424 0.395 -0.25025 0.23575 -0.93904
-0.014576 -0.011693 0.395 -0.26095 0.25286 -0.93165
-0.014576 -0.010962 0.395 -0.25144 0.26234 -0.93164
-0.014576 -0.010231 0.395 -0.24196 0.27079 -0.93173
-0.014576 -0.0095005 0.395 -0.24671 0.27337 -0.92973
-0.014613 -0.0087919 0.396 -0.2621 0.28117 -0.92317
-0.014613 -0.0080592 0.396 -0.29752 0.27816 -0.9133
-0.014613 -0.0073265 0.396 -0.3272 0.27531 -0.90396
-0.014613 -0.0065939 0.396 -0.36807 0.28004 -0.88663
-0.014613 -0.0058612 0.396 -0.40752 0.27682 -0.87023
-0.014649 -0.0051415 0.397 -0.45712 0.27504 -0.84581
-0.014649 -0.004407 0.397 -0.49462 0.2763 -0.82402
-0.014686 -0.0036818 0.398 -0.52559 0.27472 -0.80516
-0.014686 -0.0029454 0.398 -0.52726 0.27221 -0.80493
-0.014723 -0.0022146 0.399 -0.53153 0.27899 -0.79978
-0.014723 -0.0014764 0.399 -0.51667 0.26907 -0.8128
-0.01476 -0.00074006 0.4 -0.52274 0.29627 -0.79935
-0.01476 0 0.4 -0.5001 0.28237 -0.81864
-0.014797 0.00074191 0.401 -0.55063 0.30713 -0.7762
-0.014797 0.0014838 0.401 -0.50298 0.26072 -0.82403
-0.016568 0.014122 0.449 0.15555 0.039606 -0.98703
-0.016531 0.018235 0.448 0.28963 0.12221 -0.9493
-0.016531 0.019064 0.448 0.41543 0.12769 -0.90062
-0.016494 0.019848 0.447 0.33268 0.13236 -0.93371
-0.016494 0.020675 0.447 0.42154 0.12657 -0.89794
-0.016494 0.021502 0.447 0.47025 0.12268 -0.87397
-0.016458 0.022279 0.446 0.46745 0.12072 -0.87574
-0.016458 0.023105 0.446 0.46459 0.11693 -0.87777
-0.016421 0.023876 0.445 0.43695 0.12079 -0.89134
-0.016421 0.024699 0.445 0.42757 0.11958 -0.89604
-0.016384 0.025465 0.444 0.44105 0.097939 -0.89212
-0.016384 0.026287 0.444 0.42776 0.10493 -0.89778
-0.016384 0.027108 0.444 0.33832 0.11772 -0.93364
-0.016384 0.02793 0.444 0.24045 0.14072 -0.96041
-0.016347 0.028686 0.443 0.21215 0.12832 -0.96878
-0.016347 0.031145 0.443 -0.040171 0.12459 -0.99139
-0.013111 -0.059508 0.374 0.62615 0.18359 -0.75778
-0.013111 -0.058816 0.374 0.70608 0.1583 -0.69021
-0.013076 -0.057969 0.373 0.63654 0.1894 -0.74763
-0.013041 -0.057125 0.372 0.57072 0.21267 -0.79313
-0.013041 -0.056437 0.372 0.60376 0.20683 -0.76987
-0.013006 -0.055599 0.371 0.56676 0.23026 -0.79106
-0.013006 -0.054912 0.371 0.54104 0.24549 -0.80437
-0.01297 -0.05408 0.37 0.49152 0.2671 -0.82889
-0.01297 -0.053395 0.37 0.46541 0.28616 -0.83756
-0.012935 -0.052568 0.369 0.43787 0.3077 -0.84474
-0.012935 -0.051885 0.369 0.3915 0.32119 -0.8623
-0.012935 -0.051203 0.369 0.32019 0.35992 -0.87632
-0.0129 -0.050383 0.368 0.32995 0.34393 -0.87911
-0.0129 -0.049702 0.368 0.28254 0.34838 -0.89376
-0.0129 -0.049021 0.368 0.22079 0.36123 -0.90596
-0.0129 -0.04766 0.368 0.032596 0.37946 -0.92463
-0.0129 -0.045617 0.368 -0.21088 0.26957 -0.93961
-0.012935 -0.044376 0.369 -0.4352 0.30145 -0.84837
-0.013041 -0.042672 0.372 -0.4509 0.5825 -0.6763
-0.013076 -0.041406 0.373 -0.38133 0.57334 -0.72517
-0.013111 -0.039441 0.374 -0.39814 0.4805 -0.78141
-0.013111 -0.038749 0.374 -0.42213 0.44009 -0.79254
-0.013146 -0.038159 0.375 -0.28953 0.39297 -0.87278
-0.013146 -0.037465 0.375 -0.28661 0.37015 -0.88366
-0.013146 -0.036772 0.375 -0.29834 0.3579 -0.88482
-0.013146 -0.036078 0.375 -0.26514 0.3429 -0.90118
-0.013146 -0.035384 0.375 -0.2222 0.32031 -0.92089
-0.013181 -0.034783 0.376 -0.18834 0.29896 -0.93549
-0.013181 -0.034087 0.376 -0.17883 0.27703 -0.94407
-0.013181 -0.033391 0.376 -0.1827 0.26542 -0.94666
-0.013181 -0.032696 0.376 -0.19585 0.26265 -0.94481
-0.013181 -0.032 0.376 -0.20645 0.26518 -0.94184
-0.013181 -0.031304 0.376 -0.23041 0.27195 -0.93432
-0.013181 -0.030609 0.376 -0.27095 0.268 -0.92453
-0.013181 -0.029913 0.376 -0.30161 0.27145 -0.91397
-0.013216 -0.029295 0.377 -0.32659 0.27533 -0.90418
-0.013216 -0.028598 0.377 -0.35356 0.28502 -0.89093
-0.013216 -0.0279 0.377 -0.37862 0.29332 -0.87785
-0.013251 -0.027275 0.378 -0.39052 0.29568 -0.87182
-0.013251 -0.026575 0.378 -0.41124 0.31087 -0.85688
-0.013251 -0.025876 0.378 -0.42643 0.32343 -0.84472
-0.013286 -0.025243 0.379 -0.44261 0.32932 -0.83406
-0.013286 -0.024542 0.379 -0.45443 0.33135 -0.82687
-0.013286 -0.023841 0.379 -0.47466 0.32071 -0.81966
-0.013321 -0.023201 0.38 -0.50423 0.31887 -0.80255
-0.013321 -0.022498 0.38 -0.52232 0.31213 -0.79357
-0.013356 -0.021852 0.381 -0.53353 0.32419 -0.78118
-0.013356 -0.021147 0.381 -0.53952 0.3162 -0.78034
-0.013391 -0.020496 0.382 -0.55231 0.32004 -0.76976
-0.013391 -0.019789 0.382 -0.51538 0.32097 -0.79458
-0.013426 -0.019132 0.383 -0.55688 0.32824 -0.76298
-0.013426 -0.018424 0.383 -0.48054 0.31809 -0.81725
-0.013426 -0.017715 0.383 -0.34689 0.30919 -0.88548
-0.013461 -0.017051 0.384 -0.45279 0.32216 -0.83138
-0.013777 -0.016723 0.393 -0.35328 0.17695 -0.91863
-0.013812 -0.016037 0.394 -0.09626 0.15072 -0.98388
-0.013812 -0.015308 0.394 -0.16616 0.1666 -0.97192
-0.013812 -0.014579 0.394 -0.22074 0.18732 -0.95718
-0.013812 -0.01385 0.394 -0.2283 0.20293 -0.95221
-0.013812 -0.013121 0.394 -0.22997 0.21686 -0.94873
-0.013812 -0.012392 0.394 -0.23337 0.22522 -0.94595
-0.013847 -0.011693 0.395 -0.25131 0.23468 -0.93903
-0.013847 -0.010962 0.395 -0.24381 0.24313 -0.93885
-0.013847 -0.010231 0.395 -0.23622 0.25254 -0.93831
-0.013847 -0.0095005 0.395 -0.24349 0.24812 -0.93763
-0.013847 -0.0087697 0.395 -0.26761 0.25531 -0.92908
-0.013882 -0.0080592 0.396 -0.30037 0.256 -0.91883
-0.013882 -0.0073265 0.396 -0.33382 0.253 -0.90805
-0.013882 -0.0065939 0.396 -0.37413 0.25543 -0.89151
-0.013882 -0.0058612 0.396 -0.41246 0.25547 -0.87442
-0.013917 -0.0051415 0.397 -0.45675 0.25507 -0.85224
-0.013917 -0.004407 0.397 -0.49356 0.25452 -0.83163
-0.013952 -0.0036818 0.398 -0.52334 0.25547 -0.81293
-0.013952 -0.0029454 0.398 -0.52965 0.25353 -0.80944
-0.013987 -0.0022146 0.399 -0.53354 0.25869 -0.80524
-0.013987 -0.0014764 0.399 -0.52877 0.25606 -0.80922
-0.014022 -0.00074006 0.4 -0.53178 0.27985 -0.79931
-0.014022 0 0.4 -0.51735 0.27224 -0.81131
-0.014022 0.00074006 0.4 -0.48998 0.24636 -0.83619
-0.014057 0.0014838 0.401 -0.52727 0.26631 -0.80689
-0.014057 0.0022257 0.401 -0.4456 0.24068 -0.86227
-0.014092 0.002975 0.402 -0.52638 0.24618 -0.81383
-0.014162 0.0044847 0.404 -0.70009 0.19774 -0.68613
-0.015705 0.019064 0.448 0.43897 0.039442 -0.89764
-0.01567 0.019848 0.447 0.34972 0.040143 -0.936
-0.01567 0.020675 0.447 0.43202 0.040563 -0.90095
-0.01567 0.021502 0.447 0.47211 0.039132 -0.88067
-0.015635 0.022279 0.446 0.46148 0.039739 -0.88626
-0.0156 0.023053 0.445 0.46475 0.040842 -0.8845
-0.0156 0.023876 0.445 0.43313 0.045181 -0.9002
-0.0156 0.024699 0.445 0.41892 0.049148 -0.90669
-0.015565 0.025465 0.444 0.43325 0.038548 -0.90045
-0.015565 0.026287 0.444 0.4187 0.039521 -0.90726
-0.015565 0.027108 0.444 0.33646 0.051029 -0.94031
-0.01553 0.027867 0.443 0.30729 0.044526 -0.95058
-0.01553 0.028686 0.443 0.21863 0.058564 -0.97405
-0.01553 0.029506 0.443 0.12685 0.060133 -0.9901
-0.012387 -0.057969 0.373 0.66535 0.14663 -0.73199
-0.012354 -0.057125 0.372 0.59745 0.18521 -0.78022
-0.012354 -0.056437 0.372 0.62561 0.17481 -0.7603
-0.012321 -0.055599 0.371 0.58229 0.20362 -0.78707
-0.012288 -0.054764 0.37 0.54035 0.22106 -0.81188
-0.012288 -0.05408 0.37 0.5152 0.22606 -0.82672
-0.012255 -0.053251 0.369 0.48948 0.24609 -0.83657
-0.012255 -0.052568 0.369 0.46041 0.2623 -0.84807
-0.012255 -0.051885 0.369 0.40295 0.2834 -0.87024
-0.012221 -0.051064 0.368 0.36861 0.28884 -0.88357
-0.012221 -0.050383 0.368 0.32087 0.30179 -0.89775
-0.012221 -0.049702 0.368 0.26041 0.3141 -0.91298
-0.012221 -0.049021 0.368 0.18331 0.33415 -0.92452
-0.012221 -0.04834 0.368 0.088741 0.34902 -0.9329
-0.012221 -0.04766 0.368 -0.0046329 0.36971 -0.92914
-0.012221 -0.046979 0.368 -0.066602 0.36212 -0.92975
-0.012221 -0.045617 0.368 -0.25638 0.30132 -0.91841
-0.012255 -0.045058 0.369 -0.37505 0.40618 -0.83328
-0.012255 -0.044376 0.369 -0.44265 0.35271 -0.82442
-0.012255 -0.043693 0.369 -0.46723 0.29698 -0.83276
-0.012321 -0.042557 0.371 -0.48022 0.515 -0.71005
-0.012321 -0.04187 0.371 -0.50724 0.46903 -0.72299
-0.012354 -0.041295 0.372 -0.47039 0.51908 -0.71365
-0.012354 -0.040607 0.372 -0.50899 0.45813 -0.72873
-0.012387 -0.039336 0.373 -0.48289 0.44341 -0.75511
-0.012421 -0.038749 0.374 -0.42739 0.44982 -0.78422
-0.012421 -0.038057 0.374 -0.4293 0.41873 -0.80023
-0.012454 -0.037465 0.375 -0.2805 0.37197 -0.88485
-0.012454 -0.036772 0.375 -0.31142 0.35613 -0.88102
-0.012454 -0.036078 0.375 -0.29276 0.33875 -0.89417
-0.012454 -0.035384 0.375 -0.24527 0.31556 -0.91666
-0.012454 -0.03469 0.375 -0.2072 0.2955 -0.9326
-0.012454 -0.033996 0.375 -0.1903 0.274 -0.94271
-0.012454 -0.033302 0.375 -0.18565 0.25964 -0.94769
-0.012487 -0.032696 0.376 -0.1956 0.24693 -0.94909
-0.012487 -0.032 0.376 -0.2086 0.24625 -0.94649
-0.012487 -0.031304 0.376 -0.22995 0.24609 -0.94157
-0.012487 -0.030609 0.376 -0.2624 0.24505 -0.93333
-0.012487 -0.029913 0.376 -0.29634 0.25174 -0.92131
-0.012487 -0.029217 0.376 -0.32053 0.25572 -0.91207
-0.01252 -0.028598 0.377 -0.34588 0.2704 -0.89847
-0.01252 -0.0279 0.377 -0.36675 0.28061 -0.88699
-0.01252 -0.027203 0.377 -0.38177 0.28162 -0.88031
-0.012554 -0.026575 0.378 -0.405 0.2955 -0.86525
-0.012554 -0.025876 0.378 -0.41461 0.31035 -0.85544
-0.012554 -0.025177 0.378 -0.43551 0.32101 -0.841
-0.012587 -0.024542 0.379 -0.45191 0.3191 -0.83304
-0.012587 -0.023841 0.379 -0.47405 0.3158 -0.82192
-0.012587 -0.02314 0.379 -0.49803 0.31269 -0.80882
-0.01262 -0.022498 0.38 -0.52911 0.3023 -0.79288
-0.012653 -0.021852 0.381 -0.53861 0.30177 -0.78666
-0.012653 -0.021147 0.381 -0.55255 0.29025 -0.78131
-0.012686 -0.020496 0.382 -0.56645 0.29493 -0.76951
-0.012686 -0.019789 0.382 -0.54328 0.29358 -0.78655
-0.01272 -0.019132 0.383 -0.59353 0.28796 -0.75154
-0.01272 -0.018424 0.383 -0.54027 0.27461 -0.79542
-0.01272 -0.017715 0.383 -0.43539 0.25275 -0.86403
-0.012753 -0.017051 0.384 -0.53476 0.26163 -0.80348
-0.01272 -0.016298 0.383 -0.11431 0.22646 -0.96729
-0.013085 -0.016037 0.394 -0.041534 0.15868 -0.98646
-0.013085 -0.015308 0.394 -0.11527 0.16639 -0.9793
-0.013085 -0.014579 0.394 -0.18261 0.18549 -0.96553
-0.013085 -0.01385 0.394 -0.20433 0.19978 -0.9583
-0.013085 -0.013121 0.394 -0.21336 0.20807 -0.95456
-0.013085 -0.012392 0.394 -0.21556 0.21388 -0.95278
-0.013085 -0.011663 0.394 -0.23461 0.22108 -0.94662
-0.013118 -0.010962 0.395 -0.23402 0.2216 -0.94664
-0.013118 -0.010231 0.395 -0.22838 0.23203 -0.94552
-0.013118 -0.0095005 0.395 -0.24283 0.22616 -0.94334
-0.013118 -0.0087697 0.395 -0.26861 0.22657 -0.93622
-0.013118 -0.0080389 0.395 -0.3087 0.23062 -0.92278
-0.013118 -0.007308 0.395 -0.344 0.22767 -0.91095
-0.013151 -0.0065939 0.396 -0.38121 0.22648 -0.89632
-0.013151 -0.0058612 0.396 -0.41761 0.23004 -0.87902
-0.013151 -0.0051286 0.396 -0.45017 0.22262 -0.86475
-0.013185 -0.004407 0.397 -0.49253 0.22953 -0.83948
-0.013185 -0.0036725 0.397 -0.51864 0.22894 -0.82377
-0.013218 -0.0029454 0.398 -0.5277 0.22774 -0.81833
-0.013218 -0.0022091 0.398 -0.52597 0.22218 -0.82097
-0.013251 -0.0014764 0.399 -0.5333 0.23449 -0.81277
-0.013251 -0.00073821 0.399 -0.51722 0.22744 -0.82508
-0.013284 0 0.4 -0.54072 0.23693 -0.80715
-0.013284 0.00074006 0.4 -0.52755 0.22843 -0.81823
-0.013317 0.0014838 0.401 -0.56131 0.24089 -0.79177
-0.013317 0.0022257 0.401 -0.49185 0.22487 -0.84114
-0.013317 0.0029676 0.401 -0.37197 0.21061 -0.90404
-0.013351 0.0037188 0.402 -0.48001 0.20481 -0.85302
-0.014878 0.019064 0.448 0.44924 -0.039707 -0.89253
-0.014845 0.019848 0.447 0.3594 -0.032621 -0.93261
-0.014845 0.020675 0.447 0.43882 -0.039096 -0.89773
-0.014812 0.021454 0.446 0.42313 -0.032902 -0.90547
-0.014812 0.022279 0.446 0.46432 -0.036281 -0.88492
-0.014812 0.023105 0.446 0.46193 -0.035503 -0.8862
-0.014779 0.023876 0.445 0.42745 -0.030836 -0.90351
-0.014779 0.024699 0.445 0.40944 -0.023803 -0.91202
-0.014745 0.025465 0.444 0.42323 -0.027738 -0.9056
-0.014745 0.026287 0.444 0.41223 -0.030013 -0.91058
-0.014745 0.027108 0.444 0.32511 -0.019055 -0.94548
-0.014745 0.02793 0.444 0.2446 -0.01213 -0.96955
-0.014712 0.028686 0.443 0.21878 -0.0091347 -0.97573
-0.014712 0.029506 0.443 0.12542 -0.0096079 -0.99206
-0.014712 0.031145 0.443 -0.053333 -0.008865 -0.99854
-0.011699 -0.057969 0.373 0.69152 0.12101 -0.71215
-0.011668 -0.057125 0.372 0.62189 0.15828 -0.76694
-0.011637 -0.056285 0.371 0.57636 0.19315 -0.79404
-0.011637 -0.055599 0.371 0.59597 0.17801 -0.78303
-0.011605 -0.054764 0.37 0.55087 0.1926 -0.81206
-0.011605 -0.05408 0.37 0.52837 0.19454 -0.82643
-0.011574 -0.053251 0.369 0.50161 0.20741 -0.83987
-0.011574 -0.052568 0.369 0.47536 0.21566 -0.85295
-0.011574 -0.051885 0.369 0.41904 0.23509 -0.87701
-0.011542 -0.051064 0.368 0.38681 0.22731 -0.89371
-0.011542 -0.050383 0.368 0.33765 0.23563 -0.9113
-0.011542 -0.049702 0.368 0.25939 0.25871 -0.93047
-0.011542 -0.049021 0.368 0.18001 0.27997 -0.94298
-0.011542 -0.04834 0.368 0.08105 0.31013 -0.94723
-0.011542 -0.04766 0.368 0.0026745 0.32046 -0.94726
-0.011542 -0.046298 0.368 -0.18732 0.31049 -0.93194
-0.011542 -0.044936 0.368 -0.35569 0.22445 -0.90725
-0.011542 -0.044255 0.368 -0.42603 0.15308 -0.89167
-0.011605 -0.043127 0.37 -0.45801 0.45722 -0.76235
-0.011637 -0.04187 0.371 -0.48924 0.48563 -0.72444
-0.011637 -0.041184 0.371 -0.52544 0.42613 -0.73643
-0.011668 -0.039919 0.372 -0.52414 0.41911 -0.74137
-0.011699 -0.038646 0.373 -0.5114 0.39728 -0.762
-0.011731 -0.038057 0.374 -0.449 0.41321 -0.79225
-0.011731 -0.037365 0.374 -0.45881 0.36968 -0.80798
-0.011762 -0.036772 0.375 -0.32599 0.33862 -0.88265
-0.011762 -0.036078 0.375 -0.32287 0.32478 -0.88897
-0.011762 -0.035384 0.375 -0.2806 0.30369 -0.91052
-0.011762 -0.03469 0.375 -0.2303 0.28181 -0.93142
-0.011762 -0.033996 0.375 -0.20281 0.26292 -0.94326
-0.011762 -0.033302 0.375 -0.19149 0.25198 -0.9486
-0.011762 -0.032609 0.375 -0.18895 0.23723 -0.9529
-0.011793 -0.032 0.376 -0.20065 0.23288 -0.95158
-0.011793 -0.031304 0.376 -0.22124 0.23076 -0.94752
-0.011793 -0.030609 0.376 -0.24801 0.22606 -0.94201
-0.011793 -0.029913 0.376 -0.28898 0.22966 -0.92938
-0.011793 -0.029217 0.376 -0.31422 0.23802 -0.91903
-0.011793 -0.028522 0.376 -0.34287 0.2516 -0.90506
-0.011825 -0.0279 0.377 -0.36098 0.26681 -0.89359
-0.011825 -0.027203 0.377 -0.3795 0.27047 -0.88477
-0.011825 -0.026505 0.377 -0.40318 0.28351 -0.87009
-0.011856 -0.025876 0.378 -0.40867 0.29314 -0.86432
-0.011856 -0.025177 0.378 -0.42691 0.30395 -0.85168
-0.011856 -0.024477 0.378 -0.44986 0.30371 -0.83988
-0.011887 -0.023841 0.379 -0.47296 0.29979 -0.82852
-0.011887 -0.02314 0.379 -0.49989 0.29595 -0.81396
-0.011887 -0.022438 0.379 -0.5292 0.28487 -0.79924
-0.011919 -0.021795 0.38 -0.54276 0.28339 -0.79063
-0.01195 -0.021147 0.381 -0.56044 0.27268 -0.78202
-0.01195 -0.020442 0.381 -0.55143 0.26142 -0.7922
-0.011982 -0.019789 0.382 -0.56084 0.27205 -0.78195
-0.011982 -0.019082 0.382 -0.52854 0.25114 -0.81091
-0.012013 -0.018424 0.383 -0.5745 0.2506 -0.7792
-0.012013 -0.017715 0.383 -0.48532 0.22735 -0.84426
-0.012013 -0.017006 0.383 -0.34923 0.21588 -0.91183
-0.012013 -0.016298 0.383 -0.19282 0.20021 -0.96059
-0.012358 -0.016037 0.394 0.016503 0.16474 -0.9862
-0.012358 -0.015308 0.394 -0.071575 0.16905 -0.98301
-0.012358 -0.014579 0.394 -0.1477 0.18093 -0.97234
-0.012358 -0.01385 0.394 -0.18088 0.18987 -0.965
-0.012358 -0.013121 0.394 -0.19634 0.19993 -0.95994
-0.012358 -0.012392 0.394 -0.20434 0.21028 -0.95605
-0.012358 -0.011663 0.394 -0.22559 0.2185 -0.9494
-0.012358 -0.010934 0.394 -0.23381 0.21705 -0.94775
-0.012358 -0.010205 0.394 -0.2315 0.22227 -0.9471
-0.012389 -0.0095005 0.395 -0.24312 0.22109 -0.94446
-0.012389 -0.0087697 0.395 -0.27194 0.22034 -0.93675
-0.012389 -0.0080389 0.395 -0.30936 0.2217 -0.92474
-0.012389 -0.007308 0.395 -0.35198 0.21822 -0.91022
-0.012389 -0.0065772 0.395 -0.38701 0.2188 -0.89574
-0.012421 -0.0058612 0.396 -0.4157 0.22467 -0.88131
-0.012421 -0.0051286 0.396 -0.45089 0.22141 -0.86468
-0.012452 -0.004407 0.397 -0.48653 0.21352 -0.84717
-0.012452 -0.0036725 0.397 -0.51283 0.20981 -0.83245
-0.012452 -0.002938 0.397 -0.52869 0.2057 -0.82351
-0.012483 -0.0022091 0.398 -0.52846 0.20525 -0.82377
-0.012515 -0.0014764 0.399 -0.53549 0.20681 -0.81883
-0.012515 -0.00073821 0.399 -0.5325 0.19901 -0.8227
-0.012546 0 0.4 -0.55983 0.19012 -0.8065
-0.012546 0.00074006 0.4 -0.56065 0.19064 -0.80581
-0.012577 0.0014838 0.401 -0.5963 0.18891 -0.78022
-0.012577 0.0022257 0.401 -0.53428 0.18509 -0.82479
-0.012577 0.0029676 0.401 -0.41148 0.19218 -0.89093
-0.012609 0.0037188 0.402 -0.51259 0.17447 -0.84072
-0.012672 0.0044847 0.404 -0.74339 0.11679 -0.65858
-0.012672 0.0052322 0.404 -0.67847 0.13728 -0.72168
-0.014083 0.014122 0.449 0.15795 -0.13924 -0.97758
-0.014052 0.017406 0.448 0.18289 -0.10083 -0.97795
-0.014052 0.019064 0.448 0.44464 -0.097879 -0.89034
-0.01402 0.019848 0.447 0.36353 -0.092173 -0.92701
-0.01402 0.020675 0.447 0.43968 -0.096837 -0.89292
-0.01402 0.021502 0.447 0.47961 -0.10086 -0.87167
-0.013989 0.022279 0.446 0.47045 -0.095345 -0.87726
-0.013958 0.023053 0.445 0.46375 -0.094615 -0.8809
-0.013958 0.023876 0.445 0.42428 -0.094023 -0.90064
-0.013958 0.024699 0.445 0.40764 -0.08277 -0.90938
-0.013926 0.025465 0.444 0.42645 -0.075491 -0.90136
-0.013926 0.026287 0.444 0.41154 -0.081323 -0.90776
-0.013926 0.027108 0.444 0.32822 -0.081913 -0.94104
-0.013926 0.02793 0.444 0.24483 -0.09035 -0.96535
-0.013895 0.028686 0.443 0.21804 -0.084737 -0.97225
-0.013895 0.029506 0.443 0.11822 -0.092168 -0.9887
-0.013895 0.031145 0.443 -0.05159 -0.090666 -0.99454
-0.010982 -0.057125 0.372 0.64239 0.13428 -0.75453
-0.010952 -0.056285 0.371 0.5881 0.17693 -0.7892
-0.010923 -0.055449 0.37 0.54924 0.18624 -0.81465
-0.010923 -0.054764 0.37 0.55998 0.17018 -0.81084
-0.010923 -0.05408 0.37 0.54312 0.16613 -0.82306
-0.010893 -0.053251 0.369 0.51627 0.17263 -0.83885
-0.010893 -0.052568 0.369 0.48346 0.179 -0.85687
-0.010863 -0.051745 0.368 0.44714 0.17014 -0.87814
-0.010863 -0.051064 0.368 0.3935 0.17938 -0.90165
-0.010863 -0.050383 0.368 0.32974 0.19183 -0.92438
-0.010834 -0.049567 0.367 0.31283 0.14503 -0.93867
-0.010863 -0.049021 0.368 0.16345 0.25011 -0.95432
-0.010834 -0.048209 0.367 0.14553 0.16624 -0.97529
-0.010834 -0.04753 0.367 0.053769 0.17099 -0.98381
-0.010834 -0.046851 0.367 -0.034097 0.15366 -0.98753
-0.010863 -0.046298 0.368 -0.18954 0.30401 -0.93362
-0.010863 -0.045617 0.368 -0.27647 0.28437 -0.91799
-0.010863 -0.044936 0.368 -0.35833 0.24548 -0.90074
-0.010863 -0.044255 0.368 -0.42363 0.20319 -0.88275
-0.010893 -0.043693 0.369 -0.45285 0.35044 -0.81983
-0.010893 -0.04301 0.369 -0.46458 0.31412 -0.82794
-0.010923 -0.042442 0.37 -0.48228 0.42432 -0.7664
-0.010923 -0.041758 0.37 -0.51209 0.37936 -0.77062
-0.010952 -0.041184 0.371 -0.50924 0.4434 -0.73761
-0.010923 -0.040389 0.37 -0.56301 0.21825 -0.79711
-0.010952 -0.039811 0.371 -0.568 0.34834 -0.74567
-0.010982 -0.03923 0.372 -0.5491 0.37186 -0.74847
-0.011011 -0.038646 0.373 -0.52086 0.38973 -0.75949
-0.011011 -0.037956 0.373 -0.52465 0.35919 -0.77184
-0.011041 -0.037365 0.374 -0.47222 0.36335 -0.80311
-0.011041 -0.036673 0.374 -0.44298 0.34001 -0.82955
-0.01107 -0.036078 0.375 -0.34696 0.30635 -0.88644
-0.01107 -0.035384 0.375 -0.31191 0.29382 -0.90354
-0.01107 -0.03469 0.375 -0.25324 0.26694 -0.92985
-0.01107 -0.033996 0.375 -0.21987 0.24624 -0.94394
-0.01107 -0.033302 0.375 -0.20081 0.23986 -0.94981
-0.01107 -0.032609 0.375 -0.18935 0.22863 -0.95492
-0.01107 -0.031915 0.375 -0.19843 0.22176 -0.9547
-0.01107 -0.031221 0.375 -0.21602 0.21769 -0.95181
-0.0111 -0.030609 0.376 -0.23921 0.21379 -0.94714
-0.0111 -0.029913 0.376 -0.27266 0.21396 -0.93802
-0.0111 -0.029217 0.376 -0.30268 0.22032 -0.92728
-0.0111 -0.028522 0.376 -0.33232 0.23035 -0.9146
-0.011129 -0.0279 0.377 -0.35307 0.244 -0.90322
-0.011129 -0.027203 0.377 -0.36936 0.25614 -0.89329
-0.011129 -0.026505 0.377 -0.3931 0.2669 -0.87991
-0.011129 -0.025808 0.377 -0.39988 0.27552 -0.87418
-0.011159 -0.025177 0.378 -0.41957 0.27962 -0.86358
-0.011159 -0.024477 0.378 -0.44381 0.28602 -0.84925
-0.011188 -0.023841 0.379 -0.47284 0.28587 -0.83349
-0.011188 -0.02314 0.379 -0.50758 0.27661 -0.816
-0.011188 -0.022438 0.379 -0.5382 0.27131 -0.79795
-0.011218 -0.021795 0.38 -0.54945 0.26954 -0.79085
-0.011218 -0.021092 0.38 -0.55826 0.25637 -0.78906
-0.011247 -0.020442 0.381 -0.55966 0.25783 -0.78759
-0.011277 -0.019789 0.382 -0.57342 0.2562 -0.77818
-0.011277 -0.019082 0.382 -0.5569 0.24205 -0.79453
-0.011277 -0.018376 0.382 -0.45718 0.23222 -0.85852
-0.011306 -0.017715 0.383 -0.53281 0.22571 -0.81558
-0.011306 -0.017006 0.383 -0.40874 0.22238 -0.88514
-0.011306 -0.016298 0.383 -0.26738 0.21032 -0.94036
-0.011631 -0.016037 0.394 0.058752 0.15981 -0.9854
-0.011601 -0.015269 0.393 -0.29842 0.17393 -0.93845
-0.011601 -0.014542 0.393 -0.29021 0.17562 -0.94071
-0.011631 -0.01385 0.394 -0.15789 0.16624 -0.97336
-0.011631 -0.013121 0.394 -0.1799 0.17649 -0.96772
-0.011631 -0.012392 0.394 -0.19162 0.1889 -0.96312
-0.011631 -0.011663 0.394 -0.21863 0.19199 -0.95673
-0.011631 -0.010934 0.394 -0.23217 0.18825 -0.95428
-0.011631 -0.010205 0.394 -0.23016 0.1873 -0.95496
-0.011661 -0.0095005 0.395 -0.24295 0.18521 -0.95219
-0.011661 -0.0087697 0.395 -0.26836 0.17877 -0.94659
-0.011661 -0.0080389 0.395 -0.3081 0.18266 -0.93365
-0.011661 -0.007308 0.395 -0.35357 0.18459 -0.91701
-0.011661 -0.0065772 0.395 -0.38705 0.18686 -0.90293
-0.01169 -0.0058612 0.396 -0.41016 0.19497 -0.89093
-0.01169 -0.0051286 0.396 -0.44524 0.19142 -0.87471
-0.01172 -0.004407 0.397 -0.47718 0.1828 -0.85959
-0.01172 -0.0036725 0.397 -0.50834 0.18003 -0.84213
-0.01172 -0.002938 0.397 -0.53264 0.17426 -0.82821
-0.011749 -0.0022091 0.398 -0.53297 0.17469 -0.8279
-0.011749 -0.0014727 0.398 -0.53774 0.17322 -0.82513
-0.011779 -0.00073821 0.399 -0.54278 0.16613 -0.82328
-0.011808 0 0.4 -0.57159 0.1538 -0.80599
-0.011808 0.00074006 0.4 -0.58084 0.14917 -0.80024
-0.011808 0.0014801 0.4 -0.5291 0.1472 -0.83569
-0.011838 0.0022257 0.401 -0.5632 0.13385 -0.81541
-0.011838 0.0029676 0.401 -0.453 0.13031 -0.88193
-0.011926 0.0044847 0.404 -0.76107 0.07597 -0.64421
-0.013225 0.017406 0.448 0.16587 -0.13256 -0.9772
-0.013225 0.018235 0.448 0.28567 -0.15142 -0.94629
-0.013225 0.019064 0.448 0.4187 -0.14383 -0.89666
-0.013196 0.019848 0.447 0.33823 -0.14305 -0.93013
-0.013196 0.020675 0.447 0.42627 -0.13907 -0.89384
-0.013196 0.021502 0.447 0.47579 -0.14393 -0.8677
-0.013166 0.022279 0.446 0.466 -0.1412 -0.87345
-0.013137 0.023053 0.445 0.4619 -0.14065 -0.87571
-0.013137 0.023876 0.445 0.42322 -0.14368 -0.89456
-0.013137 0.024699 0.445 0.41242 -0.13031 -0.90163
-0.013107 0.025465 0.444 0.43736 -0.11583 -0.8918
-0.013107 0.026287 0.444 0.42786 -0.12452 -0.89523
-0.013107 0.027108 0.444 0.33646 -0.1465 -0.93023
-0.013107 0.02793 0.444 0.24943 -0.16305 -0.95457
-0.013077 0.028686 0.443 0.22019 -0.16216 -0.96188
-0.013077 0.029506 0.443 0.11835 -0.17643 -0.97717
-0.013077 0.031145 0.443 -0.044582 -0.16186 -0.98581
-0.010351 -0.059508 0.374 0.7135 0.1013 -0.6933
-0.010323 -0.058659 0.373 0.64846 0.11514 -0.75249
-0.010295 -0.057813 0.372 0.57898 0.13989 -0.80325
-0.010268 -0.056971 0.371 0.51578 0.1549 -0.8426
-0.010268 -0.056285 0.371 0.60515 0.13806 -0.78405
-0.010268 -0.055599 0.371 0.62465 0.12678 -0.77054
-0.01024 -0.054764 0.37 0.57272 0.14147 -0.80745
-0.01024 -0.05408 0.37 0.55326 0.14571 -0.82017
-0.010212 -0.053251 0.369 0.52719 0.14789 -0.83678
-0.010212 -0.052568 0.369 0.49106 0.15292 -0.8576
-0.010185 -0.051745 0.368 0.44417 0.15235 -0.8829
-0.010185 -0.051064 0.368 0.3878 0.15828 -0.90805
-0.010185 -0.050383 0.368 0.32163 0.16724 -0.93198
-0.010157 -0.049567 0.367 0.29526 0.12258 -0.94752
-0.010157 -0.048888 0.367 0.21331 0.13905 -0.96704
-0.010157 -0.048209 0.367 0.12168 0.15684 -0.9801
-0.010157 -0.04753 0.367 0.035977 0.17459 -0.98398
-0.010157 -0.046851 0.367 -0.058648 0.16673 -0.98426
-0.010157 -0.046172 0.367 -0.14167 0.13868 -0.98015
-0.010157 -0.045493 0.367 -0.22321 0.10438 -0.96917
-0.010185 -0.044936 0.368 -0.3464 0.2372 -0.9076
-0.010185 -0.044255 0.368 -0.41182 0.21479 -0.88559
-0.010185 -0.043574 0.368 -0.45502 0.16896 -0.8743
-0.010212 -0.04301 0.369 -0.46559 0.30621 -0.83034
-0.010212 -0.042327 0.369 -0.49022 0.27452 -0.82724
-0.01024 -0.041758 0.37 -0.51243 0.36238 -0.77852
-0.01024 -0.041073 0.37 -0.54126 0.31552 -0.77941
-0.01024 -0.040389 0.37 -0.56529 0.24421 -0.78791
-0.01024 -0.039704 0.37 -0.55812 0.18695 -0.80843
-0.010295 -0.03923 0.372 -0.55149 0.35071 -0.75688
-0.010295 -0.038542 0.372 -0.56535 0.31786 -0.76115
-0.010323 -0.037956 0.373 -0.53828 0.32915 -0.77583
-0.010351 -0.037365 0.374 -0.49143 0.32975 -0.80608
-0.010351 -0.036673 0.374 -0.46774 0.30631 -0.82909
-0.010351 -0.035981 0.374 -0.40407 0.28891 -0.8679
-0.010378 -0.035384 0.375 -0.34133 0.2663 -0.90143
-0.010378 -0.03469 0.375 -0.27767 0.24146 -0.92984
-0.010378 -0.033996 0.375 -0.23629 0.21985 -0.94648
-0.010378 -0.033302 0.375 -0.21411 0.21238 -0.95344
-0.010378 -0.032609 0.375 -0.19254 0.20573 -0.95948
-0.010378 -0.031915 0.375 -0.20259 0.20203 -0.9582
-0.010378 -0.031221 0.375 -0.21486 0.19603 -0.95677
-0.010406 -0.030609 0.376 -0.23276 0.19362 -0.95307
-0.010406 -0.029913 0.376 -0.26126 0.1954 -0.94528
-0.010406 -0.029217 0.376 -0.28758 0.20453 -0.93566
-0.010406 -0.028522 0.376 -0.32088 0.21479 -0.92244
-0.010406 -0.027826 0.376 -0.3423 0.2254 -0.91215
-0.010434 -0.027203 0.377 -0.35915 0.23841 -0.90231
-0.010434 -0.026505 0.377 -0.38118 0.24603 -0.89116
-0.010434 -0.025808 0.377 -0.38678 0.25224 -0.88701
-0.010461 -0.025177 0.378 -0.40596 0.25988 -0.87616
-0.010461 -0.024477 0.378 -0.43602 0.26617 -0.85968
-0.010461 -0.023778 0.378 -0.46692 0.276 -0.84013
-0.010489 -0.02314 0.379 -0.50424 0.2668 -0.82132
-0.010489 -0.022438 0.379 -0.54125 0.26022 -0.79958
-0.010489 -0.021737 0.379 -0.55066 0.26245 -0.7924
-0.010517 -0.021092 0.38 -0.56478 0.25485 -0.7849
-0.010544 -0.020442 0.381 -0.56392 0.2569 -0.78486
-0.010572 -0.019789 0.382 -0.58335 0.24089 -0.77568
-0.010572 -0.019082 0.382 -0.58197 0.2402 -0.77693
-0.010572 -0.018376 0.382 -0.50371 0.2512 -0.82654
-0.0106 -0.017715 0.383 -0.58017 0.22611 -0.78248
-0.0106 -0.017006 0.383 -0.47012 0.24301 -0.84849
-0.010876 -0.016723 0.393 -0.17806 0.1615 -0.97068
-0.010876 -0.015996 0.393 -0.23724 0.1526 -0.95939
-0.010876 -0.015269 0.393 -0.28003 0.14777 -0.94855
-0.010876 -0.014542 0.393 -0.28552 0.14874 -0.94676
-0.010876 -0.013815 0.393 -0.24935 0.15016 -0.9567
-0.010904 -0.013121 0.394 -0.17343 0.15173 -0.97309
-0.010904 -0.012392 0.394 -0.18404 0.16265 -0.96937
-0.010904 -0.011663 0.394 -0.21467 0.16056 -0.9634
-0.010904 -0.010934 0.394 -0.23149 0.15463 -0.96047
-0.010904 -0.010205 0.394 -0.2326 0.15246 -0.96055
-0.010904 -0.0094764 0.394 -0.24404 0.14884 -0.95828
-0.010932 -0.0087697 0.395 -0.26698 0.14228 -0.95314
-0.010932 -0.0080389 0.395 -0.30511 0.14788 -0.94076
-0.010932 -0.007308 0.395 -0.35481 0.14925 -0.92295
-0.010932 -0.0065772 0.395 -0.38795 0.14714 -0.90986
-0.010959 -0.0058612 0.396 -0.41139 0.156 -0.89801
-0.010959 -0.0051286 0.396 -0.44276 0.15249 -0.88358
-0.010987 -0.004407 0.397 -0.471 0.14776 -0.86967
-0.010987 -0.0036725 0.397 -0.50351 0.14565 -0.85163
-0.010987 -0.002938 0.397 -0.52927 0.14395 -0.83616
-0.010987 -0.0022035 0.397 -0.53214 0.15001 -0.83326
-0.011015 -0.0014727 0.398 -0.53353 0.15007 -0.83236
-0.011015 -0.00073636 0.398 -0.53401 0.14472 -0.833
-0.011042 0 0.399 -0.55104 0.12787 -0.82462
-0.01107 0.00074006 0.4 -0.59344 0.1365 -0.79322
-0.01107 0.0014801 0.4 -0.54801 0.14625 -0.82359
-0.011098 0.0022257 0.401 -0.60037 0.11128 -0.79194
-0.011098 0.0029676 0.401 -0.507 0.11021 -0.85487
-0.012426 0.018276 0.449 0.46684 -0.20869 -0.85937
-0.012426 0.019106 0.449 0.58184 -0.1737 -0.79454
-0.012399 0.019893 0.448 0.48802 -0.18479 -0.85305
-0.012371 0.020675 0.447 0.40326 -0.18561 -0.89606
-0.012371 0.021502 0.447 0.46414 -0.18607 -0.866
-0.012343 0.022279 0.446 0.45213 -0.18632 -0.87227
-0.012343 0.023105 0.446 0.45124 -0.18786 -0.87241
-0.012315 0.023876 0.445 0.42165 -0.18928 -0.88678
-0.012315 0.024699 0.445 0.41799 -0.1766 -0.89112
-0.012315 0.025523 0.445 0.39869 -0.18197 -0.89885
-0.012288 0.026287 0.444 0.44805 -0.15772 -0.87999
-0.012288 0.027108 0.444 0.33803 -0.19113 -0.92152
-0.012288 0.02793 0.444 0.25587 -0.2201 -0.94132
-0.01226 0.028686 0.443 0.22232 -0.20927 -0.95225
-0.012232 0.031075 0.442 -0.055222 -0.13355 -0.9895
-0.0096605 -0.059508 0.374 0.72498 0.10052 -0.68139
-0.0096347 -0.058659 0.373 0.66364 0.096853 -0.74175
-0.0096089 -0.057813 0.372 0.59479 0.10762 -0.79665
-0.0096089 -0.057125 0.372 0.66735 0.098336 -0.73823
-0.009583 -0.056285 0.371 0.61786 0.10581 -0.77913
-0.009583 -0.055599 0.371 0.63338 0.10908 -0.76612
-0.0095572 -0.054764 0.37 0.58059 0.10969 -0.80677
-0.0095314 -0.053933 0.369 0.55498 0.12057 -0.82308
-0.0095314 -0.053251 0.369 0.53279 0.12066 -0.8376
-0.0095055 -0.052426 0.368 0.49503 0.12524 -0.85981
-0.0095055 -0.051745 0.368 0.44392 0.12591 -0.88718
-0.0095055 -0.051064 0.368 0.38342 0.13177 -0.91412
-0.0095055 -0.050383 0.368 0.31523 0.1395 -0.93871
-0.0094797 -0.049567 0.367 0.26774 0.11363 -0.95677
-0.0094797 -0.048888 0.367 0.18467 0.13251 -0.97383
-0.0094797 -0.048209 0.367 0.11463 0.1409 -0.98337
-0.0094797 -0.04753 0.367 0.028936 0.16464 -0.98593
-0.0094797 -0.046851 0.367 -0.071106 0.16536 -0.98367
-0.0094797 -0.046172 0.367 -0.14817 0.15503 -0.97674
-0.0094797 -0.045493 0.367 -0.22975 0.14036 -0.96308
-0.0094797 -0.044814 0.367 -0.33112 0.12602 -0.93514
-0.0095055 -0.044255 0.368 -0.40397 0.22503 -0.88666
-0.0095055 -0.043574 0.368 -0.44959 0.1965 -0.87136
-0.0095314 -0.04301 0.369 -0.46311 0.27363 -0.843
-0.0095314 -0.042327 0.369 -0.49325 0.25692 -0.83108
-0.0095572 -0.041758 0.37 -0.51555 0.31897 -0.79528
-0.0095572 -0.041073 0.37 -0.54173 0.29275 -0.78792
-0.0095572 -0.040389 0.37 -0.564 0.24766 -0.78776
-0.0095572 -0.039704 0.37 -0.56518 0.21581 -0.79624
-0.009583 -0.039125 0.371 -0.5855 0.27516 -0.76255
-0.0096089 -0.038542 0.372 -0.58233 0.27415 -0.76533
-0.0096347 -0.037956 0.373 -0.55667 0.28524 -0.78023
