-0.020052 -0.030934 0.418 -0.072531 -0.1803 -0.98093
-0.0201 -0.030233 0.419 -0.041013 -0.17513 -0.98369
-0.020052 -0.029388 0.418 -0.011622 -0.16648 -0.98598
-0.020052 -0.028614 0.418 0.020103 -0.15722 -0.98736
-0.020052 -0.027841 0.418 0.041291 -0.14887 -0.98799
-0.020052 -0.027068 0.418 0.044475 -0.14678 -0.98817
-0.020052 -0.026294 0.418 0.040265 -0.14371 -0.9888
-0.020052 -0.025521 0.418 0.027574 -0.14066 -0.98967
-0.020052 -0.024747 0.418 0.0021203 -0.14589 -0.9893
-0.020052 -0.023974 0.418 -0.0328 -0.1551 -0.98735
-0.020052 -0.023201 0.418 -0.068509 -0.16712 -0.98355
-0.020052 -0.022427 0.418 -0.11858 -0.1643 -0.97926
-0.020052 -0.021654 0.418 -0.15652 -0.16545 -0.97372
-0.020052 -0.020881 0.418 -0.18546 -0.17564 -0.96683
-0.0201 -0.020155 0.419 -0.21319 -0.18807 -0.95874
-0.0201 -0.01938 0.419 -0.2432 -0.18671 -0.95184
-0.0201 -0.018605 0.419 -0.2622 -0.18576 -0.94697
-0.0201 -0.01783 0.419 -0.26957 -0.18828 -0.9444
-0.0201 -0.017055 0.419 -0.25434 -0.192 -0.94786
-0.020148 -0.016318 0.42 -0.24267 -0.18631 -0.95205
-0.020148 -0.015541 0.42 -0.24083 -0.16282 -0.95681
-0.020148 -0.014764 0.42 -0.23568 -0.14612 -0.96078
-0.020148 -0.013987 0.42 -0.24329 -0.14883 -0.95847
-0.020148 -0.01321 0.42 -0.24329 -0.14883 -0.95847
-0.020196 -0.012463 0.421 -0.25016 -0.1283 -0.95967
-0.020196 -0.011684 0.421 -0.24893 -0.10522 -0.96279
-0.020196 -0.010905 0.421 -0.25659 -0.105 -0.9608
-0.020196 -0.010126 0.421 -0.29174 -0.091926 -0.95207
-0.020244 -0.0093691 0.422 -0.30893 -0.076266 -0.94802
-0.020244 -0.0085883 0.422 -0.33697 -0.065616 -0.93923
-0.020244 -0.0078076 0.422 -0.35648 -0.051349 -0.93289
-0.020244 -0.0070268 0.422 -0.38095 -0.060549 -0.92261
-0.020292 -0.0062609 0.423 -0.41227 -0.050911 -0.90964
-0.020292 -0.0054783 0.423 -0.42826 -0.040992 -0.90273
-0.020292 -0.0046957 0.423 -0.4604 -0.027173 -0.88729
-0.020339 -0.0039223 0.424 -0.47624 -0.031477 -0.87875
-0.020387 -0.0031452 0.425 -0.47021 -0.038921 -0.88169
-0.020387 -0.0023589 0.425 -0.46453 -0.030697 -0.88503
-0.020387 -0.0015726 0.425 -0.47016 -0.041697 -0.8816
-0.020435 -0.00078816 0.426 -0.47002 -0.041603 -0.88167
-0.020435 0 0.426 -0.47283 -0.045214 -0.87999
-0.020435 0.00078816 0.426 -0.48561 -0.044856 -0.87302
-0.020483 0.00158 0.427 -0.47935 -0.031196 -0.87707
-0.020483 0.00237 0.427 -0.505 -0.026173 -0.86272
-0.020531 0.0031674 0.428 -0.52209 -0.01513 -0.85275
-0.020531 0.0039593 0.428 -0.56187 -0.0017267 -0.82722
-0.020579 0.0047623 0.429 -0.59438 0.01507 -0.80404
-0.020579 0.005556 0.429 -0.61124 0.023888 -0.79109
-0.020627 0.0063645 0.43 -0.63365 0.03292 -0.77292
-0.020675 0.0071767 0.431 -0.64217 0.053102 -0.76472
-0.020723 0.0079926 0.432 -0.64879 0.061955 -0.75844
-0.020723 0.0087919 0.432 -0.64563 0.080874 -0.75935
-0.020771 0.0096133 0.433 -0.6344 0.091849 -0.76753
-0.020819 0.010438 0.434 -0.617 0.10121 -0.78043
-0.020819 0.011241 0.434 -0.60454 0.11317 -0.7885
-0.020867 0.012072 0.435 -0.60186 0.13189 -0.78763
-0.020867 0.012877 0.435 -0.58296 0.13709 -0.80085
-0.020915 0.013713 0.436 -0.60573 0.15619 -0.78019
-0.021011 0.014586 0.438 -0.65288 0.16313 -0.73969
-0.020963 0.015362 0.437 -0.59969 0.17862 -0.78004
-0.021011 0.016207 0.438 -0.63167 0.19213 -0.75105
-0.021059 0.017056 0.439 -0.65503 0.18316 -0.73307
-0.019649 -0.061476 0.426 0.63675 -0.19337 -0.74643
-0.019603 -0.060546 0.425 0.57973 -0.17132 -0.79659
-0.019557 -0.059619 0.424 0.55089 -0.15163 -0.82069
-0.019557 -0.058834 0.424 0.57437 -0.1738 -0.79993
-0.019511 -0.057913 0.423 0.55386 -0.17601 -0.81379
-0.019511 -0.05713 0.423 0.5455 -0.18392 -0.81768
-0.019465 -0.056215 0.422 0.52234 -0.17746 -0.83407
-0.019465 -0.055434 0.422 0.4959 -0.16514 -0.85253
-0.019419 -0.054524 0.421 0.4755 -0.16326 -0.86443
-0.019419 -0.053745 0.421 0.45547 -0.15171 -0.87723
-0.019373 -0.05284 0.42 0.42312 -0.15015 -0.89355
-0.019373 -0.052063 0.42 0.40957 -0.13998 -0.90148
-0.019373 -0.051286 0.42 0.39009 -0.14128 -0.90987
-0.019327 -0.050389 0.419 0.36854 -0.13819 -0.91928
-0.019327 -0.049613 0.419 0.33746 -0.13799 -0.93117
-0.019327 -0.048838 0.419 0.30655 -0.12771 -0.94325
-0.01928 -0.047948 0.418 0.27941 -0.12813 -0.95159
-0.01928 -0.047175 0.418 0.24692 -0.13133 -0.96009
-0.01928 -0.046401 0.418 0.20928 -0.14671 -0.96679
-0.01928 -0.045628 0.418 0.18721 -0.15143 -0.97058
-0.01928 -0.044855 0.418 0.16291 -0.15413 -0.97453
-0.01928 -0.044081 0.418 0.13103 -0.16099 -0.97822
-0.01928 -0.043308 0.418 0.11755 -0.16432 -0.97938
-0.01928 -0.042535 0.418 0.11027 -0.16547 -0.98003
-0.01928 -0.041761 0.418 0.099828 -0.16871 -0.9806
-0.01928 -0.040988 0.418 0.075793 -0.17111 -0.98233
-0.01928 -0.040215 0.418 0.040026 -0.17962 -0.98292
-0.01928 -0.039441 0.418 0.0010527 -0.18687 -0.98238
-0.01928 -0.038668 0.418 -0.032592 -0.19081 -0.98108
-0.01928 -0.037895 0.418 -0.063014 -0.18852 -0.98005
-0.01928 -0.037121 0.418 -0.088086 -0.18614 -0.97857
-0.01928 -0.036348 0.418 -0.11193 -0.18569 -0.97621
-0.01928 -0.035574 0.418 -0.13136 -0.19026 -0.9729
-0.01928 -0.034801 0.418 -0.1445 -0.1949 -0.97012
-0.01928 -0.034028 0.418 -0.15048 -0.1987 -0.96844
-0.01928 -0.033254 0.418 -0.13813 -0.20403 -0.96917
-0.01928 -0.032481 0.418 -0.11957 -0.21048 -0.97026
-0.01928 -0.031708 0.418 -0.09181 -0.20912 -0.97357
-0.019327 -0.031008 0.419 -0.062677 -0.20314 -0.97714
-0.019327 -0.030233 0.419 -0.028273 -0.19945 -0.9795
-0.019327 -0.029458 0.419 0.0031459 -0.19451 -0.9809
-0.019327 -0.028683 0.419 0.035667 -0.18935 -0.98126
-0.01928 -0.027841 0.418 0.056745 -0.18758 -0.98061
-0.01928 -0.027068 0.418 0.058908 -0.18148 -0.98163
-0.01928 -0.026294 0.418 0.047375 -0.18058 -0.98242
-0.01928 -0.025521 0.418 0.027393 -0.18071 -0.98315
-0.01928 -0.024747 0.418 -0.0052657 -0.18484 -0.98275
-0.01928 -0.023974 0.418 -0.047283 -0.1907 -0.98051
-0.01928 -0.023201 0.418 -0.083667 -0.20129 -0.97595
-0.01928 -0.022427 0.418 -0.12806 -0.19934 -0.97153
-0.01928 -0.021654 0.418 -0.16543 -0.20416 -0.96486
-0.019327 -0.020931 0.419 -0.19246 -0.21439 -0.9576
-0.019327 -0.020155 0.419 -0.21827 -0.22476 -0.94965
-0.019327 -0.01938 0.419 -0.24034 -0.22356 -0.94459
-0.019327 -0.018605 0.419 -0.25171 -0.2229 -0.94179
-0.019327 -0.01783 0.419 -0.25758 -0.21874 -0.94117
-0.019373 -0.017095 0.42 -0.2412 -0.21537 -0.94627
-0.019373 -0.016318 0.42 -0.23033 -0.2044 -0.9514
-0.019373 -0.015541 0.42 -0.22473 -0.17928 -0.95779
-0.019373 -0.014764 0.42 -0.22236 -0.16554 -0.96081
-0.019419 -0.01402 0.421 -0.22766 -0.16594 -0.9595
-0.019419 -0.013241 0.421 -0.23183 -0.15786 -0.95986
-0.019419 -0.012463 0.421 -0.23943 -0.13367 -0.96167
-0.019419 -0.011684 0.421 -0.24014 -0.1095 -0.96454
-0.019419 -0.010905 0.421 -0.25074 -0.1092 -0.96188
-0.019465 -0.01015 0.422 -0.28363 -0.093945 -0.95432
-0.019465 -0.0093691 0.422 -0.30066 -0.078477 -0.9505
-0.019465 -0.0085883 0.422 -0.32887 -0.070775 -0.94172
-0.019465 -0.0078076 0.422 -0.3494 -0.058403 -0.93515
-0.019465 -0.0070268 0.422 -0.37488 -0.068505 -0.92454
-0.019511 -0.0062609 0.423 -0.40735 -0.055832 -0.91156
-0.019511 -0.0054783 0.423 -0.42887 -0.049532 -0.90201
-0.019557 -0.0047068 0.424 -0.46161 -0.037349 -0.8863
-0.019557 -0.0039223 0.424 -0.47957 -0.045239 -0.87634
-0.019603 -0.0031452 0.425 -0.47421 -0.053571 -0.87878
-0.019603 -0.0023589 0.425 -0.46942 -0.04264 -0.88195
-0.019603 -0.0015726 0.425 -0.4756 -0.055364 -0.87792
-0.019649 -0.00078816 0.426 -0.47187 -0.05536 -0.87993
-0.019649 0 0.426 -0.47117 -0.054464 -0.88036
-0.019649 0.00078816 0.426 -0.48046 -0.054154 -0.87535
-0.019696 0.00158 0.427 -0.47127 -0.044232 -0.88088
-0.019696 0.00237 0.427 -0.49172 -0.043669 -0.86966
-0.019742 0.0031674 0.428 -0.50882 -0.026044 -0.86048
-0.019742 0.0039593 0.428 -0.54675 -0.012233 -0.83721
-0.019788 0.0047623 0.429 -0.58173 0.007622 -0.81335
-0.019788 0.005556 0.429 -0.60401 0.016593 -0.7968
-0.019834 0.0063645 0.43 -0.62645 0.027513 -0.77898
-0.01988 0.0071767 0.431 -0.64035 0.051626 -0.76635
-0.01988 0.0079741 0.431 -0.65072 0.058065 -0.7571
-0.019926 0.0087919 0.432 -0.64732 0.074515 -0.75856
-0.019972 0.0096133 0.433 -0.63708 0.086131 -0.76597
-0.020018 0.010438 0.434 -0.61805 0.10032 -0.77971
-0.020018 0.011241 0.434 -0.60169 0.11734 -0.79007
-0.020065 0.012072 0.435 -0.59253 0.13837 -0.79358
-0.020065 0.012877 0.435 -0.56872 0.14981 -0.80877
-0.020065 0.013682 0.435 -0.52379 0.13998 -0.84027
-0.020111 0.01452 0.436 -0.55571 0.18392 -0.81078
-0.020157 0.015362 0.437 -0.58722 0.19422 -0.78578
-0.020157 0.01617 0.437 -0.53123 0.20138 -0.82295
-0.020249 0.017056 0.439 -0.66355 0.1975 -0.7216
-0.020295 0.017909 0.44 -0.71076 0.1886 -0.67768
-0.020295 0.018723 0.44 -0.63943 0.24052 -0.73026
-0.020341 0.019582 0.441 -0.67887 0.22628 -0.69852
-0.018863 -0.061476 0.426 0.6119 -0.21127 -0.7622
-0.018819 -0.060546 0.425 0.55346 -0.19515 -0.80969
-0.018819 -0.059759 0.425 0.60113 -0.21075 -0.77086
-0.018775 -0.058834 0.424 0.56401 -0.20025 -0.80112
-0.018731 -0.057913 0.423 0.54593 -0.20429 -0.81254
-0.018731 -0.05713 0.423 0.54448 -0.2141 -0.81099
-0.018686 -0.056215 0.422 0.52109 -0.20188 -0.82928
-0.018686 -0.055434 0.422 0.49901 -0.19655 -0.84401
-0.018642 -0.054524 0.421 0.47748 -0.19628 -0.85644
-0.018642 -0.053745 0.421 0.46002 -0.18608 -0.86819
-0.018642 -0.052966 0.421 0.42921 -0.1821 -0.88466
-0.018598 -0.052063 0.42 0.41365 -0.17394 -0.89367
-0.018598 -0.051286 0.42 0.39556 -0.17084 -0.90241
-0.018598 -0.050509 0.42 0.37355 -0.1688 -0.91212
-0.018554 -0.049613 0.419 0.343 -0.1656 -0.92462
-0.018554 -0.048838 0.419 0.31059 -0.15886 -0.93718
-0.018554 -0.048063 0.419 0.27594 -0.15276 -0.94896
-0.018509 -0.047175 0.418 0.24223 -0.15456 -0.95783
-0.018509 -0.046401 0.418 0.20362 -0.16801 -0.96453
-0.018509 -0.045628 0.418 0.17561 -0.16994 -0.96968
-0.018509 -0.044855 0.418 0.15121 -0.17367 -0.97313
-0.018509 -0.044081 0.418 0.12028 -0.18148 -0.97601
-0.018509 -0.043308 0.418 0.10262 -0.18588 -0.9772
-0.018509 -0.042535 0.418 0.097362 -0.19001 -0.97694
-0.018509 -0.041761 0.418 0.090005 -0.19517 -0.97663
-0.018509 -0.040988 0.418 0.070189 -0.19849 -0.97759
-0.018509 -0.040215 0.418 0.039825 -0.20484 -0.97798
-0.018509 -0.039441 0.418 0.0010468 -0.214 -0.97683
-0.018509 -0.038668 0.418 -0.032411 -0.21687 -0.97566
-0.018509 -0.037895 0.418 -0.062739 -0.20959 -0.97577
-0.018509 -0.037121 0.418 -0.087801 -0.20222 -0.9754
-0.018509 -0.036348 0.418 -0.1115 -0.20472 -0.97245
-0.018509 -0.035574 0.418 -0.13085 -0.20919 -0.96908
-0.018509 -0.034801 0.418 -0.14396 -0.21275 -0.96644
-0.018509 -0.034028 0.418 -0.14997 -0.21453 -0.96514
-0.018509 -0.033254 0.418 -0.13768 -0.21885 -0.966
-0.018509 -0.032481 0.418 -0.11917 -0.22527 -0.96698
-0.018554 -0.031784 0.419 -0.09121 -0.22739 -0.96952
-0.018554 -0.031008 0.419 -0.062342 -0.22692 -0.97192
-0.018554 -0.030233 0.419 -0.028077 -0.23022 -0.97273
-0.018554 -0.029458 0.419 0.0031172 -0.23521 -0.97194
-0.018554 -0.028683 0.419 0.035263 -0.23995 -0.97014
-0.018554 -0.027907 0.419 0.055966 -0.23875 -0.96947
-0.018554 -0.027132 0.419 0.058089 -0.23482 -0.9703
-0.018509 -0.026294 0.418 0.046801 -0.23647 -0.97051
-0.018509 -0.025521 0.418 0.02704 -0.23958 -0.9705
-0.018509 -0.024747 0.418 -0.0051979 -0.24259 -0.97011
-0.018509 -0.023974 0.418 -0.046696 -0.24525 -0.96833
-0.018509 -0.023201 0.418 -0.087754 -0.25327 -0.96341
-0.018509 -0.022427 0.418 -0.1305 -0.25207 -0.95887
-0.018509 -0.021654 0.418 -0.1664 -0.25451 -0.95265
-0.018554 -0.020931 0.419 -0.19225 -0.25932 -0.94646
-0.018554 -0.020155 0.419 -0.21716 -0.26167 -0.94041
-0.018554 -0.01938 0.419 -0.23365 -0.256 -0.93801
-0.018554 -0.018605 0.419 -0.24057 -0.2509 -0.93764
-0.018598 -0.017872 0.42 -0.24255 -0.24088 -0.93976
-0.018598 -0.017095 0.42 -0.22408 -0.23252 -0.94643
-0.018598 -0.016318 0.42 -0.21141 -0.21691 -0.95302
-0.018598 -0.015541 0.42 -0.19982 -0.19211 -0.96081
-0.018598 -0.014764 0.42 -0.20433 -0.17714 -0.96274
-0.018642 -0.01402 0.421 -0.21292 -0.17047 -0.96208
-0.018642 -0.013241 0.421 -0.22126 -0.15527 -0.96277
-0.018642 -0.012463 0.421 -0.22893 -0.12899 -0.96486
-0.018642 -0.011684 0.421 -0.23624 -0.11062 -0.96538
-0.018642 -0.010905 0.421 -0.24879 -0.11027 -0.96226
-0.018686 -0.01015 0.422 -0.27896 -0.094079 -0.95568
-0.018686 -0.0093691 0.422 -0.29867 -0.084524 -0.95061
-0.018686 -0.0085883 0.422 -0.32505 -0.080788 -0.94224
-0.018686 -0.0078076 0.422 -0.34475 -0.071334 -0.93598
-0.018686 -0.0070268 0.422 -0.36945 -0.081328 -0.92569
-0.018731 -0.0062609 0.423 -0.40143 -0.06656 -0.91347
-0.018731 -0.0054783 0.423 -0.42697 -0.06382 -0.90201
-0.018775 -0.0047068 0.424 -0.45978 -0.054162 -0.88638
-0.018775 -0.0039223 0.424 -0.47763 -0.064615 -0.87618
-0.018775 -0.0031378 0.424 -0.47302 -0.073994 -0.87794
-0.018819 -0.0023589 0.425 -0.46824 -0.061148 -0.88148
-0.018819 -0.0015726 0.425 -0.475 -0.074647 -0.87681
-0.018863 -0.00078816 0.426 -0.47215 -0.070028 -0.87873
-0.018863 0 0.426 -0.47218 -0.069111 -0.87879
-0.018863 0.00078816 0.426 -0.4779 -0.068869 -0.87571
-0.018908 0.00158 0.427 -0.46948 -0.058983 -0.88097
-0.018908 0.00237 0.427 -0.48719 -0.058338 -0.87134
-0.018952 0.0031674 0.428 -0.50262 -0.036059 -0.86376
-0.018952 0.0039593 0.428 -0.53671 -0.022888 -0.84346
-0.018996 0.0047623 0.429 -0.57265 -0.0017072 -0.8198
-0.018996 0.005556 0.429 -0.59604 0.011704 -0.80287
-0.019041 0.0063645 0.43 -0.61701 0.023697 -0.7866
-0.019085 0.0071767 0.431 -0.63291 0.046456 -0.77283
-0.019085 0.0079741 0.431 -0.64305 0.054627 -0.76387
-0.019129 0.0087919 0.432 -0.6424 0.071794 -0.763
-0.019173 0.0096133 0.433 -0.63557 0.079226 -0.76797
-0.019218 0.010438 0.434 -0.61748 0.09325 -0.78104
-0.019218 0.011241 0.434 -0.60128 0.11077 -0.79132
-0.019262 0.012072 0.435 -0.58448 0.12771 -0.80129
-0.019262 0.012877 0.435 -0.55807 0.1469 -0.81669
-0.019306 0.013713 0.436 -0.57112 0.16026 -0.80507
-0.019306 0.01452 0.436 -0.55036 0.16948 -0.81755
-0.019351 0.01617 0.437 -0.54273 0.17612 -0.82124
-0.019395 0.017018 0.438 -0.58917 0.20551 -0.78144
-0.019483 0.017909 0.44 -0.72655 0.17331 -0.66489
-0.019483 0.018723 0.44 -0.67366 0.2111 -0.70826
-0.018077 -0.061476 0.426 0.57992 -0.22235 -0.78374
-0.018035 -0.060546 0.425 0.51846 -0.21247 -0.82829
-0.018035 -0.059759 0.425 0.5827 -0.22386 -0.78125
-0.017993 -0.058834 0.424 0.54753 -0.22015 -0.80731
-0.017993 -0.05805 0.424 0.55472 -0.23389 -0.79849
-0.01795 -0.05713 0.423 0.54144 -0.23761 -0.80647
-0.01795 -0.056348 0.423 0.5236 -0.236 -0.81863
-0.017908 -0.055434 0.422 0.50021 -0.2273 -0.83554
-0.017908 -0.054653 0.422 0.47946 -0.22785 -0.84747
-0.017865 -0.053745 0.421 0.46426 -0.216 -0.85895
-0.017865 -0.052966 0.421 0.43798 -0.2105 -0.87399
-0.017823 -0.052063 0.42 0.42206 -0.20387 -0.88335
-0.017823 -0.051286 0.42 0.40352 -0.20215 -0.89236
-0.017823 -0.050509 0.42 0.38055 -0.19791 -0.90333
-0.01778 -0.049613 0.419 0.35247 -0.19235 -0.91584
-0.01778 -0.048838 0.419 0.31628 -0.18548 -0.93036
-0.01778 -0.048063 0.419 0.28121 -0.17891 -0.94282
-0.01778 -0.047288 0.419 0.24094 -0.17308 -0.95498
-0.017738 -0.046401 0.418 0.20204 -0.18401 -0.96194
-0.017738 -0.045628 0.418 0.16815 -0.18321 -0.96859
-0.017738 -0.044855 0.418 0.14371 -0.18693 -0.9718
-0.017738 -0.044081 0.418 0.1138 -0.19469 -0.97424
-0.017738 -0.043308 0.418 0.091986 -0.20014 -0.97544
-0.017738 -0.042535 0.418 0.082629 -0.20131 -0.97604
-0.017738 -0.041761 0.418 0.077332 -0.20739 -0.9752
-0.017738 -0.040988 0.418 0.060642 -0.21062 -0.97569
-0.017738 -0.040215 0.418 0.034523 -0.21387 -0.97625
-0.017738 -0.039441 0.418 0.0010456 -0.21897 -0.97573
-0.017738 -0.038668 0.418 -0.032382 -0.22084 -0.97477
-0.017738 -0.037895 0.418 -0.057465 -0.21464 -0.975
-0.017738 -0.037121 0.418 -0.083451 -0.21325 -0.97343
-0.017738 -0.036348 0.418 -0.10808 -0.21867 -0.96979
-0.017738 -0.035574 0.418 -0.1284 -0.22305 -0.96631
-0.017738 -0.034801 0.418 -0.14252 -0.22555 -0.96375
-0.017738 -0.034028 0.418 -0.14959 -0.22531 -0.96273
-0.017738 -0.033254 0.418 -0.13837 -0.22861 -0.96363
-0.01778 -0.032559 0.419 -0.12065 -0.23447 -0.96461
-0.01778 -0.031784 0.419 -0.093973 -0.24098 -0.96597
-0.01778 -0.031008 0.419 -0.066173 -0.2454 -0.96716
-0.01778 -0.030233 0.419 -0.033055 -0.25547 -0.96625
-0.01778 -0.029458 0.419 0.0030931 -0.26425 -0.96445
-0.01778 -0.028683 0.419 0.034996 -0.2679 -0.96281
-0.01778 -0.027907 0.419 0.05553 -0.26765 -0.96191
-0.01778 -0.027132 0.419 0.057612 -0.26572 -0.96233
-0.01778 -0.026357 0.419 0.046284 -0.26873 -0.9621
-0.017738 -0.025521 0.418 0.021598 -0.28 -0.95976
-0.017738 -0.024747 0.418 -0.014371 -0.28663 -0.95793
-0.017738 -0.023974 0.418 -0.058332 -0.29085 -0.95499
-0.01778 -0.023256 0.419 -0.10057 -0.2948 -0.95025
-0.01778 -0.022481 0.419 -0.13849 -0.29437 -0.9456
-0.01778 -0.021706 0.419 -0.16989 -0.29474 -0.94035
-0.01778 -0.020931 0.419 -0.1921 -0.29533 -0.93588
-0.01778 -0.020155 0.419 -0.21341 -0.29038 -0.93281
-0.017823 -0.019426 0.42 -0.22111 -0.28108 -0.93387
-0.017823 -0.018649 0.42 -0.22071 -0.27288 -0.93639
-0.017823 -0.017872 0.42 -0.21681 -0.25925 -0.94116
-0.017823 -0.017095 0.42 -0.19856 -0.24145 -0.94988
-0.017823 -0.016318 0.42 -0.18798 -0.217 -0.9579
-0.017823 -0.015541 0.42 -0.17999 -0.19385 -0.96438
-0.017865 -0.014799 0.421 -0.19 -0.17923 -0.96528
-0.017865 -0.01402 0.421 -0.20128 -0.16693 -0.9652
-0.017865 -0.013241 0.421 -0.2128 -0.14557 -0.96619
-0.017865 -0.012463 0.421 -0.21945 -0.11918 -0.96832
-0.017865 -0.011684 0.421 -0.22768 -0.10274 -0.9683
-0.017865 -0.010905 0.421 -0.24226 -0.10237 -0.9648
-0.017908 -0.01015 0.422 -0.26977 -0.08629 -0.95905
-0.017908 -0.0093691 0.422 -0.28775 -0.077801 -0.95454
-0.017908 -0.0085883 0.422 -0.31806 -0.073041 -0.94525
-0.017908 -0.0078076 0.422 -0.33692 -0.067596 -0.9391
-0.017908 -0.0070268 0.422 -0.36632 -0.071687 -0.92772
-0.01795 -0.0062609 0.423 -0.40239 -0.060771 -0.91345
-0.01795 -0.0054783 0.423 -0.43169 -0.06177 -0.89991
-0.017993 -0.0047068 0.424 -0.46415 -0.055879 -0.88399
-0.017993 -0.0039223 0.424 -0.48178 -0.06811 -0.87364
-0.017993 -0.0031378 0.424 -0.47644 -0.078419 -0.8757
-0.018035 -0.0023589 0.425 -0.47447 -0.069176 -0.87755
-0.018035 -0.0015726 0.425 -0.47968 -0.082632 -0.87355
-0.018077 -0.00078816 0.426 -0.47111 -0.079222 -0.87851
-0.018077 0 0.426 -0.47312 -0.082774 -0.8771
-0.01812 0.00079001 0.427 -0.47227 -0.082625 -0.87757
-0.01812 0.00158 0.427 -0.46323 -0.073911 -0.88315
-0.018162 0.0023756 0.428 -0.47972 -0.068472 -0.87475
-0.018162 0.0031674 0.428 -0.49292 -0.043533 -0.86898
-0.018162 0.0039593 0.428 -0.52189 -0.032027 -0.85241
-0.018205 0.0047623 0.429 -0.55797 -0.011232 -0.82979
-0.018205 0.005556 0.429 -0.5851 0.0016888 -0.81096
-0.018247 0.0063645 0.43 -0.60994 0.013992 -0.79232
-0.018247 0.00716 0.43 -0.61973 0.021259 -0.78453
-0.01829 0.0079741 0.431 -0.63931 0.039 -0.76796
-0.018332 0.0087919 0.432 -0.64075 0.055425 -0.76575
-0.018332 0.0095911 0.432 -0.63734 0.058791 -0.76834
-0.018375 0.010414 0.433 -0.61486 0.069002 -0.78561
-0.018417 0.011241 0.434 -0.60374 0.082446 -0.7929
-0.018417 0.012044 0.434 -0.5724 0.089226 -0.8151
-0.018459 0.012877 0.435 -0.55085 0.11088 -0.82721
-0.018459 0.013682 0.435 -0.51177 0.10319 -0.85291
-0.018502 0.01452 0.436 -0.546 0.13863 -0.82623
-0.018502 0.015327 0.436 -0.50128 0.12784 -0.85579
-0.018672 0.020352 0.44 -0.51571 0.28547 -0.8078
-0.017292 -0.061476 0.426 0.53327 -0.24971 -0.80825
-0.017292 -0.060688 0.426 0.61647 -0.2476 -0.74743
-0.017251 -0.059759 0.425 0.55139 -0.24461 -0.79758
-0.017251 -0.058973 0.425 0.5831 -0.25247 -0.77217
-0.01721 -0.05805 0.424 0.54073 -0.25511 -0.80158
-0.01717 -0.05713 0.423 0.53096 -0.25753 -0.80732
-0.01717 -0.056348 0.423 0.51646 -0.26096 -0.81558
-0.017129 -0.055434 0.422 0.49671 -0.25469 -0.8297
-0.017129 -0.054653 0.422 0.48007 -0.2558 -0.8391
-0.017089 -0.053745 0.421 0.46483 -0.248 -0.84996
-0.017089 -0.052966 0.421 0.44229 -0.24615 -0.86243
-0.017089 -0.052187 0.421 0.42565 -0.23633 -0.87348
-0.017048 -0.051286 0.42 0.41128 -0.23597 -0.88044
-0.017048 -0.050509 0.42 0.38692 -0.23606 -0.89138
-0.017048 -0.049732 0.42 0.35645 -0.22927 -0.90575
-0.017007 -0.048838 0.419 0.32245 -0.2245 -0.91958
-0.017007 -0.048063 0.419 0.28744 -0.21399 -0.93359
-0.017007 -0.047288 0.419 0.25074 -0.20669 -0.94573
-0.017007 -0.046512 0.419 0.20936 -0.20878 -0.95529
-0.017007 -0.045737 0.419 0.173 -0.20539 -0.96327
-0.016967 -0.044855 0.418 0.14627 -0.20379 -0.96803
-0.016967 -0.044081 0.418 0.11354 -0.20567 -0.97201
-0.016967 -0.043308 0.418 0.088646 -0.21216 -0.97321
-0.016967 -0.042535 0.418 0.076244 -0.21039 -0.97464
-0.016967 -0.041761 0.418 0.067914 -0.21151 -0.97501
-0.016967 -0.040988 0.418 0.04815 -0.20877 -0.97678
-0.016967 -0.040215 0.418 0.025148 -0.20794 -0.97782
-0.016967 -0.039441 0.418 -0.0041927 -0.20801 -0.97812
-0.016967 -0.038668 0.418 -0.032433 -0.21388 -0.97632
-0.016967 -0.037895 0.418 -0.057465 -0.21464 -0.975
-0.016967 -0.037121 0.418 -0.083338 -0.2192 -0.97211
-0.016967 -0.036348 0.418 -0.10786 -0.22753 -0.96778
-0.016967 -0.035574 0.418 -0.12813 -0.23186 -0.96427
-0.016967 -0.034801 0.418 -0.14225 -0.23335 -0.96193
-0.017007 -0.034109 0.419 -0.15389 -0.23531 -0.95966
-0.017007 -0.033334 0.419 -0.14662 -0.24232 -0.95905
-0.017007 -0.032559 0.419 -0.13216 -0.25337 -0.9583
-0.017007 -0.031784 0.419 -0.10253 -0.26381 -0.95911
-0.017007 -0.031008 0.419 -0.076779 -0.27768 -0.9576
-0.017007 -0.030233 0.419 -0.039943 -0.28393 -0.95801
-0.017007 -0.028683 0.419 0.030599 -0.29802 -0.95407
-0.017007 -0.027907 0.419 0.050862 -0.30331 -0.95153
-0.017007 -0.027132 0.419 0.053822 -0.30786 -0.94991
-0.017007 -0.026357 0.419 0.044561 -0.31712 -0.94734
-0.017007 -0.025582 0.419 0.017158 -0.32914 -0.94413
-0.017007 -0.024807 0.419 -0.021159 -0.33359 -0.94248
-0.017007 -0.024031 0.419 -0.067346 -0.33379 -0.94024
-0.017007 -0.023256 0.419 -0.10612 -0.33444 -0.93642
-0.017007 -0.022481 0.419 -0.14069 -0.33034 -0.93332
-0.017007 -0.021706 0.419 -0.16403 -0.32914 -0.92992
-0.017007 -0.020931 0.419 -0.17866 -0.32565 -0.92846
-0.017048 -0.020204 0.42 -0.19842 -0.30868 -0.93024
-0.017048 -0.019426 0.42 -0.20135 -0.29323 -0.9346
-0.017048 -0.018649 0.42 -0.19751 -0.27795 -0.94007
-0.017048 -0.017872 0.42 -0.19199 -0.25594 -0.94744
-0.017048 -0.017095 0.42 -0.17361 -0.23016 -0.95754
-0.017089 -0.016357 0.421 -0.1645 -0.19788 -0.96632
-0.017089 -0.015578 0.421 -0.16011 -0.17821 -0.97088
-0.017089 -0.014799 0.421 -0.1765 -0.16674 -0.97008
-0.017089 -0.01402 0.421 -0.18997 -0.14929 -0.97037
-0.017089 -0.013241 0.421 -0.20459 -0.12262 -0.97114
-0.017089 -0.012463 0.421 -0.2101 -0.098051 -0.97275
-0.017089 -0.011684 0.421 -0.22404 -0.090603 -0.97036
-0.017129 -0.010931 0.422 -0.23911 -0.090058 -0.96681
-0.017129 -0.01015 0.422 -0.26338 -0.075334 -0.96175
-0.017129 -0.0093691 0.422 -0.28318 -0.073889 -0.95622
-0.017129 -0.0085883 0.422 -0.31546 -0.068128 -0.94649
-0.017129 -0.0078076 0.422 -0.33161 -0.067731 -0.94098
-0.01717 -0.0070435 0.423 -0.36316 -0.065758 -0.9294
-0.01717 -0.0062609 0.423 -0.40244 -0.058848 -0.91355
-0.01717 -0.0054783 0.423 -0.43396 -0.063585 -0.89869
-0.01721 -0.0047068 0.424 -0.4647 -0.062347 -0.88327
-0.01721 -0.0039223 0.424 -0.48082 -0.075466 -0.87357
-0.017251 -0.0031452 0.425 -0.47691 -0.080951 -0.87522
-0.017251 -0.0023589 0.425 -0.47782 -0.075431 -0.87521
-0.017251 -0.0015726 0.425 -0.48087 -0.088022 -0.87236
-0.017292 -0.00078816 0.426 -0.47032 -0.081088 -0.87876
-0.017292 0 0.426 -0.47429 -0.089085 -0.87585
-0.017332 0.00079001 0.427 -0.4677 -0.089233 -0.87937
-0.017332 0.00158 0.427 -0.45708 -0.082453 -0.8856
-0.017373 0.0023756 0.428 -0.47318 -0.0733 -0.87791
-0.017373 0.0031674 0.428 -0.48311 -0.047448 -0.87427
-0.017413 0.0039685 0.429 -0.50573 -0.038587 -0.86183
-0.017413 0.0047623 0.429 -0.5427 -0.020109 -0.83968
-0.017413 0.005556 0.429 -0.57378 -0.0085274 -0.81897
-0.017454 0.0063645 0.43 -0.60267 0.0033159 -0.79799
-0.017454 0.00716 0.43 -0.6181 0.011336 -0.78602
-0.017494 0.0079741 0.431 -0.63538 0.020801 -0.77192
-0.017535 0.0087919 0.432 -0.639 0.03496 -0.76841
-0.017576 0.0096133 0.433 -0.6372 0.034155 -0.76994
-0.017576 0.010414 0.433 -0.61621 0.040007 -0.78657
-0.017576 0.011216 0.433 -0.59468 0.039002 -0.80301
-0.017616 0.012044 0.434 -0.57718 0.055951 -0.8147
-0.017657 0.012877 0.435 -0.55086 0.067551 -0.83186
-0.017657 0.013682 0.435 -0.51398 0.057993 -0.85584
-0.017697 0.01452 0.436 -0.54194 0.089775 -0.83561
-0.017697 0.015327 0.436 -0.50537 0.079499 -0.85923
-0.017738 0.01617 0.437 -0.54263 0.11002 -0.83274
-0.017738 0.016979 0.437 -0.45689 0.122 -0.88112
-0.017738 0.017787 0.437 -0.30744 0.13889 -0.94138
-0.017779 0.018638 0.438 -0.38447 0.19729 -0.90181
-0.01786 0.019537 0.44 -0.65988 0.11854 -0.74196
-0.016544 -0.062411 0.427 0.54893 -0.27182 -0.79044
-0.016544 -0.061621 0.427 0.64604 -0.24645 -0.72242
-0.016506 -0.060688 0.426 0.57503 -0.26685 -0.77339
-0.016467 -0.059759 0.425 0.51051 -0.27816 -0.81364
-0.016467 -0.058973 0.425 0.56342 -0.27189 -0.78015
-0.016428 -0.05805 0.424 0.53299 -0.27233 -0.8011
-0.016428 -0.057265 0.424 0.53416 -0.27686 -0.79876
-0.016389 -0.056348 0.423 0.51937 -0.27817 -0.80801
-0.016351 -0.055434 0.422 0.49662 -0.27475 -0.82334
-0.016351 -0.054653 0.422 0.48107 -0.28205 -0.83007
-0.016351 -0.053872 0.422 0.4655 -0.27835 -0.84014
-0.016312 -0.052966 0.421 0.44425 -0.27666 -0.85212
-0.016312 -0.052187 0.421 0.42643 -0.27435 -0.86191
-0.016273 -0.051286 0.42 0.41118 -0.2712 -0.87028
-0.016273 -0.050509 0.42 0.38963 -0.27058 -0.88032
-0.016273 -0.049732 0.42 0.35735 -0.26394 -0.8959
-0.016273 -0.048955 0.42 0.32479 -0.26104 -0.90905
-0.016234 -0.048063 0.419 0.29219 -0.24905 -0.92336
-0.016234 -0.047288 0.419 0.26082 -0.24117 -0.93478
-0.016234 -0.046512 0.419 0.21964 -0.23519 -0.94681
-0.016234 -0.045737 0.419 0.17721 -0.22473 -0.95817
-0.016234 -0.044962 0.419 0.14853 -0.21703 -0.9648
-0.016234 -0.044187 0.419 0.11411 -0.2131 -0.97034
-0.016196 -0.043308 0.418 0.08765 -0.21019 -0.97372
-0.016196 -0.042535 0.418 0.073207 -0.20545 -0.97592
-0.016196 -0.041761 0.418 0.062847 -0.2016 -0.97745
-0.016196 -0.040988 0.418 0.040973 -0.19277 -0.98039
-0.016196 -0.040215 0.418 0.021046 -0.18784 -0.98197
-0.016196 -0.039441 0.418 -0.0052573 -0.19293 -0.9812
-0.016196 -0.038668 0.418 -0.029374 -0.20191 -0.97896
-0.016196 -0.037895 0.418 -0.055443 -0.20968 -0.9762
-0.016196 -0.037121 0.418 -0.082285 -0.2202 -0.97198
-0.016196 -0.036348 0.418 -0.10775 -0.23144 -0.96686
-0.016234 -0.03566 0.419 -0.13364 -0.23988 -0.96156
-0.016234 -0.034884 0.419 -0.15251 -0.24498 -0.95746
-0.016234 -0.034109 0.419 -0.16824 -0.24911 -0.95375
-0.016234 -0.033334 0.419 -0.16385 -0.25879 -0.95194
-0.016234 -0.032559 0.419 -0.15131 -0.27343 -0.94992
-0.016234 -0.031784 0.419 -0.11689 -0.28687 -0.95081
-0.016234 -0.031008 0.419 -0.090391 -0.29878 -0.95003
-0.016234 -0.030233 0.419 -0.051828 -0.30606 -0.9506
-0.016234 -0.029458 0.419 -0.0091293 -0.31561 -0.94885
-0.016234 -0.028683 0.419 0.025262 -0.32548 -0.94521
-0.016234 -0.027907 0.419 0.050292 -0.33502 -0.94087
-0.016234 -0.027132 0.419 0.053193 -0.34029 -0.93881
-0.016234 -0.026357 0.419 0.044012 -0.35013 -0.93567
-0.016234 -0.025582 0.419 0.016928 -0.36345 -0.93146
-0.016234 -0.024807 0.419 -0.020887 -0.366 -0.93038
-0.016234 -0.024031 0.419 -0.066579 -0.36269 -0.92953
-0.016234 -0.023256 0.419 -0.10015 -0.35996 -0.92758
-0.016234 -0.022481 0.419 -0.13071 -0.35352 -0.92625
-0.016234 -0.021706 0.419 -0.15142 -0.34642 -0.92578
-0.016273 -0.020981 0.42 -0.16434 -0.33369 -0.92825
-0.016273 -0.020204 0.42 -0.17909 -0.31253 -0.93287
-0.016273 -0.019426 0.42 -0.17839 -0.29183 -0.93969
-0.016273 -0.018649 0.42 -0.1727 -0.27093 -0.94698
-0.016273 -0.017872 0.42 -0.16717 -0.24193 -0.95578
-0.016312 -0.017136 0.421 -0.1501 -0.20915 -0.96629
-0.016312 -0.016357 0.421 -0.13991 -0.17777 -0.97408
-0.016312 -0.015578 0.421 -0.13732 -0.15872 -0.97773
-0.016312 -0.014799 0.421 -0.15794 -0.1461 -0.97658
-0.016312 -0.01402 0.421 -0.17661 -0.12432 -0.9764
-0.016312 -0.013241 0.421 -0.19217 -0.099446 -0.97631
-0.016312 -0.012463 0.421 -0.20053 -0.078745 -0.97652
-0.016312 -0.011684 0.421 -0.21842 -0.075359 -0.97294
-0.016351 -0.010931 0.422 -0.23747 -0.074838 -0.96851
-0.016351 -0.01015 0.422 -0.26076 -0.062206 -0.9634
-0.016351 -0.0093691 0.422 -0.28517 -0.067806 -0.95608
-0.016351 -0.0085883 0.422 -0.31729 -0.067088 -0.94595
-0.016351 -0.0078076 0.422 -0.33329 -0.071648 -0.9401
-0.016389 -0.0070435 0.423 -0.36395 -0.068664 -0.92889
-0.016389 -0.0062609 0.423 -0.40631 -0.065446 -0.91139
-0.016389 -0.0054783 0.423 -0.44056 -0.073695 -0.89469
-0.016428 -0.0047068 0.424 -0.46931 -0.076921 -0.87968
-0.016428 -0.0039223 0.424 -0.48306 -0.089922 -0.87096
-0.016467 -0.0031452 0.425 -0.48075 -0.09075 -0.87215
-0.016467 -0.0023589 0.425 -0.48294 -0.088813 -0.87114
-0.016506 -0.0015763 0.426 -0.48229 -0.099476 -0.87035
-0.016506 -0.00078816 0.426 -0.47333 -0.094588 -0.87579
-0.016544 0 0.427 -0.47286 -0.10163 -0.87526
-0.016544 0.00079001 0.427 -0.46372 -0.097647 -0.88058
-0.016544 0.00158 0.427 -0.44998 -0.093835 -0.8881
-0.016583 0.0023756 0.428 -0.46426 -0.081918 -0.8819
-0.016583 0.0031674 0.428 -0.46939 -0.057017 -0.88115
-0.016622 0.0039685 0.429 -0.48922 -0.047154 -0.87089
-0.016622 0.0047623 0.429 -0.52551 -0.032753 -0.85016
-0.016622 0.005556 0.429 -0.56023 -0.023278 -0.82801
-0.016661 0.0063645 0.43 -0.59026 -0.008385 -0.80717
-0.016699 0.0071767 0.431 -0.61118 0.00082031 -0.79149
-0.016699 0.0079741 0.431 -0.62972 0.0040255 -0.77681
-0.016738 0.0087919 0.432 -0.63841 0.010345 -0.76963
-0.016777 0.0096133 0.433 -0.63898 0.0055547 -0.76921
-0.016777 0.010414 0.433 -0.62089 0.0019368 -0.78389
-0.016815 0.011241 0.434 -0.6139 0.0089629 -0.78933
-0.016815 0.012044 0.434 -0.57984 0.0054734 -0.81472
-0.016854 0.012877 0.435 -0.55388 0.015912 -0.83244
-0.016854 0.013682 0.435 -0.51854 0.0070565 -0.85502
-0.016893 0.01452 0.436 -0.54384 0.043964 -0.83804
-0.016932 0.015362 0.437 -0.58288 0.046576 -0.81122
-0.016932 0.01617 0.437 -0.54495 0.044573 -0.83728
-0.016932 0.016979 0.437 -0.46524 0.045002 -0.88404
-0.01697 0.017828 0.438 -0.52482 0.066718 -0.84859
-0.015756 -0.061621 0.427 0.60832 -0.24439 -0.75513
-0.01572 -0.060688 0.426 0.53015 -0.26945 -0.80395
-0.01572 -0.0599 0.426 0.60507 -0.2505 -0.75574
-0.015683 -0.058973 0.425 0.54352 -0.2732 -0.79369
-0.015646 -0.05805 0.424 0.51905 -0.27838 -0.80814
-0.015646 -0.057265 0.424 0.52917 -0.2824 -0.80015
-0.015609 -0.056348 0.423 0.5126 -0.29015 -0.80812
-0.015609 -0.055565 0.423 0.49463 -0.29751 -0.8166
-0.015572 -0.054653 0.422 0.4761 -0.30166 -0.82603
-0.015572 -0.053872 0.422 0.45921 -0.30706 -0.83357
-0.015535 -0.052966 0.421 0.44164 -0.30525 -0.84367
-0.015535 -0.052187 0.421 0.42592 -0.31022 -0.84992
-0.015535 -0.051408 0.421 0.40849 -0.30893 -0.85889
-0.015498 -0.050509 0.42 0.39513 -0.3075 -0.86563
-0.015498 -0.049732 0.42 0.36617 -0.30149 -0.88035
-0.015498 -0.048955 0.42 0.33648 -0.29658 -0.89377
-0.015461 -0.048063 0.419 0.30063 -0.28525 -0.91008
-0.015461 -0.047288 0.419 0.27404 -0.27328 -0.92207
-0.015461 -0.046512 0.419 0.23619 -0.26048 -0.93614
-0.015461 -0.045737 0.419 0.19469 -0.24977 -0.94853
-0.015461 -0.044962 0.419 0.16476 -0.23778 -0.95724
-0.015461 -0.044187 0.419 0.12794 -0.22842 -0.96512
-0.015461 -0.043412 0.419 0.098668 -0.21543 -0.97152
-0.015461 -0.042636 0.419 0.075148 -0.20296 -0.9763
-0.015461 -0.041861 0.419 0.060709 -0.19415 -0.97909
-0.015424 -0.040988 0.418 0.034692 -0.1908 -0.98102
-0.015424 -0.040215 0.418 0.010525 -0.18787 -0.98214
-0.015424 -0.039441 0.418 -0.019978 -0.19189 -0.98121
-0.015424 -0.038668 0.418 -0.041935 -0.20282 -0.97832
-0.015424 -0.037895 0.418 -0.064793 -0.21156 -0.97522
-0.015424 -0.037121 0.418 -0.092466 -0.2269 -0.96952
-0.015461 -0.036435 0.419 -0.11644 -0.23943 -0.9639
-0.015461 -0.03566 0.419 -0.14524 -0.25194 -0.95678
-0.015461 -0.034884 0.419 -0.16578 -0.25965 -0.95137
-0.015461 -0.034109 0.419 -0.17704 -0.27038 -0.94633
-0.015461 -0.033334 0.419 -0.17352 -0.2817 -0.94368
-0.015461 -0.032559 0.419 -0.16142 -0.28874 -0.9437
-0.015498 -0.031859 0.42 -0.12615 -0.29789 -0.94623
-0.015498 -0.031082 0.42 -0.097931 -0.30707 -0.94663
-0.015498 -0.030305 0.42 -0.056594 -0.31444 -0.94759
-0.015498 -0.029528 0.42 -0.010083 -0.32578 -0.94539
-0.015498 -0.028751 0.42 0.023124 -0.33287 -0.94269
-0.015461 -0.027907 0.419 0.047153 -0.34217 -0.93846
-0.015461 -0.027132 0.419 0.049036 -0.34829 -0.9361
-0.015461 -0.026357 0.419 0.038881 -0.35891 -0.93256
-0.015461 -0.025582 0.419 0.016891 -0.3686 -0.92943
-0.015461 -0.024807 0.419 -0.020857 -0.36943 -0.92902
-0.015461 -0.024031 0.419 -0.061496 -0.36796 -0.92781
-0.015461 -0.023256 0.419 -0.09121 -0.36284 -0.92738
-0.015498 -0.022535 0.42 -0.11872 -0.35418 -0.92761
-0.015498 -0.021758 0.42 -0.1378 -0.34206 -0.92952
-0.015498 -0.020981 0.42 -0.15052 -0.32208 -0.93467
-0.015498 -0.020204 0.42 -0.1606 -0.2973 -0.94118
-0.015498 -0.019426 0.42 -0.15692 -0.27259 -0.94925
-0.015498 -0.018649 0.42 -0.15007 -0.24739 -0.95722
-0.015535 -0.017915 0.421 -0.14498 -0.21225 -0.9664
-0.015535 -0.017136 0.421 -0.13082 -0.17498 -0.97584
-0.015535 -0.016357 0.421 -0.12013 -0.14689 -0.98183
-0.015535 -0.015578 0.421 -0.11429 -0.12548 -0.98549
-0.015535 -0.014799 0.421 -0.13922 -0.11274 -0.98382
-0.015535 -0.01402 0.421 -0.16311 -0.087586 -0.98271
-0.015535 -0.013241 0.421 -0.17961 -0.066648 -0.98148
-0.015535 -0.012463 0.421 -0.19086 -0.052003 -0.98024
-0.015535 -0.011684 0.421 -0.21281 -0.052796 -0.97567
-0.015572 -0.010931 0.422 -0.23587 -0.052385 -0.97037
-0.015572 -0.01015 0.422 -0.25816 -0.042908 -0.96515
-0.015572 -0.0093691 0.422 -0.28725 -0.055671 -0.95624
-0.015572 -0.0085883 0.422 -0.32821 -0.059872 -0.94271
-0.015572 -0.0078076 0.422 -0.34219 -0.068446 -0.93714
-0.015609 -0.0070435 0.423 -0.36974 -0.074331 -0.92616
-0.015609 -0.0062609 0.423 -0.41325 -0.074754 -0.90755
-0.015609 -0.0054783 0.423 -0.44843 -0.086431 -0.88963
-0.015646 -0.0047068 0.424 -0.47369 -0.093185 -0.87575
-0.015646 -0.0039223 0.424 -0.48374 -0.10527 -0.86886
-0.015683 -0.0031452 0.425 -0.48493 -0.10584 -0.86812
-0.015683 -0.0023589 0.425 -0.48624 -0.10755 -0.86718
-0.01572 -0.0015763 0.426 -0.48074 -0.11575 -0.86919
-0.01572 -0.00078816 0.426 -0.47029 -0.11289 -0.87526
-0.015756 0 0.427 -0.47266 -0.11875 -0.87321
-0.015756 0.00079001 0.427 -0.45942 -0.11154 -0.88119
-0.015756 0.00158 0.427 -0.44571 -0.10601 -0.88888
-0.015793 0.0023756 0.428 -0.45657 -0.092353 -0.88488
-0.015793 0.0031674 0.428 -0.4587 -0.074853 -0.88543
-0.015793 0.0039593 0.428 -0.47414 -0.065975 -0.87798
-0.01583 0.0047623 0.429 -0.51008 -0.05185 -0.85856
-0.01583 0.005556 0.429 -0.54971 -0.040832 -0.83435
-0.015867 0.0063645 0.43 -0.58173 -0.028711 -0.81287
-0.015867 0.00716 0.43 -0.60335 -0.018613 -0.79726
-0.015904 0.0079741 0.431 -0.62761 -0.022583 -0.7782
-0.015941 0.0087919 0.432 -0.64067 -0.019842 -0.76756
-0.015978 0.0096133 0.433 -0.64013 -0.028513 -0.76773
-0.015978 0.010414 0.433 -0.62636 -0.032588 -0.77885
-0.016015 0.011241 0.434 -0.61431 -0.036717 -0.78821
-0.016052 0.012072 0.435 -0.58583 -0.042978 -0.80929
-0.016052 0.012877 0.435 -0.54665 -0.044004 -0.8362
-0.016052 0.013682 0.435 -0.50935 -0.060846 -0.85841
-0.016089 0.01452 0.436 -0.53395 -0.012053 -0.84543
-0.016089 0.015327 0.436 -0.50356 -0.01809 -0.86377
-0.016089 0.016133 0.436 -0.41497 -0.012214 -0.90975
-0.016089 0.01694 0.436 -0.24931 -0.0085122 -0.96839
-0.016162 0.017828 0.438 -0.53655 0.0037086 -0.84386
-0.014969 -0.061621 0.427 0.56197 -0.25652 -0.78638
-0.014969 -0.060831 0.427 0.63928 -0.24015 -0.73051
-0.014934 -0.0599 0.426 0.56875 -0.26475 -0.77874
-0.014899 -0.058973 0.425 0.5154 -0.28124 -0.80949
-0.014899 -0.058187 0.425 0.54147 -0.28016 -0.79266
-0.014863 -0.057265 0.424 0.51968 -0.28961 -0.80378
-0.014863 -0.056481 0.424 0.50111 -0.3024 -0.81083
-0.014828 -0.055565 0.423 0.48719 -0.31558 -0.81428
-0.014828 -0.054783 0.423 0.46494 -0.32447 -0.82374
-0.014793 -0.053872 0.422 0.45074 -0.3301 -0.82938
-0.014793 -0.053092 0.422 0.43379 -0.33242 -0.83745
-0.014758 -0.052187 0.421 0.42188 -0.33209 -0.84364
-0.014758 -0.051408 0.421 0.40657 -0.3323 -0.85105
-0.014758 -0.050629 0.421 0.39508 -0.32938 -0.85756
-0.014723 -0.049732 0.42 0.37352 -0.32442 -0.86904
-0.014723 -0.048955 0.42 0.35049 -0.31766 -0.88105
-0.014723 -0.048178 0.42 0.31505 -0.30749 -0.89788
-0.014688 -0.047288 0.419 0.28833 -0.29433 -0.91117
-0.014688 -0.046512 0.419 0.25332 -0.28123 -0.9256
-0.014688 -0.045737 0.419 0.21298 -0.26749 -0.93973
-0.014688 -0.044962 0.419 0.18159 -0.25797 -0.94893
-0.014688 -0.044187 0.419 0.14754 -0.24421 -0.95843
-0.014688 -0.043412 0.419 0.11865 -0.23355 -0.96508
-0.014688 -0.042636 0.419 0.088166 -0.22549 -0.97025
-0.014688 -0.041861 0.419 0.065582 -0.218 -0.97374
-0.014688 -0.041086 0.419 0.03648 -0.21932 -0.97497
-0.014688 -0.040311 0.419 0.0093887 -0.21846 -0.9758
-0.014688 -0.039536 0.419 -0.023971 -0.22138 -0.97489
-0.014688 -0.03876 0.419 -0.04886 -0.22807 -0.97242
-0.014688 -0.037985 0.419 -0.079714 -0.23642 -0.96838
-0.014688 -0.03721 0.419 -0.10789 -0.25412 -0.96114
-0.014688 -0.036435 0.419 -0.13686 -0.26176 -0.95538
-0.014688 -0.03566 0.419 -0.16327 -0.27103 -0.94862
-0.014688 -0.034884 0.419 -0.17455 -0.28072 -0.94378
-0.014688 -0.034109 0.419 -0.18653 -0.29201 -0.93805
-0.014688 -0.033334 0.419 -0.18291 -0.30401 -0.93495
-0.014723 -0.032636 0.42 -0.16948 -0.31218 -0.93478
-0.014723 -0.031859 0.42 -0.13786 -0.32179 -0.93672
-0.014723 -0.031082 0.42 -0.1109 -0.33179 -0.93681
-0.014723 -0.030305 0.42 -0.068945 -0.34277 -0.93689
-0.014723 -0.029528 0.42 -0.025915 -0.35485 -0.93457
-0.014723 -0.028751 0.42 0.0049675 -0.3636 -0.93154
-0.014723 -0.027974 0.42 0.027666 -0.37541 -0.92645
-0.014723 -0.027197 0.42 0.029496 -0.38631 -0.9219
-0.014723 -0.02642 0.42 0.026427 -0.39629 -0.91775
-0.014723 -0.025643 0.42 0.0078145 -0.40133 -0.9159
-0.014723 -0.024866 0.42 -0.015664 -0.39638 -0.91795
-0.014723 -0.024089 0.42 -0.04319 -0.38862 -0.92039
-0.014723 -0.023312 0.42 -0.066964 -0.37808 -0.92335
-0.014723 -0.022535 0.42 -0.090893 -0.36552 -0.92635
-0.014723 -0.021758 0.42 -0.10838 -0.34506 -0.9323
-0.014723 -0.020981 0.42 -0.11636 -0.3191 -0.94055
-0.014723 -0.020204 0.42 -0.12456 -0.28782 -0.94955
-0.014758 -0.019473 0.421 -0.12144 -0.25544 -0.95917
-0.014758 -0.018694 0.421 -0.1184 -0.2228 -0.96765
-0.014758 -0.017915 0.421 -0.11525 -0.18535 -0.97589
-0.014758 -0.017136 0.421 -0.10673 -0.14609 -0.9835
-0.014758 -0.016357 0.421 -0.093608 -0.11852 -0.98853
-0.014758 -0.015578 0.421 -0.087555 -0.09678 -0.99145
-0.014758 -0.014799 0.421 -0.11997 -0.085009 -0.98913
-0.014758 -0.01402 0.421 -0.14703 -0.063886 -0.98707
-0.014758 -0.013241 0.421 -0.16864 -0.049093 -0.98445
-0.014758 -0.012463 0.421 -0.18592 -0.041664 -0.98168
-0.014758 -0.011684 0.421 -0.21386 -0.046589 -0.97575
-0.014793 -0.010931 0.422 -0.24274 -0.046156 -0.96899
-0.014793 -0.01015 0.422 -0.27049 -0.045806 -0.96163
-0.014793 -0.0093691 0.422 -0.29921 -0.059475 -0.95233
-0.014793 -0.0085883 0.422 -0.33869 -0.06755 -0.93847
-0.014828 -0.0078261 0.423 -0.34992 -0.078859 -0.93345
-0.014828 -0.0070435 0.423 -0.37507 -0.092533 -0.92237
-0.014828 -0.0062609 0.423 -0.41959 -0.096268 -0.90259
-0.014863 -0.0054912 0.424 -0.45049 -0.10554 -0.88652
-0.014863 -0.0047068 0.424 -0.4726 -0.11506 -0.87373
-0.014863 -0.0039223 0.424 -0.48289 -0.12062 -0.86734
-0.014899 -0.0031452 0.425 -0.48762 -0.11998 -0.86477
-0.014899 -0.0023589 0.425 -0.48799 -0.12529 -0.86381
-0.014934 -0.0015763 0.426 -0.48226 -0.12546 -0.867
-0.014934 -0.00078816 0.426 -0.47105 -0.12453 -0.87327
-0.014969 0 0.427 -0.47301 -0.125 -0.87215
-0.014969 0.00079001 0.427 -0.45898 -0.11972 -0.88034
-0.014969 0.00158 0.427 -0.44465 -0.11248 -0.88861
-0.015004 0.0023756 0.428 -0.45117 -0.098131 -0.88703
-0.015004 0.0031674 0.428 -0.44934 -0.089063 -0.88891
-0.015039 0.0039685 0.429 -0.46141 -0.077302 -0.88381
-0.015039 0.0047623 0.429 -0.49695 -0.064875 -0.86535
-0.015039 0.005556 0.429 -0.54016 -0.054216 -0.83982
-0.015074 0.0063645 0.43 -0.57287 -0.045907 -0.81836
-0.015074 0.00716 0.43 -0.59309 -0.036605 -0.8043
-0.015109 0.0079741 0.431 -0.62314 -0.04693 -0.7807
-0.015144 0.0087919 0.432 -0.6396 -0.0476 -0.76723
-0.015179 0.0096133 0.433 -0.64235 -0.051277 -0.7647
-0.015179 0.010414 0.433 -0.63216 -0.054479 -0.77292
-0.015214 0.011241 0.434 -0.61774 -0.062458 -0.7839
-0.015214 0.012044 0.434 -0.58346 -0.075547 -0.80862
-0.015249 0.012877 0.435 -0.54367 -0.084122 -0.83507
-0.015284 0.013713 0.436 -0.53052 -0.072987 -0.84452
-0.015284 0.01452 0.436 -0.51098 -0.068597 -0.85685
-0.015284 0.015327 0.436 -0.47648 -0.077295 -0.87578
-0.015284 0.016133 0.436 -0.38934 -0.075176 -0.91802
-0.015284 0.01694 0.436 -0.21795 -0.079898 -0.97268
-0.015389 0.018681 0.439 -0.6044 -0.037423 -0.7958
-0.015424 0.019537 0.44 -0.69042 -0.035792 -0.72252
-0.015635 0.021454 0.446 -0.62123 0.05932 -0.78138
-0.014181 -0.061621 0.427 0.51231 -0.25945 -0.81868
-0.014181 -0.060831 0.427 0.60347 -0.24225 -0.7597
-0.014148 -0.0599 0.426 0.53218 -0.26562 -0.80388
-0.014148 -0.059112 0.426 0.56727 -0.26378 -0.78014
-0.014114 -0.058187 0.425 0.52151 -0.28288 -0.80499
-0.014081 -0.057265 0.424 0.51004 -0.29308 -0.80868
-0.014081 -0.056481 0.424 0.49114 -0.30965 -0.81418
-0.014081 -0.055697 0.424 0.47328 -0.32814 -0.81751
-0.014048 -0.054783 0.423 0.45692 -0.34022 -0.82187
-0.014048 -0.054 0.423 0.44469 -0.34482 -0.82665
-0.014015 -0.053092 0.422 0.43053 -0.35191 -0.83115
-0.014015 -0.052311 0.422 0.42038 -0.35377 -0.83554
-0.013982 -0.051408 0.421 0.40867 -0.35581 -0.84047
-0.013982 -0.050629 0.421 0.40056 -0.35188 -0.84601
-0.013948 -0.049732 0.42 0.37173 -0.34318 -0.86258
-0.013948 -0.048955 0.42 0.35748 -0.33797 -0.87062
-0.013948 -0.048178 0.42 0.32819 -0.32539 -0.8868
-0.013948 -0.047401 0.42 0.30088 -0.31155 -0.90134
-0.013915 -0.046512 0.419 0.26494 -0.29552 -0.91787
-0.013915 -0.045737 0.419 0.22637 -0.28044 -0.9328
-0.013915 -0.044962 0.419 0.1953 -0.27407 -0.94167
-0.013915 -0.044187 0.419 0.1607 -0.2627 -0.9514
-0.013915 -0.043412 0.419 0.13024 -0.25056 -0.9593
-0.013915 -0.042636 0.419 0.096872 -0.24768 -0.96399
-0.013915 -0.041861 0.419 0.070342 -0.24242 -0.96762
-0.013915 -0.041086 0.419 0.036262 -0.24383 -0.96914
-0.013915 -0.040311 0.419 0.0093279 -0.24496 -0.96949
-0.013915 -0.039536 0.419 -0.028957 -0.25164 -0.96739
-0.013915 -0.03876 0.419 -0.057721 -0.25902 -0.96414
-0.013915 -0.037985 0.419 -0.091306 -0.266 -0.95964
-0.013915 -0.03721 0.419 -0.12118 -0.27926 -0.95254
-0.013915 -0.036435 0.419 -0.15097 -0.2809 -0.94779
-0.013915 -0.03566 0.419 -0.1723 -0.28637 -0.9425
-0.013915 -0.034884 0.419 -0.18335 -0.29674 -0.93719
-0.013915 -0.034109 0.419 -0.19417 -0.30782 -0.93142
-0.013948 -0.033414 0.42 -0.18822 -0.31909 -0.92885
-0.013948 -0.032636 0.42 -0.17231 -0.32885 -0.92853
-0.013948 -0.031859 0.42 -0.13682 -0.3421 -0.92965
-0.013948 -0.031082 0.42 -0.11102 -0.35191 -0.92943
-0.013948 -0.030305 0.42 -0.075373 -0.36 -0.9299
-0.013948 -0.029528 0.42 -0.03759 -0.3719 -0.92751
-0.013948 -0.028751 0.42 -0.010844 -0.38144 -0.92433
-0.013948 -0.027974 0.42 0.0088152 -0.39559 -0.91839
-0.013948 -0.027197 0.42 0.014622 -0.40538 -0.91403
-0.013948 -0.02642 0.42 0.011675 -0.40944 -0.91226
-0.013948 -0.025643 0.42 -0.0058379 -0.40946 -0.91231
-0.013948 -0.024866 0.42 -0.022435 -0.40369 -0.91462
-0.013948 -0.024089 0.42 -0.038261 -0.39036 -0.91987
-0.013948 -0.023312 0.42 -0.051426 -0.37082 -0.92728
-0.013948 -0.022535 0.42 -0.065779 -0.34985 -0.93449
-0.013982 -0.021809 0.421 -0.075176 -0.32686 -0.94208
-0.013982 -0.021031 0.421 -0.077971 -0.29688 -0.95172
-0.013982 -0.020252 0.421 -0.083899 -0.2612 -0.96163
-0.013982 -0.019473 0.421 -0.081619 -0.2246 -0.97103
-0.013982 -0.018694 0.421 -0.082282 -0.18696 -0.97892
-0.013982 -0.017915 0.421 -0.080722 -0.15054 -0.9853
-0.013982 -0.017136 0.421 -0.077984 -0.1135 -0.99047
-0.013982 -0.016357 0.421 -0.068754 -0.083331 -0.99415
-0.013982 -0.015578 0.421 -0.063581 -0.063405 -0.99596
-0.013982 -0.014799 0.421 -0.1046 -0.053737 -0.99306
-0.013982 -0.01402 0.421 -0.13588 -0.038864 -0.98996
-0.013982 -0.013241 0.421 -0.15755 -0.026185 -0.98716
-0.013982 -0.012463 0.421 -0.18097 -0.026079 -0.98314
-0.014015 -0.011711 0.422 -0.21447 -0.035129 -0.9761
-0.014015 -0.010931 0.422 -0.24961 -0.034828 -0.96772
-0.014015 -0.01015 0.422 -0.28275 -0.043614 -0.9582
-0.014015 -0.0093691 0.422 -0.31114 -0.057237 -0.94864
-0.014015 -0.0085883 0.422 -0.34918 -0.068258 -0.93456
-0.014015 -0.0078076 0.422 -0.3592 -0.081679 -0.92968
-0.014048 -0.0070435 0.423 -0.38493 -0.095967 -0.91794
-0.014048 -0.0062609 0.423 -0.42943 -0.10327 -0.89718
-0.014048 -0.0054783 0.423 -0.46049 -0.11434 -0.88027
-0.014081 -0.0047068 0.424 -0.47626 -0.12561 -0.87029
-0.014081 -0.0039223 0.424 -0.48542 -0.12489 -0.86531
-0.014114 -0.0031452 0.425 -0.4923 -0.12228 -0.86179
-0.014148 -0.0023645 0.426 -0.4895 -0.13108 -0.8621
-0.014148 -0.0015763 0.426 -0.48307 -0.12361 -0.86681
-0.014148 -0.00078816 0.426 -0.46962 -0.12464 -0.87402
-0.014181 0 0.427 -0.46976 -0.11986 -0.87462
-0.014181 0.00079001 0.427 -0.45332 -0.11648 -0.88371
-0.014214 0.0015837 0.428 -0.44008 -0.11251 -0.89088
-0.014214 0.0023756 0.428 -0.44223 -0.098622 -0.89146
-0.014214 0.0031674 0.428 -0.44017 -0.094129 -0.89296
-0.014247 0.0039685 0.429 -0.45309 -0.085008 -0.8874
-0.014247 0.0047623 0.429 -0.4863 -0.075236 -0.87055
-0.014247 0.005556 0.429 -0.53224 -0.066786 -0.84395
-0.01428 0.0063645 0.43 -0.56483 -0.06325 -0.82278
-0.01428 0.00716 0.43 -0.58277 -0.056413 -0.81067
-0.014314 0.0079741 0.431 -0.61821 -0.072196 -0.78269
-0.014347 0.0087919 0.432 -0.63753 -0.076102 -0.76665
-0.01438 0.0096133 0.433 -0.64069 -0.079569 -0.76366
-0.014413 0.010438 0.434 -0.63532 -0.081412 -0.76795
-0.014413 0.011241 0.434 -0.61759 -0.092447 -0.78104
-0.014446 0.012072 0.435 -0.5893 -0.097761 -0.80197
-0.014446 0.012877 0.435 -0.54455 -0.11596 -0.83067
-0.01448 0.013713 0.436 -0.52219 -0.12239 -0.844
-0.014513 0.015362 0.437 -0.52935 -0.11555 -0.8405
-0.014513 0.01617 0.437 -0.50363 -0.12331 -0.85507
-0.014513 0.016979 0.437 -0.41655 -0.14287 -0.89782
-0.014546 0.017828 0.438 -0.50523 -0.11949 -0.85467
-0.014812 0.021454 0.446 -0.65156 0.11332 -0.75008
-0.013424 -0.061765 0.428 0.64208 -0.22613 -0.73252
-0.013393 -0.060831 0.427 0.56425 -0.24983 -0.7869
-0.013362 -0.0599 0.426 0.49621 -0.26886 -0.82553
-0.013362 -0.059112 0.426 0.54642 -0.26838 -0.79335
-0.01333 -0.058187 0.425 0.50828 -0.28528 -0.81257
-0.01333 -0.057401 0.425 0.502 -0.29934 -0.81141
-0.013299 -0.056481 0.424 0.48127 -0.31536 -0.81788
-0.013299 -0.055697 0.424 0.4603 -0.33887 -0.82054
-0.013299 -0.054912 0.424 0.44096 -0.3537 -0.82489
-0.013268 -0.054 0.423 0.42781 -0.36281 -0.82786
-0.013268 -0.053217 0.423 0.41635 -0.37228 -0.82949
-0.013236 -0.052311 0.422 0.41138 -0.37686 -0.8299
-0.013236 -0.05153 0.422 0.40389 -0.37898 -0.83262
-0.013205 -0.050629 0.421 0.40192 -0.3742 -0.83573
-0.013205 -0.04985 0.421 0.38457 -0.36823 -0.84647
-0.013205 -0.049071 0.421 0.36561 -0.35822 -0.85907
-0.013173 -0.048178 0.42 0.33799 -0.34544 -0.87546
-0.013173 -0.047401 0.42 0.31475 -0.33279 -0.88892
-0.013173 -0.046623 0.42 0.28138 -0.31435 -0.90665
-0.013173 -0.045846 0.42 0.24434 -0.29476 -0.92381
-0.013142 -0.044962 0.419 0.21258 -0.28862 -0.93355
-0.013142 -0.044187 0.419 0.17479 -0.27608 -0.94511
-0.013142 -0.043412 0.419 0.14479 -0.26335 -0.95377
-0.013142 -0.042636 0.419 0.11088 -0.25595 -0.96031
-0.013142 -0.041861 0.419 0.082424 -0.25378 -0.96374
-0.013142 -0.041086 0.419 0.040211 -0.26116 -0.96446
-0.013142 -0.040311 0.419 0.0051552 -0.26424 -0.96444
-0.013142 -0.039536 0.419 -0.041151 -0.26879 -0.96232
-0.013142 -0.03876 0.419 -0.071729 -0.2759 -0.95851
-0.013142 -0.037985 0.419 -0.11094 -0.2852 -0.95203
-0.013142 -0.03721 0.419 -0.14426 -0.29779 -0.94367
-0.013142 -0.036435 0.419 -0.17041 -0.30289 -0.93767
-0.013142 -0.03566 0.419 -0.18739 -0.30913 -0.93237
-0.013173 -0.034968 0.42 -0.19299 -0.31879 -0.92797
-0.013173 -0.034191 0.42 -0.19794 -0.32898 -0.92336
-0.013173 -0.033414 0.42 -0.19023 -0.34421 -0.91942
-0.013173 -0.032636 0.42 -0.17634 -0.35367 -0.9186
-0.013173 -0.031859 0.42 -0.14203 -0.36923 -0.91842
-0.013173 -0.031082 0.42 -0.1163 -0.38303 -0.91639
-0.013205 -0.030377 0.421 -0.07981 -0.39601 -0.91477
-0.013205 -0.029599 0.421 -0.05144 -0.40651 -0.9122
-0.013205 -0.02882 0.421 -0.028105 -0.41172 -0.91088
