-0.026253 0.016135 0.459 -0.00169 0.30833 -0.95128
-0.026253 0.017833 0.459 -0.11559 0.28582 -0.95128
-0.026253 0.018683 0.459 -0.15118 0.28217 -0.94738
-0.026253 0.019532 0.459 -0.18432 0.27117 -0.94472
-0.026253 0.020381 0.459 -0.22165 0.25024 -0.94247
-0.026253 0.02123 0.459 -0.27548 0.23548 -0.93202
-0.026253 0.02208 0.459 -0.274 0.21122 -0.93825
-0.02631 0.022979 0.46 -0.34132 0.20727 -0.91681
-0.02631 0.02383 0.46 -0.33298 0.20242 -0.92095
-0.026367 0.024735 0.461 -0.47913 0.20084 -0.85446
-0.026367 0.025587 0.461 -0.42374 0.20185 -0.88301
-0.026458 -0.15565 0.478 0.22372 -0.12986 -0.96596
-0.026458 -0.15476 0.478 0.21173 -0.15171 -0.96548
-0.026458 -0.15388 0.478 0.19452 -0.17323 -0.96548
-0.026458 -0.153 0.478 0.18208 -0.20405 -0.96188
-0.026402 -0.15179 0.477 0.18464 -0.23419 -0.9545
-0.026402 -0.15091 0.477 0.18878 -0.27134 -0.94379
-0.026402 -0.15003 0.477 0.18822 -0.30904 -0.93224
-0.026402 -0.14915 0.477 0.19234 -0.33436 -0.92261
-0.026347 -0.14795 0.476 0.20411 -0.36706 -0.90753
-0.026347 -0.14707 0.476 0.20873 -0.3915 -0.89619
-0.026347 -0.14619 0.476 0.23297 -0.40947 -0.88208
-0.026347 -0.14531 0.476 0.2459 -0.43368 -0.86686
-0.026347 -0.14443 0.476 0.21369 -0.46338 -0.86001
-0.026292 -0.14325 0.475 0.32609 -0.42818 -0.84281
-0.026292 -0.14237 0.475 0.30179 -0.45839 -0.83594
-0.024022 -0.12125 0.434 0.44226 0.38718 -0.80901
-0.023801 -0.11854 0.43 -0.5554 -0.13161 -0.8211
-0.023801 -0.11774 0.43 -0.57663 -0.18168 -0.79655
-0.023911 -0.11749 0.432 -0.24705 0.032792 -0.96845
-0.023967 -0.11696 0.433 -0.20204 -0.0043874 -0.97937
-0.023967 -0.11536 0.433 -0.38633 -0.10695 -0.91614
-0.023967 -0.11456 0.433 -0.47075 -0.17217 -0.86531
-0.023967 -0.11376 0.433 -0.51206 -0.21442 -0.83176
-0.024022 -0.11322 0.434 -0.53811 -0.24107 -0.80766
-0.024077 -0.11267 0.435 -0.54762 -0.25678 -0.79636
-0.024077 -0.11187 0.435 -0.53787 -0.26243 -0.80114
-0.024133 -0.11132 0.436 -0.50246 -0.24976 -0.82774
-0.024188 -0.11077 0.437 -0.43871 -0.20501 -0.87493
-0.024188 -0.10996 0.437 -0.3762 -0.19039 -0.90677
-0.024244 -0.1094 0.438 -0.31214 -0.16726 -0.9352
-0.024244 -0.10859 0.438 -0.29999 -0.1607 -0.94031
-0.024244 -0.10778 0.438 -0.25534 -0.14202 -0.95636
-0.024244 -0.10697 0.438 -0.2132 -0.11264 -0.97049
-0.024188 -0.10591 0.437 0.0014259 0.029831 -0.99955
-0.024188 -0.10511 0.437 0.085767 0.093444 -0.99192
-0.024354 -0.064311 0.44 0.57914 0.33739 -0.74213
-0.024354 -0.063497 0.44 0.63356 0.21172 -0.74416
-0.024299 -0.06254 0.439 0.62877 0.30404 -0.71569
-0.024244 -0.061587 0.438 0.64402 0.39327 -0.65618
-0.024188 -0.060638 0.437 0.65046 0.46971 -0.59689
-0.024077 -0.059556 0.435 0.59121 0.56713 -0.57344
-0.024022 -0.058616 0.434 0.56849 0.57689 -0.58654
-0.024022 -0.057813 0.434 0.56852 0.5813 -0.58212
-0.023967 -0.056879 0.433 0.5485 0.60352 -0.57871
-0.023911 -0.055948 0.432 0.50685 0.62733 -0.59123
-0.023856 -0.055021 0.431 0.47768 0.63834 -0.60361
-0.023856 -0.054224 0.431 0.45647 0.65531 -0.60183
-0.023801 -0.053302 0.43 0.41882 0.66859 -0.61448
-0.023745 -0.052385 0.429 0.3519 0.65921 -0.66454
-0.023745 -0.051591 0.429 0.33724 0.68223 -0.64872
-0.023745 -0.050797 0.429 0.30322 0.69894 -0.64771
-0.02369 -0.049887 0.428 0.2267 0.68704 -0.69035
-0.02369 -0.049095 0.428 0.20999 0.69524 -0.68742
-0.02369 -0.048303 0.428 0.18822 0.69736 -0.69156
-0.02369 -0.047512 0.428 0.17089 0.69875 -0.69466
-0.023635 -0.046611 0.427 0.13612 0.68423 -0.71645
-0.023635 -0.045821 0.427 0.11515 0.6885 -0.71604
-0.023635 -0.045031 0.427 0.10405 0.68927 -0.71699
-0.023635 -0.044241 0.427 0.090111 0.68513 -0.72283
-0.023635 -0.043451 0.427 0.070628 0.67981 -0.72998
-0.023635 -0.04266 0.427 0.068721 0.67185 -0.73749
-0.023635 -0.04187 0.427 0.060097 0.66546 -0.74401
-0.023635 -0.04108 0.427 0.04568 0.65896 -0.75079
-0.023635 -0.04029 0.427 0.031701 0.6544 -0.75549
-0.023635 -0.0395 0.427 -0.00079333 0.65427 -0.75626
-0.023635 -0.03871 0.427 -0.039779 0.65057 -0.7584
-0.023635 -0.03792 0.427 -0.073093 0.64889 -0.75736
-0.023635 -0.03713 0.427 -0.11103 0.64277 -0.75797
-0.023635 -0.03634 0.427 -0.15373 0.63566 -0.7565
-0.023635 -0.03555 0.427 -0.19567 0.63063 -0.75101
-0.02369 -0.034842 0.428 -0.25594 0.6312 -0.73218
-0.02369 -0.03405 0.428 -0.28172 0.62992 -0.72377
-0.02369 -0.033258 0.428 -0.28826 0.63032 -0.72084
-0.02369 -0.032466 0.428 -0.2691 0.63244 -0.72636
-0.023745 -0.031748 0.429 -0.21405 0.63668 -0.74083
-0.023745 -0.030955 0.429 -0.14442 0.64192 -0.75305
-0.023801 -0.030231 0.43 0.013577 0.60227 -0.79818
-0.023801 -0.029436 0.43 0.10655 0.58732 -0.80231
-0.023745 -0.028574 0.429 0.2159 0.60784 -0.76414
-0.023745 -0.02778 0.429 0.31808 0.57367 -0.7548
-0.02369 -0.026923 0.428 0.41102 0.54477 -0.73095
-0.023635 -0.02607 0.427 0.44092 0.49871 -0.74624
-0.023635 -0.02528 0.427 0.47158 0.49922 -0.7269
-0.023579 -0.024433 0.426 0.44625 0.47245 -0.76004
-0.023579 -0.023645 0.426 0.44286 0.48606 -0.7534
-0.023524 -0.022803 0.425 0.38808 0.47202 -0.79157
-0.023524 -0.022017 0.425 0.36103 0.48945 -0.79379
-0.023524 -0.02123 0.425 0.32157 0.4974 -0.80572
-0.023469 -0.020396 0.424 0.26659 0.49516 -0.82689
-0.023469 -0.019611 0.424 0.23188 0.50093 -0.83385
-0.023469 -0.018827 0.424 0.18582 0.50715 -0.84159
-0.023469 -0.018043 0.424 0.13334 0.50493 -0.8528
-0.023469 -0.017258 0.424 0.070729 0.5082 -0.85833
-0.023469 -0.016474 0.424 0.015424 0.51209 -0.85879
-0.023469 -0.015689 0.424 -0.050701 0.51283 -0.85699
-0.023469 -0.014905 0.424 -0.10646 0.50924 -0.85401
-0.023469 -0.01412 0.424 -0.15574 0.50788 -0.84723
-0.023469 -0.013336 0.424 -0.20066 0.50664 -0.83848
-0.023469 -0.012551 0.424 -0.24661 0.50428 -0.82758
-0.023524 -0.011795 0.425 -0.29048 0.51006 -0.8096
-0.023524 -0.011008 0.425 -0.32249 0.50956 -0.79771
-0.023524 -0.010222 0.425 -0.34708 0.50423 -0.79075
-0.023524 -0.0094357 0.425 -0.35475 0.49636 -0.79233
-0.023579 -0.0086698 0.426 -0.40103 0.51626 -0.75674
-0.023579 -0.0078816 0.426 -0.39939 0.50473 -0.76533
-0.023635 -0.0071101 0.427 -0.43843 0.52532 -0.72926
-0.02369 -0.0063349 0.428 -0.459 0.53903 -0.70623
-0.02369 -0.005543 0.428 -0.45554 0.53968 -0.70798
-0.023745 -0.0047623 0.429 -0.46437 0.55164 -0.69286
-0.023745 -0.0039685 0.429 -0.44661 0.55329 -0.70314
-0.023801 -0.0031822 0.43 -0.44216 0.57082 -0.69185
-0.023801 -0.0023867 0.43 -0.42335 0.57261 -0.70207
-0.023856 -0.0015948 0.431 -0.42419 0.59216 -0.68513
-0.023856 -0.00079741 0.431 -0.3957 0.59305 -0.70122
-0.023856 0 0.431 -0.36806 0.57182 -0.73318
-0.023911 0.00079926 0.432 -0.4321 0.58354 -0.68758
-0.023911 0.0015985 0.432 -0.41469 0.53593 -0.7354
-0.023967 0.0024033 0.433 -0.49363 0.54598 -0.67693
-0.024077 0.0040241 0.435 -0.61234 0.5558 -0.56225
-0.024244 0.0048622 0.438 -0.63782 0.6354 -0.43525
-0.024354 0.0056984 0.44 -0.51287 0.65938 -0.54971
-0.02441 0.0065273 0.441 -0.44507 0.68938 -0.57155
-0.02441 0.0073432 0.441 -0.46757 0.70484 -0.53346
-0.024465 0.0081776 0.442 -0.44316 0.71485 -0.54092
-0.024465 0.0089954 0.442 -0.38643 0.70868 -0.59029
-0.02452 0.0098353 0.443 -0.42152 0.71688 -0.55534
-0.024576 0.010679 0.444 -0.4623 0.73055 -0.50257
-0.024742 0.011578 0.447 -0.65974 0.69852 -0.27713
-0.024908 0.012488 0.45 -0.70304 0.6736 -0.22803
-0.025129 0.013439 0.454 -0.69182 0.57095 -0.44205
-0.02524 0.014342 0.456 -0.45247 0.51295 -0.72949
-0.025295 0.015219 0.457 -0.25454 0.51188 -0.82048
-0.025351 0.0161 0.458 -0.14946 0.39272 -0.90743
-0.025351 0.016947 0.458 -0.20394 0.36897 -0.90679
-0.025351 0.017795 0.458 -0.23544 0.34749 -0.90764
-0.025406 0.018683 0.459 -0.16226 0.29124 -0.94279
-0.025406 0.019532 0.459 -0.20594 0.28684 -0.93558
-0.025406 0.020381 0.459 -0.24334 0.27167 -0.93112
-0.025406 0.02123 0.459 -0.29189 0.24802 -0.92373
-0.025406 0.02208 0.459 -0.29865 0.21999 -0.92866
-0.025406 0.022929 0.459 -0.26199 0.20531 -0.94298
-0.025461 0.02383 0.46 -0.37109 0.20649 -0.90535
-0.025461 0.024681 0.46 -0.31082 0.20586 -0.92791
-0.025517 0.025587 0.461 -0.46762 0.20792 -0.85913
-0.025576 -0.15565 0.478 0.18682 -0.146 -0.97149
-0.025576 -0.15476 0.478 0.17822 -0.17548 -0.96822
-0.025576 -0.15388 0.478 0.16037 -0.19877 -0.96684
-0.025576 -0.153 0.478 0.14959 -0.23005 -0.96161
-0.025576 -0.15211 0.478 0.15194 -0.25936 -0.95375
-0.025522 -0.15091 0.477 0.15503 -0.2933 -0.94337
-0.025522 -0.15003 0.477 0.15651 -0.32958 -0.93106
-0.025522 -0.14915 0.477 0.16559 -0.35312 -0.92081
-0.025522 -0.14826 0.477 0.17829 -0.38197 -0.90681
-0.025522 -0.14738 0.477 0.17718 -0.41347 -0.89311
-0.025469 -0.14619 0.476 0.22371 -0.41454 -0.88211
-0.025469 -0.14531 0.476 0.25076 -0.43117 -0.86672
-0.025469 -0.14443 0.476 0.24924 -0.45372 -0.85558
-0.025469 -0.14355 0.476 0.20975 -0.48175 -0.85083
-0.025469 -0.14267 0.476 0.17058 -0.51264 -0.84149
-0.023275 -0.12153 0.435 0.60722 0.252 -0.75351
-0.023061 -0.11961 0.431 -0.34552 0.064954 -0.93616
-0.023114 -0.11669 0.432 -0.38135 -0.15502 -0.91134
-0.023114 -0.11589 0.432 -0.45055 -0.17532 -0.87537
-0.023114 -0.11509 0.432 -0.43449 -0.16636 -0.88518
-0.023168 -0.11456 0.433 -0.51335 -0.24842 -0.82144
-0.023168 -0.11376 0.433 -0.53494 -0.26623 -0.80185
-0.023221 -0.11322 0.434 -0.55003 -0.26529 -0.79189
-0.023275 -0.11267 0.435 -0.55014 -0.26733 -0.79113
-0.023328 -0.11213 0.436 -0.52043 -0.24393 -0.81832
-0.023382 -0.11157 0.437 -0.45964 -0.18972 -0.86761
-0.023382 -0.11077 0.437 -0.41715 -0.17128 -0.89255
-0.023435 -0.11021 0.438 -0.30692 -0.11929 -0.94423
-0.023435 -0.1094 0.438 -0.27909 -0.13023 -0.95139
-0.023435 -0.10859 0.438 -0.26373 -0.1132 -0.95793
-0.023435 -0.10778 0.438 -0.21553 -0.086752 -0.97264
-0.023435 -0.10697 0.438 -0.17554 -0.057663 -0.98278
-0.023382 -0.10591 0.437 0.072417 0.087852 -0.9935
-0.023382 -0.10511 0.437 0.12565 0.13666 -0.98262
-0.023542 -0.064311 0.44 0.63519 0.26747 -0.72456
-0.023489 -0.063352 0.439 0.64672 0.3496 -0.67789
-0.023435 -0.062398 0.438 0.65329 0.41519 -0.63311
-0.023382 -0.061447 0.437 0.67156 0.48783 -0.5577
-0.023275 -0.060361 0.435 0.58927 0.57473 -0.56784
-0.023221 -0.059419 0.434 0.57117 0.58054 -0.58029
-0.023221 -0.058616 0.434 0.59704 0.57143 -0.56304
-0.023168 -0.05768 0.433 0.5689 0.5948 -0.56795
-0.023114 -0.056747 0.432 0.54647 0.60645 -0.57757
-0.023061 -0.055819 0.431 0.51541 0.62458 -0.58674
-0.023061 -0.055021 0.431 0.48642 0.63173 -0.60358
-0.023007 -0.054098 0.43 0.46283 0.65379 -0.59862
-0.022954 -0.053179 0.429 0.40807 0.65649 -0.63443
-0.0229 -0.052263 0.428 0.32528 0.63581 -0.69995
-0.0229 -0.051471 0.428 0.3184 0.66377 -0.67678
-0.0229 -0.050679 0.428 0.2899 0.68295 -0.67048
-0.022847 -0.049771 0.427 0.22066 0.6712 -0.70767
-0.022847 -0.048981 0.427 0.19669 0.68111 -0.70526
-0.022847 -0.048191 0.427 0.17792 0.6847 -0.70678
-0.022847 -0.047401 0.427 0.16024 0.68799 -0.70781
-0.022847 -0.046611 0.427 0.14788 0.68638 -0.71205
-0.022793 -0.045713 0.426 0.097856 0.66208 -0.74302
-0.022793 -0.044925 0.426 0.086785 0.66509 -0.7417
-0.022793 -0.044137 0.426 0.071505 0.66572 -0.74277
-0.022793 -0.043349 0.426 0.053295 0.66538 -0.7446
-0.022793 -0.042561 0.426 0.051563 0.65784 -0.75139
-0.022793 -0.041772 0.426 0.044664 0.65276 -0.75625
-0.022793 -0.040984 0.426 0.03437 0.64883 -0.76016
-0.022793 -0.040196 0.426 0.020073 0.64537 -0.76361
-0.022793 -0.039408 0.426 -0.0080306 0.64548 -0.76374
-0.022793 -0.03862 0.426 -0.046697 0.64151 -0.76569
-0.022793 -0.037832 0.426 -0.073543 0.63873 -0.76591
-0.022793 -0.037043 0.426 -0.1062 0.6336 -0.76634
-0.022793 -0.036255 0.426 -0.13882 0.62752 -0.76612
-0.022847 -0.03555 0.427 -0.20189 0.63462 -0.74599
-0.022847 -0.03476 0.427 -0.2467 0.62745 -0.73854
-0.022847 -0.03397 0.427 -0.273 0.62316 -0.7329
-0.022847 -0.03318 0.427 -0.27997 0.61787 -0.73475
-0.0229 -0.032466 0.428 -0.27448 0.63039 -0.72614
-0.0229 -0.031674 0.428 -0.23197 0.63661 -0.73547
-0.022954 -0.030955 0.429 -0.13448 0.62294 -0.77063
-0.022954 -0.030161 0.429 -0.024755 0.62153 -0.783
-0.022954 -0.029367 0.429 0.093862 0.60765 -0.78864
-0.022954 -0.028574 0.429 0.2047 0.58246 -0.78666
-0.0229 -0.027715 0.428 0.32409 0.56797 -0.75655
-0.0229 -0.026923 0.428 0.40297 0.53455 -0.74288
-0.022847 -0.02607 0.427 0.45126 0.5027 -0.73733
-0.022793 -0.025221 0.426 0.4546 0.47023 -0.75646
-0.022793 -0.024433 0.426 0.46027 0.47402 -0.75064
-0.02274 -0.023589 0.425 0.42063 0.45581 -0.78441
-0.02274 -0.022803 0.425 0.40349 0.46864 -0.78586
-0.02274 -0.022017 0.425 0.36781 0.47905 -0.79701
-0.022686 -0.02118 0.424 0.30866 0.47623 -0.82337
-0.022686 -0.020396 0.424 0.27527 0.49053 -0.8268
-0.022686 -0.019611 0.424 0.23273 0.49418 -0.83763
-0.022633 -0.018783 0.423 0.17623 0.49328 -0.85183
-0.022633 -0.018 0.423 0.12972 0.49935 -0.85663
-0.022633 -0.017217 0.423 0.071341 0.49891 -0.86371
-0.022633 -0.016435 0.423 0.015586 0.50013 -0.86581
-0.022633 -0.015652 0.423 -0.051188 0.50226 -0.8632
-0.022633 -0.01487 0.423 -0.10283 0.50093 -0.85935
-0.022633 -0.014087 0.423 -0.14852 0.50537 -0.85002
-0.022686 -0.013336 0.424 -0.19815 0.50331 -0.84108
-0.022686 -0.012551 0.424 -0.24681 0.50273 -0.82846
-0.022686 -0.011767 0.424 -0.28169 0.49558 -0.82161
-0.022686 -0.010982 0.424 -0.30998 0.49109 -0.81409
-0.02274 -0.010222 0.425 -0.35026 0.49987 -0.79211
-0.02274 -0.0094357 0.425 -0.36369 0.50082 -0.78543
-0.02274 -0.0086494 0.425 -0.37256 0.49201 -0.78684
-0.022793 -0.0078816 0.426 -0.40838 0.51443 -0.75405
-0.022847 -0.0071101 0.427 -0.43873 0.52441 -0.72973
-0.022847 -0.0063201 0.427 -0.4474 0.52665 -0.72282
-0.022847 -0.0055301 0.427 -0.43929 0.52064 -0.73209
-0.0229 -0.0047512 0.428 -0.45273 0.54124 -0.70859
-0.022954 -0.0039685 0.429 -0.45369 0.54755 -0.7031
-0.022954 -0.0031748 0.429 -0.43515 0.55588 -0.70827
-0.023007 -0.0023867 0.43 -0.43149 0.56323 -0.70469
-0.023007 -0.0015911 0.43 -0.41695 0.57183 -0.70651
-0.023061 0 0.431 -0.41813 0.57678 -0.70177
-0.023061 0.00079741 0.431 -0.41038 0.5424 -0.73307
-0.023114 0.0015985 0.432 -0.49069 0.54764 -0.67773
-0.023328 0.00484 0.436 -0.66665 0.58295 -0.46448
-0.023489 0.0056855 0.439 -0.53028 0.62469 -0.57321
-0.023542 0.0065125 0.44 -0.44503 0.66265 -0.60237
-0.023596 0.0081591 0.441 -0.45977 0.6884 -0.561
-0.023596 0.008975 0.441 -0.408 0.68452 -0.60413
-0.023649 0.0098131 0.442 -0.41955 0.69374 -0.58541
-0.023649 0.010631 0.442 -0.32285 0.68655 -0.65147
-0.023756 0.0115 0.444 -0.54116 0.69237 -0.47725
-0.023917 0.012405 0.447 -0.6897 0.67229 -0.26895
-0.024131 0.013351 0.451 -0.77977 0.5387 -0.31899
-0.024292 0.014279 0.454 -0.70597 0.52794 -0.47211
-0.024399 0.015186 0.456 -0.42836 0.48703 -0.76112
-0.024506 0.0161 0.458 -0.13101 0.32601 -0.93625
-0.024506 0.016947 0.458 -0.20371 0.31762 -0.92608
-0.024506 0.017795 0.458 -0.24786 0.31438 -0.91637
-0.024506 0.018642 0.458 -0.24579 0.31425 -0.91697
-0.024506 0.019489 0.458 -0.25167 0.30254 -0.91931
-0.024559 0.020381 0.459 -0.25292 0.27123 -0.92869
-0.024559 0.02123 0.459 -0.30066 0.25276 -0.91963
-0.024559 0.02208 0.459 -0.31411 0.22511 -0.92231
-0.024559 0.022929 0.459 -0.28905 0.20933 -0.93415
-0.024613 0.02383 0.46 -0.40187 0.21297 -0.89059
-0.024613 0.024681 0.46 -0.36318 0.20663 -0.90852
-0.024666 0.025587 0.461 -0.51061 0.2073 -0.83445
-0.024694 -0.15565 0.478 0.1627 -0.11526 -0.97992
-0.024694 -0.15476 0.478 0.15774 -0.16493 -0.97361
-0.024694 -0.15388 0.478 0.14364 -0.20714 -0.96771
-0.024694 -0.153 0.478 0.13269 -0.24398 -0.96066
-0.024694 -0.15211 0.478 0.13431 -0.27834 -0.95105
-0.024694 -0.15123 0.478 0.13918 -0.31863 -0.93761
-0.024694 -0.15034 0.478 0.13627 -0.36387 -0.92143
-0.024642 -0.14915 0.477 0.13599 -0.3569 -0.92419
-0.024642 -0.14826 0.477 0.15304 -0.38782 -0.90894
-0.024642 -0.14738 0.477 0.15798 -0.42146 -0.89298
-0.024642 -0.1465 0.477 0.17025 -0.45286 -0.87518
-0.024642 -0.14562 0.477 0.17485 -0.48436 -0.85722
-0.024642 -0.14473 0.477 0.14648 -0.51187 -0.84648
-0.02459 -0.14355 0.476 0.28988 -0.45078 -0.84425
-0.02459 -0.14267 0.476 0.27347 -0.48402 -0.83123
-0.022266 -0.11881 0.431 -0.43385 -0.1055 -0.89479
-0.022266 -0.11802 0.431 -0.49096 -0.16575 -0.85527
-0.022317 -0.11749 0.432 -0.42409 -0.16497 -0.89047
-0.022317 -0.11669 0.432 -0.44873 -0.22105 -0.8659
-0.022317 -0.11589 0.432 -0.50056 -0.24424 -0.83053
-0.022369 -0.11536 0.433 -0.50249 -0.25992 -0.82459
-0.022369 -0.11456 0.433 -0.53417 -0.27908 -0.79798
-0.022421 -0.11402 0.434 -0.52897 -0.26931 -0.80477
-0.022472 -0.11348 0.435 -0.54117 -0.26472 -0.79816
-0.022524 -0.11293 0.436 -0.52241 -0.22615 -0.82216
-0.022524 -0.11213 0.436 -0.50067 -0.21466 -0.8386
-0.022576 -0.11157 0.437 -0.44929 -0.17343 -0.87639
-0.022576 -0.11077 0.437 -0.39354 -0.14565 -0.90769
-0.022627 -0.11021 0.438 -0.27114 -0.076246 -0.95951
-0.022627 -0.1094 0.438 -0.23769 -0.086365 -0.96749
-0.022627 -0.10859 0.438 -0.22337 -0.061158 -0.97281
-0.022627 -0.10778 0.438 -0.18039 -0.031907 -0.98308
-0.022627 -0.10697 0.438 -0.14601 -0.0015697 -0.98928
-0.022576 -0.10591 0.437 0.11997 0.12829 -0.98445
-0.022576 -0.10511 0.437 0.14858 0.16173 -0.97559
-0.022627 -0.063208 0.438 0.66226 0.44535 -0.60256
-0.022576 -0.062255 0.437 0.6774 0.50082 -0.5388
-0.022524 -0.061306 0.436 0.66192 0.5316 -0.52845
-0.022421 -0.060222 0.434 0.56538 0.59027 -0.57613
-0.022421 -0.059419 0.434 0.61166 0.5735 -0.54495
-0.022369 -0.058481 0.433 0.58539 0.58932 -0.5568
-0.022317 -0.057547 0.432 0.56164 0.5996 -0.57012
-0.022266 -0.056616 0.431 0.54662 0.6076 -0.57621
-0.022266 -0.055819 0.431 0.51498 0.61173 -0.60049
-0.022214 -0.054894 0.43 0.49436 0.63475 -0.59388
-0.022162 -0.053972 0.429 0.45465 0.642 -0.61735
-0.022111 -0.053055 0.428 0.38996 0.63191 -0.66979
-0.022111 -0.052263 0.428 0.36455 0.65748 -0.65941
-0.022059 -0.051351 0.427 0.30594 0.64504 -0.70023
-0.022059 -0.050561 0.427 0.28494 0.66487 -0.69048
-0.022007 -0.049654 0.426 0.20928 0.63291 -0.7454
-0.022007 -0.048866 0.426 0.19085 0.65263 -0.73325
-0.022007 -0.048078 0.426 0.1697 0.66413 -0.7281
-0.022007 -0.04729 0.426 0.15078 0.67149 -0.72551
-0.022007 -0.046501 0.426 0.13869 0.67336 -0.72619
-0.022007 -0.045713 0.426 0.11655 0.67445 -0.72907
-0.022007 -0.044925 0.426 0.10256 0.6721 -0.73332
-0.022007 -0.044137 0.426 0.079354 0.66665 -0.74113
-0.022007 -0.043349 0.426 0.052738 0.66093 -0.74859
-0.021956 -0.042461 0.425 0.029943 0.64643 -0.76239
-0.021956 -0.041674 0.425 0.021824 0.64153 -0.76679
-0.021956 -0.040888 0.425 0.012973 0.63876 -0.76929
-0.021956 -0.040102 0.425 -0.0032586 0.63448 -0.77294
-0.021956 -0.039315 0.425 -0.027745 0.63229 -0.77424
-0.021956 -0.038529 0.425 -0.055964 0.62473 -0.77883
-0.021956 -0.037743 0.425 -0.064873 0.61675 -0.78448
-0.021956 -0.036957 0.425 -0.081077 0.60746 -0.7902
-0.022007 -0.036255 0.426 -0.1427 0.62404 -0.76825
-0.022007 -0.035467 0.426 -0.17948 0.62261 -0.76167
-0.022007 -0.034679 0.426 -0.22148 0.61586 -0.75609
-0.022007 -0.033891 0.426 -0.25031 0.61042 -0.75149
-0.022007 -0.033103 0.426 -0.26103 0.60239 -0.75432
-0.022059 -0.03239 0.427 -0.27611 0.62065 -0.73386
-0.022059 -0.0316 0.427 -0.23971 0.62121 -0.74608
-0.022111 -0.030883 0.428 -0.16495 0.62399 -0.76382
-0.022111 -0.030091 0.428 -0.060374 0.62091 -0.78156
-0.022111 -0.029299 0.428 0.067338 0.60912 -0.79021
-0.022111 -0.028507 0.428 0.18935 0.59075 -0.78432
-0.022111 -0.027715 0.428 0.30099 0.55591 -0.77483
-0.022059 -0.02686 0.427 0.39352 0.52315 -0.75595
-0.022007 -0.026009 0.426 0.43348 0.48196 -0.76145
-0.022007 -0.025221 0.426 0.46254 0.47375 -0.74941
-0.021956 -0.024376 0.425 0.44325 0.44037 -0.78077
-0.021956 -0.023589 0.425 0.43474 0.45228 -0.77874
-0.021904 -0.022749 0.424 0.38788 0.43578 -0.81218
-0.021904 -0.021965 0.424 0.35718 0.45268 -0.81701
-0.021904 -0.02118 0.424 0.3177 0.46325 -0.82732
-0.021904 -0.020396 0.424 0.27751 0.4724 -0.83656
-0.021852 -0.019565 0.423 0.23335 0.4708 -0.85082
-0.021852 -0.018783 0.423 0.18244 0.47395 -0.86144
-0.021852 -0.018 0.423 0.13192 0.47288 -0.8712
-0.021852 -0.017217 0.423 0.07253 0.47292 -0.87811
-0.021852 -0.016435 0.423 0.015876 0.47122 -0.88187
-0.021852 -0.015652 0.423 -0.052094 0.47497 -0.87846
-0.021852 -0.01487 0.423 -0.10477 0.47156 -0.87559
-0.021852 -0.014087 0.423 -0.15119 0.4779 -0.8653
-0.021852 -0.013304 0.423 -0.19748 0.47878 -0.85544
-0.021852 -0.012522 0.423 -0.24162 0.47429 -0.84656
-0.021904 -0.011767 0.424 -0.28388 0.47679 -0.83192
-0.021904 -0.010982 0.424 -0.31379 0.48186 -0.81814
-0.021904 -0.010198 0.424 -0.33626 0.47897 -0.81088
-0.021956 -0.0094357 0.425 -0.36308 0.49484 -0.7895
-0.021956 -0.0086494 0.425 -0.37847 0.49597 -0.78152
-0.021956 -0.0078631 0.425 -0.38081 0.49587 -0.78045
-0.022007 -0.0070934 0.426 -0.4187 0.51421 -0.74852
-0.022007 -0.0063053 0.426 -0.4253 0.51086 -0.74709
-0.022059 -0.0055301 0.427 -0.44733 0.52753 -0.72223
-0.022059 -0.0047401 0.427 -0.44102 0.52198 -0.73009
-0.022111 -0.0039593 0.428 -0.45525 0.53517 -0.71158
-0.022111 -0.0031674 0.428 -0.43417 0.53622 -0.72386
-0.022162 -0.0023811 0.429 -0.43643 0.54336 -0.71714
-0.022162 -0.0015874 0.429 -0.41676 0.54122 -0.73034
-0.022214 -0.00079556 0.43 -0.41672 0.55476 -0.72013
-0.022214 0 0.43 -0.41175 0.53583 -0.73712
-0.022214 0.00079556 0.43 -0.40135 0.48697 -0.77574
-0.022266 0.0015948 0.431 -0.47191 0.48623 -0.73545
-0.022266 0.0023922 0.431 -0.45588 0.4162 -0.78673
-0.022369 0.0040056 0.433 -0.60313 0.41536 -0.68096
-0.022524 0.0056466 0.436 -0.66516 0.54665 -0.50867
-0.022627 0.0064829 0.438 -0.56178 0.62935 -0.53695
-0.022679 0.0073099 0.439 -0.50852 0.65397 -0.56012
-0.022731 0.0081406 0.44 -0.48285 0.6663 -0.56824
-0.022731 0.0089547 0.44 -0.46505 0.65828 -0.59194
-0.022782 0.0097909 0.441 -0.45286 0.66276 -0.59638
-0.022782 0.010607 0.441 -0.38987 0.63405 -0.66782
-0.022834 0.011449 0.442 -0.47019 0.60858 -0.63917
-0.023247 0.014154 0.45 -0.72451 0.64902 -0.23207
-0.023506 0.015153 0.455 -0.56763 0.45611 -0.68539
-0.023609 0.016065 0.457 -0.30016 0.36262 -0.88228
-0.023661 0.016947 0.458 -0.19096 0.25132 -0.94888
-0.023661 0.017795 0.458 -0.25067 0.26571 -0.9309
-0.023661 0.018642 0.458 -0.2571 0.28936 -0.92205
-0.023661 0.019489 0.458 -0.26117 0.2942 -0.91937
-0.023661 0.020337 0.458 -0.28368 0.28491 -0.91562
-0.023712 0.02123 0.459 -0.2971 0.25985 -0.91881
-0.023712 0.02208 0.459 -0.32211 0.23673 -0.91663
-0.023712 0.022929 0.459 -0.30881 0.21898 -0.92557
-0.023764 0.02383 0.46 -0.42852 0.22095 -0.8761
-0.023764 0.024681 0.46 -0.40676 0.21217 -0.88856
-0.023764 0.025532 0.46 -0.34161 0.20606 -0.91697
-0.023812 -0.15565 0.478 0.12151 -0.085281 -0.98892
-0.023812 -0.15476 0.478 0.12971 -0.13619 -0.98215
-0.023812 -0.15388 0.478 0.12605 -0.18862 -0.97393
-0.023812 -0.153 0.478 0.11938 -0.23293 -0.96514
-0.023812 -0.15211 0.478 0.11828 -0.26781 -0.95618
-0.023812 -0.15123 0.478 0.12409 -0.31158 -0.94208
-0.023812 -0.15034 0.478 0.12271 -0.36416 -0.92322
-0.023812 -0.14946 0.478 0.11975 -0.40767 -0.90524
-0.023812 -0.14857 0.478 0.13036 -0.4458 -0.88559
-0.023812 -0.14769 0.478 0.13212 -0.48594 -0.86395
-0.023812 -0.1468 0.478 0.11878 -0.52073 -0.84542
-0.023762 -0.14562 0.477 0.203 -0.45233 -0.86844
-0.023762 -0.14473 0.477 0.20462 -0.485 -0.85024
-0.023762 -0.14385 0.477 0.17946 -0.50784 -0.84255
-0.023762 -0.14297 0.477 0.16237 -0.5359 -0.82852
-0.021421 -0.12013 0.43 -0.51979 -0.11854 -0.84603
-0.02147 -0.11961 0.431 -0.42197 -0.08355 -0.90275
-0.02152 -0.11909 0.432 -0.34758 -0.061648 -0.93562
-0.02147 -0.11802 0.431 -0.53067 -0.20046 -0.82353
-0.02152 -0.11749 0.432 -0.48561 -0.2074 -0.84921
-0.02152 -0.11669 0.432 -0.49112 -0.24332 -0.83642
-0.02157 -0.11616 0.433 -0.52339 -0.27192 -0.80754
-0.02157 -0.11536 0.433 -0.53739 -0.27879 -0.79592
-0.02162 -0.11482 0.434 -0.5358 -0.27717 -0.79755
-0.02162 -0.11402 0.434 -0.5307 -0.27454 -0.80187
-0.02167 -0.11348 0.435 -0.52964 -0.25438 -0.80918
-0.02172 -0.11293 0.436 -0.50572 -0.21864 -0.83453
-0.02172 -0.11213 0.436 -0.47641 -0.19394 -0.85757
-0.021769 -0.11157 0.437 -0.42245 -0.16049 -0.89207
-0.021769 -0.11077 0.437 -0.35222 -0.11582 -0.92872
-0.021819 -0.11021 0.438 -0.22456 -0.043248 -0.9735
-0.021819 -0.1094 0.438 -0.18753 -0.041705 -0.98137
-0.021819 -0.10859 0.438 -0.17846 -0.012069 -0.98387
-0.021819 -0.10778 0.438 -0.14978 0.01431 -0.98862
-0.021769 -0.10672 0.437 0.08547 0.11684 -0.98947
-0.021769 -0.10591 0.437 0.1513 0.14822 -0.97731
-0.021769 -0.10511 0.437 0.14838 0.16601 -0.9749
-0.02167 -0.061166 0.435 0.65458 0.55988 -0.508
-0.02157 -0.060083 0.433 0.53826 0.60242 -0.58938
-0.02157 -0.059282 0.433 0.60023 0.58586 -0.54451
-0.02152 -0.058346 0.432 0.5745 0.59464 -0.56245
-0.02147 -0.057414 0.431 0.56083 0.60121 -0.56922
-0.021421 -0.056485 0.43 0.54482 0.60352 -0.58218
-0.021371 -0.05556 0.429 0.50867 0.60199 -0.61552
-0.021371 -0.054766 0.429 0.49406 0.62662 -0.60271
-0.021321 -0.053846 0.428 0.4442 0.62236 -0.64448
-0.021271 -0.052931 0.427 0.37876 0.61328 -0.69313
-0.021271 -0.052141 0.427 0.35905 0.64007 -0.67926
-0.021221 -0.05123 0.426 0.27901 0.61408 -0.73828
-0.021221 -0.050442 0.426 0.26567 0.64038 -0.72065
-0.021221 -0.049654 0.426 0.2385 0.65513 -0.71689
-0.021221 -0.048866 0.426 0.20835 0.66184 -0.72011
-0.021172 -0.047965 0.425 0.15148 0.64295 -0.75078
-0.021172 -0.047179 0.425 0.13097 0.65169 -0.74709
-0.021172 -0.046392 0.425 0.11957 0.65506 -0.74605
-0.021172 -0.045606 0.425 0.09978 0.65777 -0.74658
-0.021172 -0.04482 0.425 0.084205 0.65703 -0.74915
-0.021172 -0.044033 0.425 0.065038 0.65129 -0.75603
-0.021172 -0.043247 0.425 0.044187 0.64575 -0.76227
-0.021172 -0.042461 0.425 0.029973 0.63901 -0.76862
-0.021172 -0.041674 0.425 0.021242 0.63141 -0.77516
-0.021172 -0.040888 0.425 0.010677 0.62658 -0.77928
-0.021172 -0.040102 0.425 -0.004951 0.6221 -0.78292
-0.021172 -0.039315 0.425 -0.028899 0.62084 -0.78341
-0.021172 -0.038529 0.425 -0.062974 0.61478 -0.78618
-0.021172 -0.037743 0.425 -0.079065 0.61057 -0.78801
-0.021172 -0.036957 0.425 -0.10082 0.60708 -0.78822
-0.021172 -0.03617 0.425 -0.12982 0.60525 -0.78538
-0.021172 -0.035384 0.425 -0.1644 0.60034 -0.78267
-0.021172 -0.034598 0.425 -0.20546 0.59198 -0.77932
-0.021172 -0.033811 0.425 -0.23557 0.57549 -0.78314
-0.021221 -0.033103 0.426 -0.28225 0.60652 -0.74328
-0.021221 -0.032315 0.426 -0.28083 0.60008 -0.74903
-0.021271 -0.0316 0.427 -0.25186 0.61025 -0.7511
-0.021271 -0.03081 0.427 -0.19189 0.61027 -0.7686
-0.021321 -0.030091 0.428 -0.059475 0.58492 -0.80891
-0.021321 -0.029299 0.428 0.063986 0.57401 -0.81634
-0.021321 -0.028507 0.428 0.16776 0.55695 -0.81343
-0.021271 -0.02765 0.427 0.28659 0.54536 -0.78768
-0.021271 -0.02686 0.427 0.37464 0.50909 -0.7749
-0.021221 -0.026009 0.426 0.4359 0.47937 -0.7617
-0.021172 -0.025162 0.425 0.44132 0.43705 -0.78372
-0.021172 -0.024376 0.425 0.45525 0.43533 -0.77668
-0.021122 -0.023534 0.424 0.42464 0.41667 -0.80378
-0.021122 -0.022749 0.424 0.4038 0.42825 -0.80842
-0.021122 -0.021965 0.424 0.36213 0.43991 -0.82179
-0.021072 -0.02113 0.423 0.30688 0.43739 -0.84529
-0.021072 -0.020348 0.423 0.26403 0.45062 -0.85278
-0.021072 -0.019565 0.423 0.22485 0.45211 -0.86316
-0.021072 -0.018783 0.423 0.17433 0.45034 -0.87567
-0.021072 -0.018 0.423 0.12464 0.4486 -0.885
-0.021072 -0.017217 0.423 0.071691 0.44871 -0.8908
-0.021022 -0.016396 0.422 0.016126 0.4484 -0.89369
-0.021022 -0.015615 0.422 -0.04628 0.45398 -0.88981
-0.021022 -0.014834 0.422 -0.097819 0.45304 -0.88611
-0.021072 -0.014087 0.423 -0.14322 0.45629 -0.87823
-0.021072 -0.013304 0.423 -0.18941 0.45847 -0.86829
-0.021072 -0.012522 0.423 -0.23654 0.46002 -0.85582
-0.021072 -0.011739 0.423 -0.26944 0.45431 -0.84912
-0.021122 -0.010982 0.424 -0.30794 0.46848 -0.82807
-0.021122 -0.010198 0.424 -0.33451 0.47273 -0.81525
-0.021122 -0.0094135 0.424 -0.34341 0.478 -0.80845
-0.021122 -0.008629 0.424 -0.34931 0.4756 -0.80733
-0.021172 -0.0078631 0.425 -0.37868 0.50345 -0.77662
-0.021172 -0.0070768 0.425 -0.38844 0.49724 -0.7758
-0.021221 -0.0063053 0.426 -0.42752 0.51607 -0.74223
-0.021221 -0.0055171 0.426 -0.43493 0.50797 -0.74351
-0.021271 -0.0047401 0.427 -0.45712 0.51969 -0.72178
-0.021271 -0.00395 0.427 -0.45341 0.51289 -0.72895
-0.021321 -0.0031674 0.428 -0.45498 0.52322 -0.72058
-0.021321 -0.0023756 0.428 -0.44374 0.52054 -0.72948
-0.021371 -0.0015874 0.429 -0.43603 0.51986 -0.73459
-0.021371 -0.00079371 0.429 -0.42263 0.5129 -0.7472
-0.021421 0 0.43 -0.44331 0.50903 -0.73781
-0.021421 0.00079556 0.43 -0.45959 0.47389 -0.75114
-0.021421 0.0015911 0.43 -0.46396 0.41042 -0.78505
-0.02147 0.0023922 0.431 -0.52895 0.40885 -0.74368
-0.02147 0.0031896 0.431 -0.50405 0.33614 -0.79558
-0.02152 0.0039963 0.432 -0.56598 0.34303 -0.74967
-0.02162 0.0048178 0.434 -0.68404 0.45979 -0.56629
-0.02167 0.0056337 0.435 -0.69121 0.46666 -0.55178
-0.021769 0.0064681 0.437 -0.6003 0.58015 -0.55051
-0.021819 0.0072932 0.438 -0.53283 0.62481 -0.5707
-0.021869 0.0081221 0.439 -0.51052 0.63528 -0.57948
-0.021869 0.0089343 0.439 -0.4823 0.63135 -0.60728
-0.021919 0.0097687 0.44 -0.49002 0.63332 -0.59899
-0.021919 0.010583 0.44 -0.44652 0.58716 -0.67518
-0.022018 0.011449 0.442 -0.60743 0.589 -0.53302
-0.022317 0.014091 0.448 -0.73744 0.61254 -0.28456
-0.022367 0.014953 0.449 -0.67945 0.64138 -0.35633
-0.022417 0.015819 0.45 -0.53749 0.70276 -0.46609
-0.022766 0.01691 0.457 -0.34224 0.30556 -0.88854
-0.022815 0.017795 0.458 -0.22337 0.22783 -0.94773
-0.022815 0.018642 0.458 -0.24956 0.26635 -0.93101
-0.022815 0.019489 0.458 -0.26377 0.28974 -0.92004
-0.022815 0.020337 0.458 -0.28673 0.29385 -0.91183
-0.022815 0.021184 0.458 -0.31525 0.27692 -0.90771
-0.022865 0.02208 0.459 -0.32922 0.26009 -0.90773
-0.022865 0.022929 0.459 -0.32842 0.24495 -0.91222
-0.022865 0.023778 0.459 -0.30626 0.23432 -0.92266
-0.022915 0.024681 0.46 -0.44145 0.23551 -0.86583
-0.022915 0.025532 0.46 -0.39063 0.23077 -0.89115
-0.02293 -0.15565 0.478 0.080521 -0.060604 -0.99491
-0.02293 -0.15476 0.478 0.10114 -0.093735 -0.99045
-0.02293 -0.15388 0.478 0.10647 -0.14494 -0.9837
-0.02293 -0.153 0.478 0.10315 -0.19067 -0.97622
-0.02293 -0.15211 0.478 0.10232 -0.22731 -0.96843
-0.02293 -0.15123 0.478 0.10613 -0.26745 -0.95771
-0.02293 -0.15034 0.478 0.10322 -0.32203 -0.94109
-0.02293 -0.14946 0.478 0.10405 -0.36839 -0.92383
-0.02293 -0.14857 0.478 0.11432 -0.40856 -0.90554
-0.02293 -0.14769 0.478 0.11787 -0.45328 -0.88354
-0.02293 -0.1468 0.478 0.12511 -0.4881 -0.86377
-0.02293 -0.14592 0.478 0.12723 -0.52051 -0.84432
-0.02293 -0.14504 0.478 0.10859 -0.55024 -0.82792
-0.02293 -0.14415 0.478 0.076171 -0.56559 -0.82116
-0.02293 -0.14327 0.478 0.061559 -0.58237 -0.81059
-0.020627 -0.12013 0.43 -0.54494 -0.16957 -0.82115
-0.020675 -0.11961 0.431 -0.47235 -0.12914 -0.8719
-0.020675 -0.11802 0.431 -0.54818 -0.21721 -0.80766
-0.020723 -0.11749 0.432 -0.51324 -0.22701 -0.82768
-0.020723 -0.11669 0.432 -0.50984 -0.24023 -0.82605
-0.020771 -0.11616 0.433 -0.54358 -0.27681 -0.7924
-0.020771 -0.11536 0.433 -0.54402 -0.28531 -0.78908
-0.020819 -0.11482 0.434 -0.53945 -0.28082 -0.79381
-0.020867 -0.11428 0.435 -0.51132 -0.25099 -0.82192
-0.020915 -0.11374 0.436 -0.50557 -0.22607 -0.83264
-0.020915 -0.11293 0.436 -0.48769 -0.20548 -0.84849
-0.020963 -0.11238 0.437 -0.43429 -0.15291 -0.8877
-0.020963 -0.11157 0.437 -0.385 -0.12891 -0.91387
-0.020963 -0.11077 0.437 -0.30199 -0.074802 -0.95037
-0.021011 -0.11021 0.438 -0.18198 -0.01905 -0.98312
-0.021011 -0.1094 0.438 -0.13792 -0.0015234 -0.99044
-0.021011 -0.10859 0.438 -0.13929 0.02778 -0.98986
-0.020963 -0.10753 0.437 0.053003 0.10212 -0.99336
-0.020963 -0.10672 0.437 0.12103 0.12999 -0.9841
-0.020963 -0.10591 0.437 0.17016 0.14595 -0.97455
-0.020963 -0.10511 0.437 0.1449 0.15823 -0.97671
-0.020819 -0.061025 0.434 0.64053 0.57484 -0.50919
-0.020771 -0.060083 0.433 0.61613 0.58358 -0.52898
-0.020723 -0.059145 0.432 0.58684 0.59151 -0.55293
-0.020675 -0.058211 0.431 0.57093 0.59664 -0.56396
-0.020627 -0.05728 0.43 0.5563 0.59698 -0.57806
-0.020579 -0.056353 0.429 0.53263 0.58995 -0.60685
-0.020579 -0.05556 0.429 0.52939 0.60458 -0.59517
-0.020531 -0.054638 0.428 0.48648 0.60704 -0.62836
-0.020483 -0.053721 0.427 0.43083 0.59936 -0.67465
-0.020435 -0.052807 0.426 0.35593 0.57466 -0.73694
-0.020435 -0.052019 0.426 0.33961 0.60654 -0.71887
-0.020435 -0.05123 0.426 0.31523 0.62572 -0.71352
-0.020387 -0.050324 0.425 0.24928 0.61136 -0.75107
-0.020387 -0.049537 0.425 0.23038 0.62858 -0.74284
-0.020387 -0.048751 0.425 0.20029 0.63643 -0.74488
-0.020387 -0.047965 0.425 0.17365 0.64234 -0.74649
-0.020339 -0.047068 0.424 0.12429 0.62335 -0.772
-0.020339 -0.046283 0.424 0.11026 0.63256 -0.76662
-0.020339 -0.045499 0.424 0.09373 0.63827 -0.76408
-0.020339 -0.044714 0.424 0.073251 0.6375 -0.76696
-0.020339 -0.04393 0.424 0.054991 0.63517 -0.77041
-0.020339 -0.043145 0.424 0.031931 0.63115 -0.77501
-0.020339 -0.042361 0.424 0.011551 0.62447 -0.78096
-0.020339 -0.041576 0.424 0.0024982 0.61535 -0.78825
-0.020339 -0.040792 0.424 -0.0066959 0.61014 -0.79226
-0.020339 -0.040007 0.424 -0.024303 0.6084 -0.79326
-0.020339 -0.039223 0.424 -0.040307 0.60545 -0.79486
-0.020339 -0.038438 0.424 -0.065677 0.60037 -0.79702
-0.020339 -0.037654 0.424 -0.079311 0.59655 -0.79865
-0.020339 -0.03687 0.424 -0.095623 0.58789 -0.80327
-0.020339 -0.036085 0.424 -0.12421 0.58572 -0.80094
-0.020339 -0.035301 0.424 -0.14931 0.57692 -0.80304
-0.020387 -0.034598 0.425 -0.2173 0.58826 -0.77893
-0.020387 -0.033811 0.425 -0.25537 0.58226 -0.77185
-0.020387 -0.033025 0.425 -0.27083 0.57787 -0.76988
-0.020435 -0.032315 0.426 -0.29321 0.5856 -0.75571
-0.020435 -0.031526 0.426 -0.2726 0.5838 -0.76477
-0.020483 -0.03081 0.427 -0.20591 0.57712 -0.79027
-0.020483 -0.03002 0.427 -0.1154 0.57513 -0.80988
-0.020483 -0.02923 0.427 0.0068991 0.56932 -0.82209
-0.020483 -0.02844 0.427 0.14412 0.54994 -0.82268
-0.020483 -0.02765 0.427 0.25917 0.51827 -0.815
-0.020435 -0.026797 0.426 0.37014 0.48995 -0.78927
-0.020435 -0.026009 0.426 0.42917 0.45978 -0.77744
-0.020387 -0.025162 0.425 0.45101 0.42751 -0.78347
-0.020339 -0.024318 0.424 0.44195 0.39558 -0.80511
-0.020339 -0.023534 0.424 0.43716 0.40289 -0.8041
-0.020339 -0.022749 0.424 0.40727 0.407 -0.81761
-0.020292 -0.021913 0.423 0.36105 0.4096 -0.83778
-0.020292 -0.02113 0.423 0.31763 0.42084 -0.84971
-0.020292 -0.020348 0.423 0.2737 0.4276 -0.86154
-0.020244 -0.019519 0.422 0.21753 0.42524 -0.87855
-0.020244 -0.018738 0.422 0.1794 0.42992 -0.88486
-0.020244 -0.017957 0.422 0.13347 0.43234 -0.89178
-0.020244 -0.017177 0.422 0.074356 0.43349 -0.89809
-0.020244 -0.016396 0.422 0.018175 0.43307 -0.90117
-0.020244 -0.015615 0.422 -0.044846 0.4358 -0.89893
-0.020244 -0.014834 0.422 -0.097744 0.43721 -0.89403
-0.020244 -0.014054 0.422 -0.1502 0.44187 -0.88441
-0.020244 -0.013273 0.422 -0.19352 0.44072 -0.87654
-0.020244 -0.012492 0.422 -0.22993 0.43564 -0.87026
-0.020292 -0.011739 0.423 -0.26914 0.4419 -0.85574
-0.020292 -0.010957 0.423 -0.29598 0.44754 -0.84386
-0.020292 -0.010174 0.423 -0.312 0.44591 -0.83894
-0.020339 -0.0094135 0.424 -0.3368 0.46839 -0.81681
-0.020339 -0.008629 0.424 -0.34903 0.47654 -0.8069
-0.020339 -0.0078446 0.424 -0.34909 0.47776 -0.80615
-0.020387 -0.0070768 0.425 -0.38635 0.49978 -0.77521
-0.020387 -0.0062905 0.425 -0.40129 0.49534 -0.77046
-0.020435 -0.0055171 0.426 -0.43768 0.50955 -0.74081
-0.020435 -0.004729 0.426 -0.44843 0.5038 -0.73831
-0.020435 -0.0039408 0.426 -0.45261 0.48623 -0.74748
-0.020483 -0.00316 0.427 -0.46584 0.50144 -0.72908
-0.020531 -0.0023756 0.428 -0.46711 0.49171 -0.73487
-0.020531 -0.0015837 0.428 -0.46145 0.48591 -0.74226
-0.020579 -0.00079371 0.429 -0.45722 0.47226 -0.7536
-0.020579 0 0.429 -0.46817 0.45024 -0.76033
-0.020579 0.00079371 0.429 -0.47268 0.39605 -0.78722
-0.020627 0.0015911 0.43 -0.52596 0.37672 -0.76252
-0.020627 0.0023867 0.43 -0.51772 0.29606 -0.80269
-0.020675 0.0031896 0.431 -0.57581 0.29755 -0.76151
-0.020723 0.0039963 0.432 -0.61743 0.32289 -0.7173
-0.020771 0.0048067 0.433 -0.67032 0.34611 -0.65641
-0.020819 0.0056207 0.434 -0.68915 0.37555 -0.61971
-0.020915 0.0064533 0.436 -0.62345 0.51689 -0.58663
-0.020963 0.0072766 0.437 -0.56286 0.57796 -0.59089
-0.021059 0.0089343 0.439 -0.50611 0.62285 -0.59658
-0.021059 0.0097465 0.439 -0.50709 0.60638 -0.6125
-0.021059 0.010559 0.439 -0.45027 0.5536 -0.70056
-0.021539 0.014953 0.449 -0.74221 0.60556 -0.28708
-0.021731 0.015924 0.453 -0.79917 0.4244 -0.42569
-0.021923 0.017756 0.457 -0.35305 0.27854 -0.89318
-0.02197 0.018642 0.458 -0.22474 0.24263 -0.94373
-0.02197 0.019489 0.458 -0.2602 0.2801 -0.92403
-0.02197 0.020337 0.458 -0.28774 0.29729 -0.9104
-0.02197 0.021184 0.458 -0.32138 0.28585 -0.90277
-0.02197 0.022031 0.458 -0.3219 0.26789 -0.90808
-0.022018 0.022929 0.459 -0.35167 0.26817 -0.89689
-0.022018 0.023778 0.459 -0.34515 0.25837 -0.90229
-0.022066 0.024681 0.46 -0.47737 0.25424 -0.84112
-0.022066 0.025532 0.46 -0.43425 0.24727 -0.86619
-0.022094 -0.15597 0.479 0.12336 -0.25746 -0.95838
-0.022094 -0.15509 0.479 0.11262 -0.28848 -0.95084
-0.022094 -0.1542 0.479 0.088524 -0.32587 -0.94126
-0.022094 -0.15332 0.479 0.080359 -0.36673 -0.92685
-0.022048 -0.15211 0.478 0.084204 -0.14478 -0.98587
-0.022048 -0.15123 0.478 0.090841 -0.18154 -0.97918
-0.022048 -0.15034 0.478 0.083128 -0.22781 -0.97015
-0.022094 -0.14977 0.479 0.087028 -0.4831 -0.87123
-0.022048 -0.14857 0.478 0.099991 -0.31635 -0.94336
-0.022094 -0.148 0.479 0.082923 -0.55256 -0.82934
-0.022094 -0.14711 0.479 0.068255 -0.57336 -0.81646
-0.022094 -0.14623 0.479 0.052265 -0.58906 -0.80639
-0.022048 -0.14504 0.478 0.16239 -0.46782 -0.86878
-0.022094 -0.14445 0.479 -0.010272 -0.60755 -0.79421
-0.019834 -0.12172 0.43 -0.3871 -0.062795 -0.9199
-0.019788 -0.12064 0.429 -0.61969 -0.26449 -0.73894
-0.019834 -0.12013 0.43 -0.57523 -0.19601 -0.79416
-0.01988 -0.11881 0.431 -0.54803 -0.19382 -0.81369
-0.019926 -0.11829 0.432 -0.52987 -0.19151 -0.82617
-0.019926 -0.11749 0.432 -0.53535 -0.23171 -0.81223
-0.019972 -0.11696 0.433 -0.50624 -0.23456 -0.82988
-0.019972 -0.11616 0.433 -0.55425 -0.27995 -0.78386
-0.020018 -0.11563 0.434 -0.53927 -0.27446 -0.79615
-0.020065 -0.11509 0.435 -0.52351 -0.2533 -0.8135
-0.020065 -0.11428 0.435 -0.49837 -0.24309 -0.83219
-0.020111 -0.11374 0.436 -0.48748 -0.21367 -0.84658
-0.020157 -0.11319 0.437 -0.4288 -0.15635 -0.88977
-0.020157 -0.11238 0.437 -0.40295 -0.13703 -0.90491
-0.020157 -0.11157 0.437 -0.33862 -0.097574 -0.93585
-0.020157 -0.11077 0.437 -0.24619 -0.038608 -0.96845
-0.020203 -0.11021 0.438 -0.13451 0.00026571 -0.99091
-0.020203 -0.1094 0.438 -0.098718 0.016715 -0.99498
-0.020157 -0.10834 0.437 -0.00011025 0.080969 -0.99672
-0.020157 -0.10753 0.437 0.072514 0.1201 -0.99011
-0.020157 -0.10672 0.437 0.11922 0.14342 -0.98245
-0.020157 -0.10591 0.437 0.15266 0.16233 -0.97486
-0.020065 -0.062775 0.435 0.64062 0.58888 -0.49277
-0.020018 -0.061828 0.434 0.63248 0.59154 -0.50005
-0.019972 -0.060884 0.433 0.62192 0.59335 -0.51103
-0.019926 -0.059944 0.432 0.59528 0.59524 -0.53975
-0.01988 -0.059008 0.431 0.57177 0.60079 -0.55869
-0.019834 -0.058076 0.43 0.554 0.60308 -0.57392
-0.019788 -0.057147 0.429 0.53928 0.59382 -0.59712
-0.019742 -0.056222 0.428 0.51439 0.57654 -0.63482
-0.019742 -0.05543 0.428 0.52108 0.59656 -0.6104
-0.019696 -0.054511 0.427 0.47302 0.59054 -0.65385
-0.019649 -0.053595 0.426 0.4067 0.56248 -0.71987
-0.019649 -0.052807 0.426 0.39198 0.58891 -0.70678
-0.019603 -0.051896 0.425 0.32939 0.57523 -0.74874
-0.019603 -0.05111 0.425 0.30509 0.59994 -0.73959
-0.019603 -0.050324 0.425 0.27622 0.61409 -0.73932
-0.019603 -0.049537 0.425 0.24453 0.6213 -0.74444
-0.019557 -0.048636 0.424 0.19206 0.6098 -0.76894
-0.019557 -0.047852 0.424 0.16667 0.618 -0.7683
-0.019557 -0.047068 0.424 0.14543 0.61891 -0.77188
-0.019557 -0.046283 0.424 0.12754 0.61988 -0.77427
-0.019557 -0.045499 0.424 0.106 0.6195 -0.77781
-0.019557 -0.044714 0.424 0.077604 0.61911 -0.78146
-0.019557 -0.04393 0.424 0.050577 0.61765 -0.78483
-0.019511 -0.043043 0.423 0.01458 0.60802 -0.79379
-0.019511 -0.041478 0.423 -0.010166 0.59985 -0.80005
-0.019557 -0.040792 0.424 -0.015295 0.594 -0.80432
-0.019557 -0.040007 0.424 -0.028911 0.59273 -0.80488
-0.019557 -0.039223 0.424 -0.040839 0.59138 -0.80536
-0.019557 -0.038438 0.424 -0.066439 0.5878 -0.80627
-0.019557 -0.037654 0.424 -0.079221 0.58614 -0.80633
-0.019557 -0.03687 0.424 -0.096305 0.58303 -0.80672
-0.019557 -0.036085 0.424 -0.12868 0.58421 -0.80134
-0.019557 -0.035301 0.424 -0.16394 0.5785 -0.79904
-0.019557 -0.034516 0.424 -0.20653 0.57117 -0.79443
-0.019557 -0.033732 0.424 -0.24784 0.55915 -0.79115
-0.019603 -0.033025 0.425 -0.29099 0.57041 -0.76809
-0.019603 -0.032239 0.425 -0.29901 0.56474 -0.7692
-0.019603 -0.031452 0.425 -0.27865 0.55962 -0.7805
-0.019649 -0.030738 0.426 -0.22554 0.56395 -0.79442
-0.019649 -0.02995 0.426 -0.14437 0.55788 -0.81726
-0.019649 -0.029162 0.426 -0.023704 0.54982 -0.83495
-0.019649 -0.028374 0.426 0.11798 0.53382 -0.83732
-0.019649 -0.027586 0.426 0.25086 0.50553 -0.82553
-0.019649 -0.026797 0.426 0.35498 0.47086 -0.80764
-0.019603 -0.025948 0.425 0.41407 0.43707 -0.79844
-0.019603 -0.025162 0.425 0.4472 0.41769 -0.79092
-0.019557 -0.024318 0.424 0.4494 0.39143 -0.803
-0.019557 -0.023534 0.424 0.44038 0.39237 -0.80754
-0.019511 -0.022696 0.423 0.39978 0.38609 -0.83133
-0.019511 -0.021913 0.423 0.36443 0.39897 -0.84144
-0.019465 -0.02108 0.422 0.308 0.40554 -0.86062
-0.019465 -0.0203 0.422 0.2682 0.41728 -0.8683
-0.019465 -0.019519 0.422 0.22299 0.42148 -0.87899
-0.019465 -0.018738 0.422 0.18004 0.42301 -0.88806
-0.019465 -0.017957 0.422 0.13363 0.43003 -0.89287
-0.019465 -0.017177 0.422 0.074417 0.43195 -0.89882
-0.019419 -0.016357 0.421 0.018255 0.42924 -0.90301
-0.019465 -0.015615 0.422 -0.044939 0.43193 -0.90079
-0.019465 -0.014834 0.422 -0.098067 0.43106 -0.89698
-0.019465 -0.014054 0.422 -0.14639 0.4323 -0.88977
-0.019465 -0.013273 0.422 -0.18643 0.43161 -0.88258
-0.019465 -0.012492 0.422 -0.22431 0.43259 -0.87324
-0.019465 -0.011711 0.422 -0.25599 0.43278 -0.86439
-0.019511 -0.010957 0.423 -0.28477 0.44125 -0.851
-0.019511 -0.010174 0.423 -0.30425 0.44647 -0.84148
-0.019511 -0.0093913 0.423 -0.31418 0.45036 -0.83574
-0.019557 -0.008629 0.424 -0.34069 0.46777 -0.81555
-0.019557 -0.0078446 0.424 -0.34783 0.47939 -0.80573
-0.019557 -0.0070601 0.424 -0.36348 0.47863 -0.79925
-0.019603 -0.0062905 0.425 -0.40765 0.49303 -0.76859
-0.019603 -0.0055042 0.425 -0.43192 0.48409 -0.76098
-0.019649 -0.004729 0.426 -0.46725 0.48626 -0.73839
-0.019649 -0.0039408 0.426 -0.47907 0.47501 -0.73814
-0.019696 -0.00316 0.427 -0.48868 0.47379 -0.73261
-0.019696 -0.00237 0.427 -0.48986 0.4633 -0.7385
-0.019742 -0.0015837 0.428 -0.48504 0.44639 -0.75198
-0.019742 -0.00079186 0.428 -0.48337 0.43652 -0.75882
-0.019788 0 0.429 -0.49364 0.41086 -0.7665
-0.019788 0.00079371 0.429 -0.51096 0.37692 -0.77256
-0.019788 0.0015874 0.429 -0.50036 0.3105 -0.80822
-0.019834 0.0023867 0.43 -0.55781 0.29483 -0.77584
-0.019834 0.0031822 0.43 -0.53123 0.20317 -0.8225
-0.01988 0.003987 0.431 -0.5759 0.23431 -0.78322
-0.019972 0.0048067 0.433 -0.69037 0.3515 -0.63233
-0.020018 0.0056207 0.434 -0.69463 0.39646 -0.60025
-0.020065 0.0064385 0.435 -0.66376 0.43538 -0.60816
-0.020111 0.0072599 0.436 -0.5986 0.51308 -0.61516
-0.020157 0.0080851 0.437 -0.56709 0.55626 -0.60744
-0.020203 0.008914 0.438 -0.5389 0.58743 -0.60375
-0.020203 0.0097243 0.438 -0.50946 0.58451 -0.6315
-0.020249 0.010559 0.439 -0.52969 0.57547 -0.6231
-0.020249 0.011371 0.439 -0.48567 0.51673 -0.70506
-0.020987 0.015994 0.455 -0.56738 0.30378 -0.76537
-0.020987 0.016836 0.455 -0.59203 0.33772 -0.73174
-0.021033 0.017717 0.456 -0.47084 0.31885 -0.82258
-0.021079 0.018601 0.457 -0.34115 0.27604 -0.89856
-0.021079 0.019447 0.457 -0.35896 0.30375 -0.88254
-0.021125 0.020337 0.458 -0.28294 0.28137 -0.91694
-0.021125 0.021184 0.458 -0.32133 0.28727 -0.90234
-0.021125 0.022031 0.458 -0.33713 0.27849 -0.89933
-0.021125 0.022879 0.458 -0.30501 0.27275 -0.91246
-0.021172 0.023778 0.459 -0.3814 0.26834 -0.88461
-0.021172 0.024627 0.459 -0.34025 0.26575 -0.902
-0.021218 0.025532 0.46 -0.48093 0.2532 -0.8394
-0.02121 -0.15597 0.479 0.093194 -0.23284 -0.96804
-0.02121 -0.15509 0.479 0.089984 -0.25813 -0.96191
-0.02121 -0.1542 0.479 0.081866 -0.285 -0.95503
-0.02121 -0.15332 0.479 0.063116 -0.32395 -0.94397
-0.02121 -0.15243 0.479 0.054698 -0.34128 -0.93837
-0.02121 -0.15154 0.479 0.058999 -0.36256 -0.93009
-0.02121 -0.15066 0.479 0.059035 -0.38906 -0.91932
-0.02121 -0.14977 0.479 0.06477 -0.4158 -0.90715
-0.02121 -0.14888 0.479 0.070752 -0.44413 -0.89316
-0.02121 -0.148 0.479 0.071428 -0.4723 -0.87854
-0.02121 -0.14711 0.479 0.071621 -0.49481 -0.86604
-0.02121 -0.14623 0.479 0.079819 -0.51391 -0.85412
-0.02121 -0.14357 0.479 0.093962 -0.57681 -0.81146
-0.019085 -0.1228 0.431 -0.059743 0.04835 -0.99704
-0.018996 -0.12144 0.429 -0.58861 -0.24079 -0.77173
-0.018996 -0.12064 0.429 -0.64107 -0.29508 -0.70849
-0.019041 -0.11933 0.43 -0.61267 -0.3121 -0.72611
-0.019085 -0.11881 0.431 -0.56253 -0.25737 -0.7857
-0.019129 -0.11829 0.432 -0.55129 -0.24957 -0.79611
-0.019173 -0.11776 0.433 -0.5171 -0.24912 -0.81887
-0.019173 -0.11696 0.433 -0.52494 -0.26644 -0.80836
-0.019218 -0.11643 0.434 -0.53456 -0.27477 -0.79922
-0.019218 -0.11563 0.434 -0.53711 -0.27625 -0.79699
-0.019262 -0.11509 0.435 -0.51992 -0.25502 -0.81526
-0.019306 -0.11455 0.436 -0.48435 -0.23336 -0.84318
-0.019306 -0.11374 0.436 -0.47096 -0.20316 -0.85844
-0.019351 -0.11319 0.437 -0.40317 -0.13249 -0.90548
-0.019351 -0.11238 0.437 -0.35769 -0.10438 -0.92799
-0.019351 -0.11157 0.437 -0.28443 -0.059662 -0.95684
-0.019351 -0.11077 0.437 -0.18534 -0.0010045 -0.98267
-0.019395 -0.11021 0.438 -0.08927 0.026002 -0.99567
-0.019351 -0.10915 0.437 -0.014354 0.073988 -0.99716
-0.019351 -0.10834 0.437 0.032728 0.10928 -0.99347
-0.019351 -0.10753 0.437 0.081679 0.14076 -0.98667
-0.019351 -0.10672 0.437 0.10405 0.15845 -0.98187
-0.019351 -0.10591 0.437 0.12144 0.18012 -0.97612
-0.019218 -0.062631 0.434 0.63063 0.59395 -0.49953
-0.019173 -0.061685 0.433 0.62147 0.59591 -0.50859
-0.019129 -0.060744 0.432 0.605 0.5934 -0.5309
-0.019085 -0.059806 0.431 0.5798 0.59792 -0.55347
-0.019041 -0.058871 0.43 0.5529 0.60421 -0.57379
-0.018996 -0.057941 0.429 0.53957 0.59629 -0.59439
-0.018952 -0.057014 0.428 0.51898 0.57639 -0.63122
-0.018952 -0.056222 0.428 0.53774 0.59002 -0.60225
-0.018908 -0.055301 0.427 0.50419 0.57871 -0.641
-0.018863 -0.054383 0.426 0.45217 0.55547 -0.69785
-0.018863 -0.053595 0.426 0.43714 0.57905 -0.68819
-0.018819 -0.052683 0.425 0.38096 0.56204 -0.73416
-0.018819 -0.051896 0.425 0.35816 0.57983 -0.73179
-0.018775 -0.05099 0.424 0.28433 0.56589 -0.7739
-0.018775 -0.050205 0.424 0.26216 0.5853 -0.76726
-0.018775 -0.049421 0.424 0.2343 0.59336 -0.77008
-0.018775 -0.048636 0.424 0.20164 0.59877 -0.77512
-0.018775 -0.047852 0.424 0.17366 0.60243 -0.77905
-0.018731 -0.046957 0.423 0.1417 0.59585 -0.79049
-0.018731 -0.046174 0.423 0.12468 0.59942 -0.79066
-0.018731 -0.045391 0.423 0.10915 0.59951 -0.79289
-0.018731 -0.044609 0.423 0.081783 0.59949 -0.7962
-0.018731 -0.043826 0.423 0.055803 0.59949 -0.79844
-0.018731 -0.043043 0.423 0.024687 0.59425 -0.8039
-0.018731 -0.041478 0.423 -0.016357 0.58207 -0.81297
-0.018731 -0.040696 0.423 -0.027652 0.57736 -0.81602
-0.018731 -0.039913 0.423 -0.042446 0.5736 -0.81803
-0.018731 -0.03913 0.423 -0.05465 0.57094 -0.81917
-0.018731 -0.038348 0.423 -0.075627 0.56606 -0.82089
-0.018731 -0.037565 0.423 -0.083521 0.56394 -0.82158
-0.018731 -0.036783 0.423 -0.10024 0.55892 -0.82314
-0.018731 -0.036 0.423 -0.12468 0.55509 -0.82239
-0.018731 -0.035217 0.423 -0.15454 0.54765 -0.82231
-0.018775 -0.034516 0.424 -0.2165 0.5532 -0.80443
-0.018775 -0.033732 0.424 -0.26332 0.54835 -0.79371
-0.018775 -0.032947 0.424 -0.2913 0.54209 -0.78821
-0.018775 -0.032163 0.424 -0.30448 0.53439 -0.78849
-0.018819 -0.031452 0.425 -0.29803 0.5424 -0.78548
-0.018819 -0.030666 0.425 -0.25094 0.53854 -0.80437
-0.018863 -0.02995 0.426 -0.16571 0.52982 -0.83177
-0.018863 -0.029162 0.426 -0.051745 0.5267 -0.84848
-0.018863 -0.028374 0.426 0.088713 0.51562 -0.85222
-0.018863 -0.027586 0.426 0.22382 0.48625 -0.84467
-0.018819 -0.026735 0.425 0.33632 0.45498 -0.82455
-0.018819 -0.025948 0.425 0.40373 0.4256 -0.80986
-0.018775 -0.025103 0.424 0.43798 0.3921 -0.80897
-0.018775 -0.024318 0.424 0.45283 0.38286 -0.80521
-0.018731 -0.023478 0.423 0.43228 0.36755 -0.82343
-0.018731 -0.022696 0.423 0.40779 0.37412 -0.83291
-0.018686 -0.021861 0.422 0.36257 0.3778 -0.85195
-0.018686 -0.02108 0.422 0.31736 0.39058 -0.86413
