-0.04459 -0.065895 0.424 0.19229 -0.75791 -0.62338
-0.04459 -0.06511 0.424 0.21296 -0.75517 -0.61997
-0.044485 -0.063391 0.423 0.15839 -0.72471 -0.6706
-0.044485 -0.062609 0.423 0.16671 -0.72487 -0.66841
-0.044485 -0.061826 0.423 0.16284 -0.72374 -0.67058
-0.04438 -0.060899 0.422 0.14702 -0.67556 -0.7225
-0.04438 -0.059338 0.422 0.11311 -0.67709 -0.72716
-0.04438 -0.058557 0.422 0.095052 -0.67691 -0.7299
-0.04438 -0.057776 0.422 0.060817 -0.67782 -0.7327
-0.04438 -0.056995 0.422 0.013735 -0.67817 -0.73478
-0.04438 -0.055434 0.422 -0.040956 -0.6821 -0.73011
-0.04438 -0.054653 0.422 -0.077049 -0.6785 -0.73055
-0.04438 -0.053872 0.422 -0.095228 -0.67887 -0.72806
-0.04438 -0.053092 0.422 -0.10576 -0.67962 -0.7259
-0.04438 -0.052311 0.422 -0.1349 -0.67456 -0.72579
-0.044485 -0.051652 0.423 -0.15737 -0.71849 -0.6775
-0.044485 -0.05087 0.423 -0.18308 -0.71658 -0.67305
-0.044485 -0.050087 0.423 -0.20265 -0.71271 -0.67154
-0.044485 -0.049304 0.423 -0.23811 -0.69989 -0.6734
-0.04459 -0.048636 0.424 -0.28848 -0.69552 -0.65805
-0.04459 -0.047852 0.424 -0.32113 -0.67731 -0.66191
-0.04459 -0.047068 0.424 -0.35435 -0.65034 -0.67193
-0.044696 -0.046392 0.425 -0.36419 -0.60329 -0.70951
-0.044801 -0.045713 0.426 -0.3419 -0.5164 -0.78513
-0.044906 -0.045031 0.427 -0.27736 -0.39817 -0.87437
-0.044906 -0.044241 0.427 -0.29477 -0.3828 -0.87554
-0.044906 -0.043451 0.427 -0.30157 -0.35411 -0.88525
-0.045011 -0.04276 0.428 -0.19974 -0.23637 -0.95091
-0.045011 -0.041969 0.428 -0.19715 -0.22063 -0.95522
-0.045011 -0.041177 0.428 -0.18492 -0.19547 -0.96312
-0.045011 -0.040385 0.428 -0.16156 -0.1601 -0.97379
-0.045011 -0.039593 0.428 -0.1277 -0.12426 -0.984
-0.045011 -0.038801 0.428 -0.092401 -0.085933 -0.99201
-0.045011 -0.038009 0.428 -0.062583 -0.053048 -0.99663
-0.045011 -0.037217 0.428 -0.035547 -0.02815 -0.99897
-0.045011 -0.036426 0.428 -0.019879 -0.013564 -0.99971
-0.045011 -0.035634 0.428 -0.0062793 -0.0010437 -0.99998
-0.045011 -0.034842 0.428 -0.03869 0.014599 -0.99914
-0.045011 -0.03405 0.428 -0.079267 0.023922 -0.99657
-0.045011 -0.033258 0.428 -0.12048 0.023823 -0.99243
-0.045011 -0.032466 0.428 -0.14999 0.023726 -0.9884
-0.045011 -0.031674 0.428 -0.16211 0.019564 -0.98658
-0.045116 -0.030955 0.429 -0.16775 0.0195 -0.98564
-0.045116 -0.030161 0.429 -0.16274 0.019516 -0.98648
-0.045116 -0.029367 0.429 -0.16175 0.016438 -0.9867
-0.045116 -0.028574 0.429 -0.18667 0.016365 -0.98229
-0.045116 -0.02778 0.429 -0.18963 0.016355 -0.98172
-0.045116 -0.026986 0.429 -0.17076 0.016413 -0.98518
-0.045116 -0.026192 0.429 -0.1916 0.018392 -0.9813
-0.045221 -0.025458 0.43 -0.23872 0.0090787 -0.97104
-0.045221 -0.024662 0.43 -0.27353 0.0089925 -0.96182
-0.045221 -0.023867 0.43 -0.28735 0.0089547 -0.95778
-0.045221 -0.023071 0.43 -0.31713 -0.0029556 -0.94838
-0.045221 -0.022276 0.43 -0.33298 -0.0029386 -0.94293
-0.045327 -0.02153 0.431 -0.34523 -0.017505 -0.93836
-0.045327 -0.020733 0.431 -0.35288 -0.023267 -0.93538
-0.045327 -0.019935 0.431 -0.38047 -0.024911 -0.92446
-0.045432 -0.019182 0.432 -0.4149 -0.02915 -0.9094
-0.045432 -0.018383 0.432 -0.41956 -0.029082 -0.90726
-0.045537 -0.017624 0.433 -0.43855 -0.031503 -0.89815
-0.045537 -0.016823 0.433 -0.48558 -0.012624 -0.8741
-0.045537 -0.016022 0.433 -0.51904 -0.0044089 -0.85474
-0.045642 -0.015256 0.434 -0.53272 0.015676 -0.84615
-0.045642 -0.014453 0.434 -0.55557 0.03591 -0.83069
-0.045747 -0.013682 0.435 -0.57196 0.041222 -0.81924
-0.045747 -0.012877 0.435 -0.58302 0.063214 -0.80999
-0.045852 -0.0121 0.436 -0.59494 0.080574 -0.79972
-0.045852 -0.011293 0.436 -0.59023 0.079632 -0.8033
-0.045958 -0.010511 0.437 -0.60088 0.10022 -0.79303
-0.045958 -0.0097021 0.437 -0.51197 0.12372 -0.85004
-0.046063 -0.008914 0.438 -0.52446 0.13483 -0.84069
-0.046168 -0.0073099 0.439 -0.45714 0.1409 -0.87817
-0.051321 -0.0018057 0.488 0.29983 0.46995 -0.83021
-0.051111 0.0026975 0.486 0.36756 0.47851 -0.79745
-0.051111 0.0035967 0.486 0.39992 0.44855 -0.79929
-0.051111 0.0044958 0.486 0.20465 0.49812 -0.84261
-0.051006 0.0053839 0.485 0.38609 0.43705 -0.81236
-0.048902 0.012905 0.465 0.51895 0.45133 -0.72595
-0.048797 0.013735 0.464 0.46665 0.42058 -0.77804
-0.048692 0.014562 0.463 0.39335 0.38814 -0.83344
-0.048587 0.015386 0.462 0.32234 0.3513 -0.87903
-0.048587 0.016241 0.462 0.33592 0.42613 -0.83999
-0.048587 0.017095 0.462 0.31818 0.47731 -0.8191
-0.048482 0.017911 0.461 0.27768 0.41381 -0.86698
-0.048482 0.018764 0.461 0.21568 0.44371 -0.86983
-0.048482 0.019617 0.461 0.14533 0.47841 -0.86603
-0.048376 0.020426 0.46 0.083001 0.30089 -0.95004
-0.048376 0.021277 0.46 0.022797 0.30365 -0.95251
-0.048482 0.022176 0.461 -0.03632 0.48083 -0.87606
-0.048482 0.023029 0.461 -0.061995 0.4697 -0.88065
-0.048482 0.023882 0.461 -0.060008 0.46261 -0.88453
-0.048482 0.024735 0.461 -0.047493 0.44275 -0.89539
-0.048587 0.025643 0.462 -0.18854 0.53153 -0.82579
-0.043808 -0.097273 0.424 -0.21523 -0.23546 -0.94775
-0.043808 -0.096488 0.424 -0.2459 -0.29248 -0.92412
-0.043808 -0.095704 0.424 -0.27946 -0.34754 -0.89505
-0.043808 -0.09492 0.424 -0.29522 -0.38767 -0.87324
-0.043911 -0.094357 0.425 -0.18653 -0.26478 -0.9461
-0.043911 -0.093571 0.425 -0.20048 -0.31579 -0.92741
-0.043911 -0.092784 0.425 -0.20638 -0.34983 -0.9138
-0.043911 -0.091998 0.425 -0.20208 -0.37706 -0.90387
-0.043911 -0.091212 0.425 -0.19236 -0.3864 -0.90205
-0.043911 -0.090426 0.425 -0.15718 -0.3744 -0.91385
-0.043911 -0.089639 0.425 -0.090784 -0.35668 -0.9298
-0.044015 -0.089062 0.426 -0.18111 -0.43511 -0.88198
-0.044015 -0.088274 0.426 -0.14141 -0.44255 -0.88553
-0.044015 -0.087486 0.426 -0.11433 -0.45522 -0.88301
-0.044015 -0.067782 0.426 0.26772 -0.77173 -0.57685
-0.044015 -0.066994 0.426 0.28808 -0.78867 -0.54314
-0.043911 -0.06605 0.425 0.21923 -0.75075 -0.62315
-0.043911 -0.065264 0.425 0.25418 -0.75395 -0.60576
-0.043911 -0.064477 0.425 0.25779 -0.75869 -0.59827
-0.043808 -0.063541 0.424 0.18383 -0.73073 -0.65745
-0.043808 -0.062757 0.424 0.19197 -0.73932 -0.64541
-0.043705 -0.061826 0.423 0.16374 -0.69109 -0.70397
-0.043705 -0.061043 0.423 0.16466 -0.70152 -0.69337
-0.043705 -0.060261 0.423 0.1551 -0.70571 -0.69132
-0.043705 -0.059478 0.423 0.12034 -0.71316 -0.6906
-0.043601 -0.058557 0.422 0.10524 -0.63153 -0.76817
-0.043601 -0.057776 0.422 0.067289 -0.63941 -0.76592
-0.043705 -0.05713 0.423 0.0089822 -0.72207 -0.69176
-0.043601 -0.056215 0.422 -0.028464 -0.64762 -0.76144
-0.043705 -0.055565 0.423 -0.042578 -0.7261 -0.68627
-0.043705 -0.054783 0.423 -0.072282 -0.72222 -0.68788
-0.043705 -0.054 0.423 -0.096612 -0.71929 -0.68796
-0.043705 -0.053217 0.423 -0.11292 -0.71647 -0.68842
-0.043705 -0.052435 0.423 -0.15147 -0.70952 -0.68821
-0.043705 -0.051652 0.423 -0.15359 -0.70698 -0.69036
-0.043808 -0.05099 0.424 -0.18487 -0.73066 -0.65724
-0.043808 -0.050205 0.424 -0.19668 -0.72439 -0.66074
-0.043808 -0.049421 0.424 -0.23419 -0.70653 -0.66782
-0.043911 -0.048751 0.425 -0.25095 -0.67997 -0.68896
-0.043911 -0.047965 0.425 -0.28099 -0.65688 -0.69968
-0.043911 -0.047179 0.425 -0.31054 -0.62818 -0.71341
-0.044015 -0.046501 0.426 -0.30099 -0.55054 -0.77866
-0.044118 -0.045821 0.427 -0.24879 -0.43888 -0.86342
-0.044118 -0.045031 0.427 -0.26048 -0.41771 -0.87044
-0.044118 -0.044241 0.427 -0.27025 -0.38242 -0.88358
-0.044221 -0.043552 0.428 -0.20275 -0.25991 -0.94411
-0.044221 -0.04276 0.428 -0.18938 -0.23383 -0.95366
-0.044221 -0.041969 0.428 -0.17692 -0.20858 -0.96187
-0.044221 -0.041177 0.428 -0.15841 -0.17724 -0.97133
-0.044221 -0.040385 0.428 -0.13049 -0.13833 -0.98175
-0.044221 -0.039593 0.428 -0.091294 -0.09518 -0.99126
-0.044221 -0.038801 0.428 -0.062549 -0.062376 -0.99609
-0.044221 -0.038009 0.428 -0.042838 -0.038552 -0.99834
-0.044221 -0.037217 0.428 -0.023014 -0.018778 -0.99956
-0.044221 -0.036426 0.428 -0.010465 -0.0062616 -0.99993
-0.044221 -0.035634 0.428 -0.0010466 0.003131 -0.99999
-0.044221 -0.034842 0.428 -0.033468 0.014602 -0.99933
-0.044221 -0.03405 0.428 -0.069923 0.027059 -0.99719
-0.044221 -0.033258 0.428 -0.1133 0.026951 -0.9932
-0.044221 -0.032466 0.428 -0.14492 0.026839 -0.98908
-0.044221 -0.031674 0.428 -0.15907 0.023692 -0.98698
-0.044325 -0.030955 0.429 -0.16673 0.023607 -0.98572
-0.044325 -0.030161 0.429 -0.16373 0.023619 -0.98622
-0.044325 -0.029367 0.429 -0.16473 0.023615 -0.98606
-0.044325 -0.028574 0.429 -0.19158 0.023498 -0.9812
-0.044325 -0.02778 0.429 -0.19651 0.023475 -0.98022
-0.044325 -0.026986 0.429 -0.1797 0.023552 -0.98344
-0.044325 -0.026192 0.429 -0.19159 0.022477 -0.98122
-0.044428 -0.025458 0.43 -0.2349 0.010097 -0.97197
-0.044428 -0.024662 0.43 -0.27074 0.0099997 -0.9626
-0.044428 -0.023867 0.43 -0.2901 0.0049707 -0.95698
-0.044428 -0.023071 0.43 -0.32421 -0.0039308 -0.94598
-0.044428 -0.022276 0.43 -0.33908 -0.0039091 -0.94075
-0.044531 -0.02153 0.431 -0.35463 -0.01744 -0.93485
-0.044531 -0.020733 0.431 -0.36472 -0.022189 -0.93085
-0.044531 -0.019935 0.431 -0.39347 -0.027619 -0.91892
-0.044635 -0.019182 0.432 -0.42806 -0.027088 -0.90335
-0.044635 -0.018383 0.432 -0.42882 -0.027077 -0.90298
-0.044738 -0.017624 0.433 -0.43931 -0.030565 -0.89781
-0.044738 -0.016823 0.433 -0.47508 -0.017244 -0.87977
-0.044738 -0.016022 0.433 -0.50324 -0.012479 -0.86406
-0.044841 -0.015256 0.434 -0.51295 0.0088348 -0.85837
-0.044841 -0.014453 0.434 -0.5376 0.02429 -0.84285
-0.044945 -0.013682 0.435 -0.55311 0.023944 -0.83277
-0.044945 -0.012877 0.435 -0.57031 0.038758 -0.82051
-0.045048 -0.0121 0.436 -0.58889 0.045545 -0.80693
-0.045151 -0.011319 0.437 -0.60399 0.05045 -0.7954
-0.045151 -0.010511 0.437 -0.60511 0.058504 -0.79399
-0.045255 -0.0097243 0.438 -0.62525 0.061064 -0.77803
-0.045255 -0.008914 0.438 -0.54352 0.072915 -0.83622
-0.045255 -0.0081036 0.438 -0.39581 0.077035 -0.91509
-0.050421 -0.0018057 0.488 0.39358 0.44239 -0.80584
-0.050214 0.0026975 0.486 0.34915 0.43656 -0.82916
-0.050111 0.0035893 0.485 0.41596 0.44778 -0.7915
-0.050111 0.0044866 0.485 0.35472 0.43697 -0.82658
-0.050111 0.0053839 0.485 0.23538 0.44029 -0.86645
-0.048044 0.012044 0.465 0.55711 0.35268 -0.75183
-0.047941 0.012877 0.464 0.49185 0.34168 -0.80083
-0.047838 0.013706 0.463 0.4506 0.28716 -0.84528
-0.047838 0.014562 0.463 0.47516 0.35212 -0.80637
-0.047734 0.015386 0.462 0.40164 0.33591 -0.85197
-0.047734 0.016241 0.462 0.38688 0.39784 -0.83189
-0.047631 0.017058 0.461 0.33797 0.3701 -0.86533
-0.047631 0.017911 0.461 0.30838 0.39821 -0.8639
-0.047631 0.018764 0.461 0.23172 0.42753 -0.8738
-0.047528 0.019574 0.46 0.1469 0.3617 -0.92065
-0.047528 0.020426 0.46 0.086952 0.38482 -0.91889
-0.047528 0.021277 0.46 0.021 0.38124 -0.92424
-0.047528 0.022128 0.46 -0.039952 0.37248 -0.92718
-0.047528 0.022979 0.46 -0.068662 0.35703 -0.93157
-0.047631 0.023882 0.461 -0.14322 0.45033 -0.8813
-0.047631 0.024735 0.461 -0.15181 0.43573 -0.88718
-0.047631 0.025587 0.461 -0.12468 0.41888 -0.89944
-0.043026 -0.098057 0.424 -0.23571 -0.26069 -0.93621
-0.043026 -0.097273 0.424 -0.26308 -0.3193 -0.9104
-0.043026 -0.096488 0.424 -0.28895 -0.36943 -0.88319
-0.043026 -0.095704 0.424 -0.31095 -0.40842 -0.8582
-0.043127 -0.095143 0.425 -0.22166 -0.2995 -0.92799
-0.043127 -0.094357 0.425 -0.23056 -0.34419 -0.91015
-0.043127 -0.093571 0.425 -0.23328 -0.37753 -0.89613
-0.043127 -0.092784 0.425 -0.23141 -0.39239 -0.89021
-0.043127 -0.091998 0.425 -0.2133 -0.39865 -0.89195
-0.043127 -0.091212 0.425 -0.18435 -0.38966 -0.90232
-0.043127 -0.090426 0.425 -0.11797 -0.36128 -0.92496
-0.043229 -0.08985 0.426 -0.19095 -0.41075 -0.89153
-0.043229 -0.089062 0.426 -0.14883 -0.40761 -0.90094
-0.043229 -0.088274 0.426 -0.099822 -0.40113 -0.91057
-0.04333 -0.087691 0.427 -0.302 -0.48076 -0.8232
-0.043229 -0.065417 0.426 0.26743 -0.75824 -0.5946
-0.043127 -0.064477 0.425 0.20221 -0.71742 -0.66664
-0.043127 -0.063691 0.425 0.20112 -0.73804 -0.64409
-0.043127 -0.062905 0.425 0.20892 -0.75305 -0.62391
-0.043127 -0.062118 0.425 0.19905 -0.76132 -0.61707
-0.043026 -0.061188 0.424 0.15892 -0.72261 -0.67274
-0.043026 -0.060403 0.424 0.13979 -0.73263 -0.66612
-0.043026 -0.059619 0.424 0.10669 -0.74156 -0.66234
-0.042924 -0.058696 0.423 0.092464 -0.66496 -0.74114
-0.042924 -0.057913 0.423 0.046382 -0.67149 -0.73956
-0.042924 -0.05713 0.423 -0.013793 -0.67162 -0.74077
-0.042924 -0.056348 0.423 -0.042476 -0.67672 -0.73502
-0.042924 -0.055565 0.423 -0.057904 -0.67824 -0.73256
-0.042924 -0.054783 0.423 -0.078962 -0.67456 -0.73398
-0.043026 -0.054128 0.424 -0.092995 -0.74329 -0.66247
-0.043026 -0.053343 0.424 -0.10954 -0.73957 -0.66411
-0.043026 -0.052559 0.424 -0.14948 -0.72844 -0.66861
-0.043026 -0.051774 0.424 -0.16445 -0.72046 -0.67372
-0.043026 -0.05099 0.424 -0.19452 -0.70388 -0.68317
-0.043127 -0.050324 0.425 -0.17608 -0.72326 -0.66775
-0.043127 -0.049537 0.425 -0.19988 -0.70529 -0.68016
-0.043229 -0.048866 0.426 -0.20588 -0.64694 -0.73423
-0.043229 -0.048078 0.426 -0.23246 -0.61969 -0.74963
-0.043229 -0.04729 0.426 -0.25249 -0.5858 -0.77013
-0.04333 -0.046611 0.427 -0.21544 -0.48206 -0.84923
-0.04333 -0.045821 0.427 -0.23001 -0.44784 -0.86402
-0.043432 -0.045136 0.428 -0.15056 -0.31933 -0.93561
-0.043432 -0.044344 0.428 -0.16723 -0.29106 -0.94198
-0.043432 -0.043552 0.428 -0.18207 -0.255 -0.94964
-0.043432 -0.04276 0.428 -0.16254 -0.2144 -0.96313
-0.043432 -0.041969 0.428 -0.14725 -0.17832 -0.97289
-0.043432 -0.041177 0.428 -0.11734 -0.13755 -0.98352
-0.043432 -0.040385 0.428 -0.077941 -0.089125 -0.99297
-0.043432 -0.039593 0.428 -0.051134 -0.056196 -0.99711
-0.043432 -0.038801 0.428 -0.033454 -0.032319 -0.99892
-0.043432 -0.038009 0.428 -0.02197 -0.014606 -0.99965
-0.043432 -0.037217 0.428 -0.012558 -0.0020872 -0.99992
-0.043432 -0.036426 0.428 -0.0062792 0.0073054 -0.99995
-0.043432 -0.035634 0.428 -0.0041859 0.012523 -0.99991
-0.043432 -0.034842 0.428 -0.033462 0.023984 -0.99915
-0.043432 -0.03405 0.428 -0.06782 0.038498 -0.99695
-0.043432 -0.033258 0.428 -0.11531 0.03833 -0.99259
-0.043432 -0.032466 0.428 -0.14489 0.033027 -0.9889
-0.043432 -0.031674 0.428 -0.15604 0.025764 -0.98741
-0.043533 -0.030955 0.429 -0.16573 0.025662 -0.98584
-0.043533 -0.030161 0.429 -0.16472 0.025667 -0.98601
-0.043533 -0.029367 0.429 -0.16771 0.02873 -0.98542
-0.043533 -0.028574 0.429 -0.19648 0.028574 -0.98009
-0.043533 -0.02778 0.429 -0.20335 0.028534 -0.97869
-0.043533 -0.026986 0.429 -0.18859 0.02862 -0.98164
-0.043533 -0.026192 0.429 -0.19158 0.024519 -0.98117
-0.043635 -0.025458 0.43 -0.23107 0.010107 -0.97288
-0.043635 -0.024662 0.43 -0.26795 0.010008 -0.96338
-0.043635 -0.023867 0.43 -0.29284 0.00099328 -0.95616
-0.043635 -0.023071 0.43 -0.33123 -0.0039207 -0.94354
-0.043635 -0.022276 0.43 -0.34513 -0.0038999 -0.93855
-0.043736 -0.02153 0.431 -0.36393 -0.015443 -0.9313
-0.043736 -0.020733 0.431 -0.3764 -0.01824 -0.92628
-0.043736 -0.019935 0.431 -0.40628 -0.026505 -0.91336
-0.043838 -0.019182 0.432 -0.43718 -0.026028 -0.899
-0.043838 -0.018383 0.432 -0.43491 -0.02606 -0.90009
-0.043939 -0.017624 0.433 -0.43782 -0.029664 -0.89857
-0.043939 -0.016823 0.433 -0.46655 -0.018245 -0.88431
-0.044041 -0.016059 0.434 -0.48813 -0.017962 -0.87259
-0.044041 -0.015256 0.434 -0.49434 0.0017894 -0.86927
-0.044041 -0.014453 0.434 -0.52071 0.010544 -0.85367
-0.044041 -0.01365 0.434 -0.53898 0.0086691 -0.84228
-0.044142 -0.012877 0.435 -0.56086 0.0153 -0.82777
-0.044244 -0.0121 0.436 -0.58152 0.015687 -0.81338
-0.044244 -0.011293 0.436 -0.58216 0.025506 -0.81268
-0.044345 -0.010511 0.437 -0.60937 0.017473 -0.79269
-0.044345 -0.0097021 0.437 -0.52971 0.019426 -0.84796
-0.044446 -0.008914 0.438 -0.56095 0.018607 -0.82764
-0.044649 -0.0073265 0.44 -0.67327 0.0065038 -0.73937
-0.04952 -0.0027086 0.488 0.28592 0.57761 -0.7646
-0.049419 -0.001802 0.487 0.30685 0.49065 -0.81554
-0.049317 0.0017983 0.486 0.36404 0.48179 -0.79709
-0.049216 0.002692 0.485 0.36697 0.47827 -0.79787
-0.049216 0.0035893 0.485 0.32374 0.459 -0.82736
-0.049114 0.0053728 0.484 0.35546 0.47221 -0.80664
-0.047085 0.012019 0.464 0.49519 0.2375 -0.83569
-0.046983 0.012849 0.463 0.44176 0.19727 -0.87518
-0.046983 0.013706 0.463 0.50751 0.25551 -0.82289
-0.046882 0.014531 0.462 0.45912 0.21542 -0.86186
-0.046882 0.015386 0.462 0.45006 0.29084 -0.84431
-0.04678 0.016205 0.461 0.40487 0.27357 -0.87249
-0.04678 0.017058 0.461 0.37916 0.31506 -0.87005
-0.046679 0.017872 0.46 0.30992 0.25706 -0.91535
-0.046679 0.018723 0.46 0.25667 0.28799 -0.9226
-0.046679 0.019574 0.46 0.17342 0.3271 -0.92894
-0.046679 0.020426 0.46 0.10033 0.35312 -0.93018
-0.046679 0.021277 0.46 0.014281 0.34869 -0.93713
-0.046679 0.022128 0.46 -0.064172 0.33895 -0.93861
-0.046679 0.022979 0.46 -0.12568 0.32517 -0.93727
-0.046679 0.02383 0.46 -0.11179 0.32548 -0.93892
-0.046679 0.024681 0.46 -0.089304 0.30755 -0.94733
-0.04678 0.025587 0.461 -0.23935 0.36171 -0.90104
-0.042244 -0.099626 0.424 -0.19533 -0.21506 -0.95687
-0.042244 -0.098842 0.424 -0.2462 -0.27606 -0.92907
-0.042244 -0.098057 0.424 -0.28625 -0.33338 -0.89829
-0.042244 -0.097273 0.424 -0.30848 -0.37931 -0.87233
-0.042244 -0.096488 0.424 -0.32571 -0.41146 -0.85124
-0.042343 -0.09593 0.425 -0.25991 -0.32461 -0.90944
-0.042343 -0.095143 0.425 -0.25929 -0.36741 -0.89318
-0.042343 -0.094357 0.425 -0.25377 -0.3893 -0.88547
-0.042343 -0.093571 0.425 -0.24586 -0.39899 -0.88338
-0.042343 -0.092784 0.425 -0.22967 -0.39307 -0.89036
-0.042443 -0.092215 0.426 -0.21403 -0.39601 -0.89296
-0.042443 -0.091426 0.426 -0.209 -0.39465 -0.89475
-0.042443 -0.090638 0.426 -0.1821 -0.38523 -0.90468
-0.042443 -0.08985 0.426 -0.14181 -0.36978 -0.91823
-0.042443 -0.089062 0.426 -0.083499 -0.35303 -0.93188
-0.042542 -0.088481 0.427 -0.26436 -0.44235 -0.857
-0.042542 -0.065571 0.427 0.2778 -0.76165 -0.58542
-0.042443 -0.064629 0.426 0.21305 -0.71673 -0.66401
-0.042443 -0.063841 0.426 0.216 -0.74311 -0.63335
-0.042443 -0.063053 0.426 0.2224 -0.76369 -0.60607
-0.042443 -0.062265 0.426 0.20984 -0.77467 -0.59654
-0.042343 -0.061332 0.425 0.15519 -0.74223 -0.65193
-0.042343 -0.060546 0.425 0.14023 -0.75803 -0.63696
-0.042343 -0.059759 0.425 0.10733 -0.76558 -0.63433
-0.042244 -0.058834 0.424 0.094378 -0.70147 -0.70642
-0.042244 -0.05805 0.424 0.050885 -0.71298 -0.69934
-0.042244 -0.057265 0.424 -0.0080179 -0.71585 -0.69821
-0.042244 -0.056481 0.424 -0.033069 -0.71679 -0.6965
-0.042244 -0.055697 0.424 -0.039603 -0.71463 -0.69838
-0.042244 -0.054912 0.424 -0.071326 -0.70911 -0.70148
-0.042244 -0.054128 0.424 -0.10659 -0.69746 -0.70865
-0.042343 -0.053469 0.425 -0.09817 -0.7552 -0.6481
-0.042343 -0.052683 0.425 -0.13098 -0.74222 -0.65724
-0.042343 -0.051896 0.425 -0.14234 -0.7313 -0.66703
-0.042343 -0.05111 0.425 -0.15847 -0.71836 -0.67739
-0.042443 -0.050442 0.426 -0.14651 -0.6996 -0.69936
-0.042443 -0.049654 0.426 -0.16574 -0.67451 -0.71942
-0.042542 -0.048981 0.427 -0.14921 -0.58916 -0.79412
-0.042542 -0.048191 0.427 -0.17502 -0.55658 -0.81215
-0.042542 -0.047401 0.427 -0.18263 -0.51901 -0.83503
-0.042542 -0.046611 0.427 -0.19287 -0.47392 -0.85919
-0.042642 -0.045928 0.428 -0.12872 -0.35106 -0.92746
-0.042642 -0.045136 0.428 -0.13697 -0.31985 -0.93752
-0.042642 -0.044344 0.428 -0.14774 -0.27632 -0.94964
-0.042642 -0.043552 0.428 -0.1546 -0.23182 -0.96039
-0.042642 -0.04276 0.428 -0.13091 -0.1804 -0.97484
-0.042642 -0.041969 0.428 -0.1083 -0.13063 -0.9855
-0.042642 -0.041177 0.428 -0.065581 -0.079933 -0.99464
-0.042642 -0.040385 0.428 -0.0324 -0.040648 -0.99865
-0.042642 -0.039593 0.428 -0.011511 -0.011479 -0.99987
-0.042642 -0.038801 0.428 0.002093 0.01148 -0.99993
-0.042642 -0.038009 0.428 0.0062772 0.026083 -0.99964
-0.042642 -0.037217 0.428 0.0062754 0.035462 -0.99935
-0.042642 -0.036426 0.428 0.0020914 0.04067 -0.99917
-0.042642 -0.035634 0.428 -0.0073198 0.040669 -0.99915
-0.042642 -0.034842 0.428 -0.037601 0.051037 -0.99799
-0.042642 -0.03405 0.428 -0.073939 0.066464 -0.99505
-0.042642 -0.033258 0.428 -0.11821 0.06618 -0.99078
-0.042642 -0.032466 0.428 -0.14979 0.056661 -0.98709
-0.042642 -0.031674 0.428 -0.16196 0.046294 -0.98571
-0.042642 -0.030883 0.428 -0.17202 0.041089 -0.98424
-0.042742 -0.030161 0.429 -0.16967 0.035891 -0.98485
-0.042742 -0.029367 0.429 -0.17066 0.036909 -0.98464
-0.042742 -0.028574 0.429 -0.20232 0.036684 -0.97863
-0.042742 -0.02778 0.429 -0.21209 0.036606 -0.97656
-0.042742 -0.026986 0.429 -0.20036 0.036699 -0.97903
-0.042742 -0.026192 0.429 -0.2053 0.030557 -0.97822
-0.042742 -0.025399 0.429 -0.24019 0.01516 -0.97061
-0.042841 -0.024662 0.43 -0.27074 0.0099997 -0.9626
-0.042841 -0.023867 0.43 -0.29919 -0.0019825 -0.95419
-0.042841 -0.023071 0.43 -0.33994 -0.0019539 -0.94044
-0.042841 -0.022276 0.43 -0.35539 -0.0067969 -0.93469
-0.042941 -0.02153 0.431 -0.37477 -0.015372 -0.92699
-0.042941 -0.020733 0.431 -0.387 -0.025793 -0.92172
-0.042941 -0.019935 0.431 -0.4156 -0.035794 -0.90884
-0.043041 -0.019182 0.432 -0.44081 -0.035242 -0.89691
-0.043041 -0.018383 0.432 -0.43328 -0.035386 -0.90057
-0.04314 -0.017624 0.433 -0.43543 -0.038969 -0.89938
-0.04314 -0.016823 0.433 -0.45631 -0.030275 -0.88931
-0.04314 -0.016022 0.433 -0.47564 -0.029929 -0.87913
-0.04324 -0.015256 0.434 -0.48195 -0.013526 -0.87609
-0.04324 -0.014453 0.434 -0.50702 -0.013306 -0.86183
-0.04324 -0.01365 0.434 -0.52357 -0.005643 -0.85196
-0.043339 -0.012877 0.435 -0.55239 -0.013369 -0.83348
-0.043439 -0.0121 0.436 -0.57913 -0.022917 -0.81491
-0.043439 -0.011293 0.436 -0.57851 -0.013555 -0.81556
-0.043539 -0.010511 0.437 -0.61384 -0.033794 -0.7887
-0.043638 -0.0097243 0.438 -0.6429 -0.035089 -0.76514
-0.043638 -0.008914 0.438 -0.56571 -0.046757 -0.82328
-0.043738 -0.0081221 0.439 -0.61162 -0.062954 -0.78864
-0.043838 -0.0073265 0.44 -0.67002 -0.068712 -0.73915
-0.04852 -0.001802 0.487 0.38546 0.5186 -0.7632
-0.048321 0.002692 0.485 0.31422 0.46707 -0.82651
-0.048221 0.0035819 0.484 0.41481 0.50503 -0.75688
-0.046229 0.012019 0.464 0.54233 0.22939 -0.80824
-0.046129 0.012849 0.463 0.49833 0.18606 -0.84679
-0.046129 0.013706 0.463 0.53436 0.23741 -0.81123
-0.04603 0.014531 0.462 0.477 0.20521 -0.85461
-0.04593 0.015352 0.461 0.43373 0.19341 -0.88004
-0.04593 0.016205 0.461 0.42621 0.23285 -0.87414
-0.04583 0.017021 0.46 0.37416 0.17845 -0.91003
-0.04583 0.017872 0.46 0.33037 0.21569 -0.91888
-0.04583 0.018723 0.46 0.26349 0.24425 -0.93323
-0.04583 0.019574 0.46 0.186 0.26729 -0.9455
-0.04583 0.020426 0.46 0.11544 0.27607 -0.95418
-0.045731 0.02123 0.459 0.017556 0.23479 -0.97189
-0.04583 0.022128 0.46 -0.058964 0.2887 -0.9556
-0.04583 0.022979 0.46 -0.13492 0.28143 -0.95005
-0.04583 0.02383 0.46 -0.15886 0.27971 -0.94685
-0.04583 0.024681 0.46 -0.15891 0.26621 -0.95072
-0.04583 0.025532 0.46 -0.10295 0.26923 -0.95756
-0.041461 -0.1012 0.424 -0.15474 -0.14895 -0.97666
-0.041461 -0.10041 0.424 -0.19347 -0.21534 -0.95718
-0.041461 -0.099626 0.424 -0.2431 -0.28459 -0.92731
-0.041461 -0.098842 0.424 -0.29016 -0.33891 -0.89496
-0.041461 -0.098057 0.424 -0.32355 -0.38002 -0.86654
-0.041461 -0.097273 0.424 -0.33694 -0.41093 -0.84712
-0.041461 -0.096488 0.424 -0.34204 -0.42951 -0.83578
-0.041559 -0.09593 0.425 -0.29244 -0.36726 -0.88295
-0.041559 -0.095143 0.425 -0.27943 -0.38723 -0.87862
-0.041559 -0.094357 0.425 -0.25109 -0.39317 -0.88452
-0.041657 -0.093791 0.426 -0.23391 -0.40048 -0.88595
-0.041657 -0.093003 0.426 -0.2236 -0.40569 -0.88624
-0.041657 -0.092215 0.426 -0.20166 -0.39355 -0.89691
-0.041657 -0.091426 0.426 -0.18006 -0.37014 -0.91136
-0.041657 -0.090638 0.426 -0.1333 -0.34675 -0.92844
-0.041657 -0.08985 0.426 -0.0748 -0.32505 -0.94273
-0.041755 -0.089271 0.427 -0.23601 -0.43035 -0.87126
-0.041755 -0.088481 0.427 -0.19109 -0.41896 -0.88767
-0.041852 -0.065724 0.428 0.27785 -0.76201 -0.58493
-0.041755 -0.064781 0.427 0.1931 -0.72987 -0.65575
-0.041755 -0.063991 0.427 0.20746 -0.75303 -0.62443
-0.041755 -0.063201 0.427 0.22302 -0.77137 -0.59603
-0.041657 -0.062265 0.426 0.14507 -0.73744 -0.65965
-0.041657 -0.061476 0.426 0.14925 -0.7561 -0.63721
-0.041657 -0.0599 0.426 0.11817 -0.78446 -0.60882
-0.041657 -0.059112 0.426 0.094755 -0.78876 -0.60736
-0.041657 -0.058324 0.426 0.059548 -0.78967 -0.61063
-0.041559 -0.057401 0.425 -0.011128 -0.75039 -0.6609
-0.041559 -0.056614 0.425 -0.039135 -0.75402 -0.65569
-0.041559 -0.055828 0.425 -0.049537 -0.7509 -0.65856
-0.041559 -0.055042 0.425 -0.075562 -0.74401 -0.66388
-0.041657 -0.054383 0.426 -0.060781 -0.76003 -0.64703
-0.041657 -0.053595 0.426 -0.070659 -0.74948 -0.65824
-0.041657 -0.052807 0.426 -0.097763 -0.73515 -0.67082
-0.041657 -0.052019 0.426 -0.10816 -0.72118 -0.68425
-0.041657 -0.05123 0.426 -0.11593 -0.70453 -0.70014
-0.041755 -0.050561 0.427 -0.10364 -0.65309 -0.75016
-0.041755 -0.049771 0.427 -0.11594 -0.62128 -0.77496
-0.041755 -0.048981 0.427 -0.1373 -0.58175 -0.8017
-0.041852 -0.048303 0.428 -0.082256 -0.45917 -0.88453
-0.041852 -0.047512 0.428 -0.10295 -0.42325 -0.90015
-0.041852 -0.04672 0.428 -0.10613 -0.37968 -0.91901
-0.041852 -0.045928 0.428 -0.11158 -0.34085 -0.93347
-0.041852 -0.045136 0.428 -0.11416 -0.29748 -0.94788
-0.041852 -0.044344 0.428 -0.11726 -0.2484 -0.96154
-0.041852 -0.043552 0.428 -0.11911 -0.19898 -0.97274
-0.041852 -0.04276 0.428 -0.091857 -0.13792 -0.98617
-0.041852 -0.041969 0.428 -0.06042 -0.074797 -0.99537
-0.041852 -0.041177 0.428 -0.023006 -0.03337 -0.99918
-0.041852 -0.040385 0.428 0.0052328 -0.003131 -0.99998
-0.041852 -0.039593 0.428 0.023012 0.023991 -0.99945
-0.041852 -0.038801 0.428 0.030309 0.042732 -0.99863
-0.041852 -0.038009 0.428 0.03133 0.05728 -0.99787
-0.041852 -0.037217 0.428 0.020886 0.062485 -0.99783
-0.041755 -0.03634 0.427 0.0052348 0.062643 -0.99802
-0.041852 -0.035634 0.428 -0.010445 0.062495 -0.99799
-0.041852 -0.034842 0.428 -0.046904 0.076918 -0.99593
-0.041852 -0.03405 0.428 -0.08411 0.092161 -0.99219
-0.041852 -0.033258 0.428 -0.12408 0.091774 -0.98802
-0.041852 -0.032466 0.428 -0.15661 0.079116 -0.98449
-0.041852 -0.031674 0.428 -0.16879 0.066712 -0.98339
-0.041852 -0.030883 0.428 -0.17787 0.057416 -0.98238
-0.041852 -0.030091 0.428 -0.17396 0.048247 -0.98357
-0.04195 -0.029367 0.429 -0.17158 0.048155 -0.98399
-0.04195 -0.028574 0.429 -0.20516 0.04784 -0.97756
-0.04195 -0.02778 0.429 -0.21685 0.047717 -0.97504
-0.04195 -0.026986 0.429 -0.20712 0.04782 -0.97715
-0.04195 -0.026192 0.429 -0.21409 0.029483 -0.97637
-0.04195 -0.025399 0.429 -0.24496 0.014132 -0.96943
-0.042048 -0.024662 0.43 -0.27539 0 -0.96133
-0.042048 -0.023867 0.43 -0.30727 -0.013838 -0.95152
-0.042048 -0.023071 0.43 -0.34596 -0.013644 -0.93815
-0.042048 -0.022276 0.43 -0.36377 -0.02225 -0.93122
-0.042146 -0.02153 0.431 -0.38455 -0.026777 -0.92272
-0.042146 -0.020733 0.431 -0.39727 -0.043702 -0.91666
-0.042146 -0.019935 0.431 -0.42532 -0.054306 -0.90341
-0.042244 -0.019182 0.432 -0.44567 -0.053591 -0.89359
-0.042244 -0.018383 0.432 -0.43733 -0.058459 -0.8974
-0.042341 -0.017624 0.433 -0.43428 -0.057497 -0.89894
-0.042341 -0.016823 0.433 -0.44635 -0.052529 -0.89331
-0.042341 -0.016022 0.433 -0.4661 -0.047393 -0.88346
-0.042439 -0.015256 0.434 -0.4733 -0.035332 -0.88019
-0.042439 -0.014453 0.434 -0.49935 -0.039196 -0.86551
-0.042439 -0.01365 0.434 -0.5121 -0.024232 -0.85858
-0.042537 -0.012877 0.435 -0.5528 -0.046465 -0.83202
-0.042635 -0.0121 0.436 -0.58244 -0.055135 -0.811
-0.042635 -0.011293 0.436 -0.58415 -0.045441 -0.81038
-0.042732 -0.010511 0.437 -0.61629 -0.064489 -0.78488
-0.04283 -0.0097243 0.438 -0.64706 -0.064904 -0.75967
-0.04283 -0.008914 0.438 -0.56849 -0.075534 -0.81921
-0.042928 -0.0081221 0.439 -0.60469 -0.09248 -0.79108
-0.043026 -0.0073265 0.44 -0.65981 -0.10459 -0.74411
-0.04547 0.011184 0.465 0.61689 0.28319 -0.73434
-0.045275 0.011993 0.463 0.43318 0.13919 -0.8905
-0.045275 0.012849 0.463 0.51073 0.19924 -0.83633
-0.045177 0.013676 0.462 0.46528 0.16058 -0.87048
-0.045177 0.014531 0.462 0.47556 0.20004 -0.85664
-0.045079 0.015352 0.461 0.4409 0.19154 -0.87688
-0.045079 0.016205 0.461 0.42615 0.20993 -0.87996
-0.044982 0.017021 0.46 0.37518 0.19262 -0.90672
-0.044982 0.017872 0.46 0.32854 0.2105 -0.92073
-0.044982 0.018723 0.46 0.25964 0.2261 -0.93886
-0.044982 0.019574 0.46 0.19141 0.2298 -0.95423
-0.044884 0.020381 0.459 0.12311 0.23991 -0.96296
-0.044884 0.02123 0.459 0.020809 0.24525 -0.96924
-0.044884 0.02208 0.459 -0.058433 0.25282 -0.96575
-0.044982 0.022979 0.46 -0.13727 0.25268 -0.95776
-0.044982 0.02383 0.46 -0.18123 0.25388 -0.95011
-0.044982 0.024681 0.46 -0.18588 0.25329 -0.94936
-0.044982 0.025532 0.46 -0.14691 0.25853 -0.95476
-0.040679 -0.10355 0.424 -0.046024 -0.047555 -0.99781
-0.040679 -0.10276 0.424 -0.089619 -0.085163 -0.99233
-0.040679 -0.10198 0.424 -0.15419 -0.15297 -0.97613
-0.040679 -0.1012 0.424 -0.20905 -0.22274 -0.9522
-0.040679 -0.10041 0.424 -0.24641 -0.28905 -0.92506
-0.040679 -0.099626 0.424 -0.28736 -0.34302 -0.89429
-0.040679 -0.098842 0.424 -0.33115 -0.38525 -0.86135
-0.040679 -0.098057 0.424 -0.35534 -0.41152 -0.83927
-0.040775 -0.097502 0.425 -0.30023 -0.35176 -0.88664
-0.040775 -0.096716 0.425 -0.3065 -0.37751 -0.87381
-0.040775 -0.09593 0.425 -0.30154 -0.39033 -0.8699
-0.040871 -0.095367 0.426 -0.27068 -0.40112 -0.87512
-0.040871 -0.094579 0.426 -0.24522 -0.41577 -0.87579
-0.040871 -0.093791 0.426 -0.22648 -0.41223 -0.88248
-0.040871 -0.093003 0.426 -0.20307 -0.39756 -0.89482
-0.040967 -0.092431 0.427 -0.2526 -0.47434 -0.84333
-0.040967 -0.091641 0.427 -0.24859 -0.46198 -0.85134
-0.040967 -0.090851 0.427 -0.23804 -0.43912 -0.86632
-0.040967 -0.090061 0.427 -0.21416 -0.41528 -0.88413
-0.040967 -0.089271 0.427 -0.17182 -0.39425 -0.9028
-0.040967 -0.062411 0.427 0.11885 -0.75178 -0.64862
-0.040967 -0.059251 0.427 0.10721 -0.78788 -0.60642
-0.040967 -0.058461 0.427 0.078124 -0.78446 -0.61524
-0.040967 -0.057671 0.427 0.051596 -0.77861 -0.62538
-0.040967 -0.056091 0.427 0.0099478 -0.76231 -0.64714
-0.040967 -0.055301 0.427 -0.0042753 -0.75029 -0.6611
-0.040967 -0.054511 0.427 -0.018004 -0.7351 -0.67772
-0.040967 -0.053721 0.427 -0.029617 -0.72075 -0.69257
-0.040967 -0.052931 0.427 -0.053814 -0.69902 -0.71307
-0.040967 -0.052141 0.427 -0.074702 -0.6786 -0.7307
-0.041063 -0.051471 0.428 -0.022671 -0.58772 -0.80875
-0.041063 -0.050679 0.428 -0.046811 -0.57173 -0.8191
-0.041063 -0.049887 0.428 -0.047866 -0.53291 -0.84481
-0.041063 -0.049095 0.428 -0.060769 -0.48943 -0.86992
-0.041063 -0.048303 0.428 -0.076425 -0.4442 -0.89266
-0.041063 -0.047512 0.428 -0.089399 -0.39702 -0.91345
-0.041063 -0.04672 0.428 -0.084197 -0.34428 -0.93508
-0.041063 -0.045928 0.428 -0.08253 -0.29677 -0.95137
-0.041063 -0.045136 0.428 -0.074785 -0.24893 -0.96563
-0.041063 -0.044344 0.428 -0.068605 -0.19504 -0.97839
-0.041063 -0.043552 0.428 -0.062052 -0.14026 -0.98817
-0.041063 -0.04276 0.428 -0.043754 -0.085188 -0.9954
-0.041063 -0.041969 0.428 -0.021963 -0.029203 -0.99933
-0.041063 -0.041177 0.428 0.011512 0.0031308 -0.99993
-0.041063 -0.040385 0.428 0.037637 0.026065 -0.99895
-0.041063 -0.039593 0.428 0.050115 0.047894 -0.99759
-0.041063 -0.038801 0.428 0.055264 0.06551 -0.99632
-0.041063 -0.038009 0.428 0.052098 0.077931 -0.9956
-0.041063 -0.037217 0.428 0.030244 0.078001 -0.99649
-0.041063 -0.036426 0.428 0.0083468 0.078034 -0.99692
-0.041063 -0.035634 0.428 -0.013563 0.07803 -0.99686
-0.041063 -0.034842 0.428 -0.051006 0.09031 -0.99461
-0.041063 -0.03405 0.428 -0.090181 0.1044 -0.99044
-0.041063 -0.033258 0.428 -0.12698 0.10398 -0.98644
-0.041063 -0.032466 0.428 -0.16149 0.089241 -0.98283
-0.041063 -0.031674 0.428 -0.17466 0.075819 -0.9817
-0.041063 -0.030883 0.428 -0.18376 0.063473 -0.98092
-0.041063 -0.030091 0.428 -0.17892 0.051272 -0.98253
-0.041159 -0.029367 0.429 -0.17956 0.046044 -0.98267
-0.041159 -0.028574 0.429 -0.21493 0.045711 -0.97556
-0.041159 -0.02778 0.429 -0.22847 0.045567 -0.97248
-0.041159 -0.026986 0.429 -0.22563 0.040541 -0.97337
-0.041159 -0.026192 0.429 -0.22771 0.01622 -0.97359
-0.041159 -0.025399 0.429 -0.25257 0.002015 -0.96758
-0.041255 -0.024662 0.43 -0.28088 -0.018939 -0.95956
-0.041255 -0.023867 0.43 -0.31428 -0.033509 -0.94874
-0.041255 -0.023071 0.43 -0.35344 -0.037868 -0.93469
-0.041255 -0.022276 0.43 -0.37095 -0.049131 -0.92735
-0.041351 -0.02153 0.431 -0.39467 -0.053238 -0.91728
-0.041351 -0.020733 0.431 -0.40935 -0.070707 -0.90963
-0.041351 -0.019935 0.431 -0.43445 -0.080886 -0.89706
-0.041446 -0.019182 0.432 -0.45134 -0.084507 -0.88834
-0.041446 -0.018383 0.432 -0.44382 -0.088518 -0.89173
-0.041542 -0.017624 0.433 -0.43349 -0.083311 -0.8973
-0.041542 -0.016823 0.433 -0.43782 -0.087692 -0.89477
-0.041542 -0.016022 0.433 -0.45856 -0.083061 -0.88477
-0.041638 -0.015256 0.434 -0.463 -0.076347 -0.88306
-0.041638 -0.014453 0.434 -0.49078 -0.078594 -0.86773
-0.041734 -0.013682 0.435 -0.51996 -0.083801 -0.85007
-0.041734 -0.012877 0.435 -0.54815 -0.083658 -0.83219
-0.04183 -0.0121 0.436 -0.58125 -0.097498 -0.80786
-0.04183 -0.011293 0.436 -0.58269 -0.085017 -0.80824
-0.041926 -0.010511 0.437 -0.61505 -0.10261 -0.78179
-0.042022 -0.0097243 0.438 -0.64582 -0.10659 -0.75601
-0.042022 -0.008914 0.438 -0.5602 -0.11391 -0.82049
-0.042118 -0.0081221 0.439 -0.59096 -0.12781 -0.79651
-0.042214 -0.0073265 0.44 -0.64682 -0.14189 -0.74933
-0.044708 0.010346 0.466 0.66696 0.35563 -0.65474
-0.044613 0.011184 0.465 0.61944 0.30207 -0.7246
-0.044421 0.011993 0.463 0.45232 0.16182 -0.87706
-0.044421 0.012849 0.463 0.51462 0.19644 -0.83461
-0.044325 0.013676 0.462 0.47795 0.14782 -0.86586
-0.044229 0.0145 0.461 0.42988 0.12732 -0.89386
-0.044229 0.015352 0.461 0.44503 0.14793 -0.88321
-0.044229 0.016205 0.461 0.42111 0.15132 -0.8943
-0.044133 0.017021 0.46 0.38117 0.13498 -0.9146
-0.044133 0.017872 0.46 0.32761 0.13885 -0.93455
-0.044133 0.018723 0.46 0.25357 0.13852 -0.95735
-0.044037 0.019532 0.459 0.19161 0.13621 -0.97197
-0.044037 0.020381 0.459 0.12461 0.14051 -0.98221
-0.044037 0.02123 0.459 0.023156 0.14818 -0.98869
-0.044037 0.02208 0.459 -0.050079 0.15366 -0.98685
-0.044037 0.022929 0.459 -0.12438 0.15836 -0.97952
-0.044037 0.023778 0.459 -0.10814 0.16105 -0.981
-0.044037 0.024627 0.459 -0.048235 0.16074 -0.98582
-0.044133 0.025532 0.46 -0.1834 0.17367 -0.96758
-0.039897 -0.10355 0.424 -0.091457 -0.11328 -0.98935
-0.039897 -0.10276 0.424 -0.14785 -0.16883 -0.97449
-0.039897 -0.10198 0.424 -0.21239 -0.24118 -0.94696
-0.039897 -0.1012 0.424 -0.26788 -0.30981 -0.91228
-0.039897 -0.10041 0.424 -0.29885 -0.36387 -0.88221
-0.039897 -0.099626 0.424 -0.32527 -0.39885 -0.85739
-0.039897 -0.098842 0.424 -0.35426 -0.42402 -0.83349
-0.039991 -0.098289 0.425 -0.32153 -0.37162 -0.87093
-0.039991 -0.097502 0.425 -0.32247 -0.39303 -0.86113
-0.039991 -0.096716 0.425 -0.30616 -0.40392 -0.86204
-0.040085 -0.096155 0.426 -0.29778 -0.41091 -0.86167
-0.040085 -0.095367 0.426 -0.26325 -0.42256 -0.86726
-0.040085 -0.094579 0.426 -0.22246 -0.41753 -0.88101
-0.040085 -0.093791 0.426 -0.19313 -0.39846 -0.89662
-0.040179 -0.093221 0.427 -0.25364 -0.47426 -0.84306
-0.040179 -0.092431 0.427 -0.22927 -0.45345 -0.86129
-0.040179 -0.091641 0.427 -0.20857 -0.42494 -0.88087
-0.040179 -0.090851 0.427 -0.18214 -0.39389 -0.90093
-0.040273 -0.090272 0.428 -0.29552 -0.51772 -0.80289
-0.040273 -0.062557 0.428 0.091303 -0.75072 -0.65428
-0.040273 -0.061765 0.428 0.13141 -0.76177 -0.63438
-0.040273 -0.060181 0.428 0.13538 -0.77216 -0.62084
-0.040273 -0.059389 0.428 0.12851 -0.76408 -0.63219
-0.040273 -0.058598 0.428 0.10692 -0.75222 -0.65018
-0.040273 -0.057806 0.428 0.087191 -0.73854 -0.66854
-0.040273 -0.057014 0.428 0.070954 -0.72325 -0.68693
-0.040273 -0.056222 0.428 0.051821 -0.70922 -0.70308
-0.040367 -0.05556 0.429 0.11148 -0.52826 -0.84173
-0.040273 -0.054638 0.428 0.043569 -0.66464 -0.74589
-0.040273 -0.053846 0.428 0.034276 -0.64366 -0.76455
-0.040367 -0.053179 0.429 0.11431 -0.45298 -0.88416
-0.040367 -0.052385 0.429 0.083153 -0.44158 -0.89336
-0.040367 -0.051591 0.429 0.070157 -0.43122 -0.89952
-0.040273 -0.050679 0.428 -0.048645 -0.54427 -0.8375
-0.040273 -0.049887 0.428 -0.041921 -0.4984 -0.86593
-0.040367 -0.04921 0.429 0.036288 -0.35444 -0.93438
-0.040367 -0.048416 0.429 0.023628 -0.31584 -0.94852
-0.040273 -0.047512 0.428 -0.060836 -0.34248 -0.93755
-0.040273 -0.04672 0.428 -0.042082 -0.28577 -0.95737
-0.040273 -0.045928 0.428 -0.02746 -0.23429 -0.97178
-0.040273 -0.045136 0.428 -0.0072053 -0.18066 -0.98352
-0.040273 -0.044344 0.428 -0.0062197 -0.13749 -0.99048
-0.040273 -0.043552 0.428 -0.010417 -0.095574 -0.99537
-0.040273 -0.04276 0.428 -0.0083605 -0.05315 -0.99855
-0.040273 -0.041969 0.428 -0.002093 -0.010436 -0.99994
-0.040273 -0.041177 0.428 0.029288 0.014604 -0.99946
-0.040273 -0.040385 0.428 0.056394 0.033326 -0.99785
-0.040273 -0.039593 0.428 0.067775 0.05303 -0.99629
-0.040273 -0.038801 0.428 0.064625 0.062368 -0.99596
-0.040273 -0.038009 0.428 0.058357 0.071705 -0.99572
-0.040273 -0.037217 0.428 0.033385 0.071788 -0.99686
-0.040273 -0.036426 0.428 0.0083507 0.071825 -0.99738
-0.040273 -0.035634 0.428 -0.0167 0.071818 -0.99728
-0.040273 -0.034842 0.428 -0.052085 0.081028 -0.99535
-0.040273 -0.03405 0.428 -0.090283 0.093137 -0.99155
-0.040273 -0.033258 0.428 -0.12706 0.097866 -0.98705
-0.040273 -0.032466 0.428 -0.16159 0.082111 -0.98344
-0.040273 -0.031674 0.428 -0.17376 0.068695 -0.98239
-0.040273 -0.030883 0.428 -0.18088 0.054319 -0.982
-0.040273 -0.030091 0.428 -0.17898 0.045133 -0.98282
-0.040367 -0.029367 0.429 -0.18261 0.035807 -0.98253
-0.040367 -0.028574 0.429 -0.22084 0.03552 -0.97466
-0.040367 -0.02778 0.429 -0.2372 0.03538 -0.97082
-0.040367 -0.026986 0.429 -0.24204 0.026258 -0.96991
-0.040367 -0.026192 0.429 -0.24498 0.0030285 -0.96952
-0.040367 -0.025399 0.429 -0.26852 -0.014041 -0.96317
-0.040461 -0.024662 0.43 -0.29351 -0.039688 -0.95513
-0.040461 -0.023867 0.43 -0.33154 -0.05869 -0.94161
-0.040461 -0.023071 0.43 -0.36892 -0.066452 -0.92708
-0.040461 -0.022276 0.43 -0.38815 -0.083899 -0.91777
-0.040555 -0.02153 0.431 -0.40787 -0.091329 -0.90846
-0.040555 -0.020733 0.431 -0.41827 -0.10381 -0.90237
-0.040649 -0.019981 0.432 -0.44104 -0.11685 -0.88985
-0.040649 -0.019182 0.432 -0.45236 -0.12419 -0.88314
-0.040649 -0.018383 0.432 -0.44267 -0.12757 -0.88757
-0.040744 -0.017624 0.433 -0.42992 -0.12816 -0.89373
-0.040744 -0.016823 0.433 -0.43197 -0.13162 -0.89223
-0.040838 -0.016059 0.434 -0.4498 -0.12738 -0.884
-0.040838 -0.015256 0.434 -0.46093 -0.12125 -0.87912
-0.040838 -0.014453 0.434 -0.4866 -0.12198 -0.86507
-0.040932 -0.013682 0.435 -0.52131 -0.11803 -0.84517
-0.040932 -0.012877 0.435 -0.5453 -0.11249 -0.83066
-0.041026 -0.0121 0.436 -0.58059 -0.12699 -0.80423
-0.041026 -0.011293 0.436 -0.5807 -0.10722 -0.80702
-0.04112 -0.010511 0.437 -0.61324 -0.12949 -0.77921
-0.041214 -0.0097243 0.438 -0.64042 -0.13993 -0.75517
-0.041308 -0.0089343 0.439 -0.6786 -0.13871 -0.72129
-0.041402 -0.0081406 0.44 -0.70706 -0.1448 -0.69217
-0.045731 -0.0026975 0.486 0.42954 0.49296 -0.75663
-0.045637 -0.0017946 0.485 0.33507 0.53023 -0.77883
-0.045637 -0.00089732 0.485 0.38688 0.47859 -0.78821
-0.045542 0.0017909 0.484 0.32546 0.45336 -0.82978
-0.045448 0.0026809 0.483 0.35507 0.51469 -0.78039
-0.044319 0.0060999 0.471 0.30563 0.91436 -0.26559
-0.043849 0.0094838 0.466 0.62078 0.35275 -0.70014
-0.043755 0.010324 0.465 0.53894 0.36859 -0.75742
-0.043661 0.01116 0.464 0.49761 0.28136 -0.8205
-0.043566 0.011993 0.463 0.44443 0.19391 -0.87457
-0.043566 0.012849 0.463 0.50031 0.19944 -0.84256
-0.043472 0.013676 0.462 0.47251 0.14168 -0.86986
-0.043378 0.0145 0.461 0.42814 0.11222 -0.89672
-0.043378 0.015352 0.461 0.43753 0.11363 -0.892
-0.043284 0.01617 0.46 0.39998 0.092501 -0.91184
-0.043284 0.017021 0.46 0.37329 0.086111 -0.92371
-0.043284 0.017872 0.46 0.31594 0.073485 -0.94593
-0.04319 0.018683 0.459 0.24536 0.068698 -0.967
-0.04319 0.019532 0.459 0.18752 0.061061 -0.98036
-0.04319 0.020381 0.459 0.12087 0.059787 -0.99087
-0.04319 0.02123 0.459 0.02434 0.064079 -0.99765
-0.04319 0.02208 0.459 -0.043774 0.066935 -0.9968
-0.04319 0.022929 0.459 -0.12641 0.078911 -0.98883
-0.04319 0.023778 0.459 -0.1138 0.080564 -0.99023
-0.04319 0.024627 0.459 -0.057265 0.084014 -0.99482
-0.043284 0.025532 0.46 -0.20032 0.088591 -0.97572
-0.039114 -0.10433 0.424 -0.10963 -0.17904 -0.97772
-0.039114 -0.10355 0.424 -0.14838 -0.22288 -0.96349
-0.039114 -0.10276 0.424 -0.20951 -0.28783 -0.93448
-0.039114 -0.10198 0.424 -0.26469 -0.34934 -0.89883
-0.039114 -0.1012 0.424 -0.30883 -0.3908 -0.86712
-0.039114 -0.10041 0.424 -0.32644 -0.4197 -0.84693
-0.039114 -0.099626 0.424 -0.3385 -0.43235 -0.83576
-0.039207 -0.099075 0.425 -0.32197 -0.39436 -0.86071
-0.039207 -0.098289 0.425 -0.32794 -0.41208 -0.85009
-0.039299 -0.097732 0.426 -0.31192 -0.40764 -0.85822
-0.039299 -0.096944 0.426 -0.30135 -0.42716 -0.85248
-0.039299 -0.096155 0.426 -0.28066 -0.43003 -0.85808
-0.039299 -0.095367 0.426 -0.23158 -0.42312 -0.87598
-0.039391 -0.094801 0.427 -0.2728 -0.48019 -0.83366
-0.039391 -0.094011 0.427 -0.25274 -0.46841 -0.84659
-0.039391 -0.093221 0.427 -0.22926 -0.44499 -0.86569
-0.039391 -0.092431 0.427 -0.19073 -0.40441 -0.89447
-0.039391 -0.091641 0.427 -0.16034 -0.36214 -0.91823
-0.039483 -0.091064 0.428 -0.27357 -0.49974 -0.82184
-0.039483 -0.090272 0.428 -0.24556 -0.4744 -0.84537
-0.039668 -0.063645 0.43 0.21036 -0.74554 -0.6324
-0.039668 -0.062849 0.43 0.21919 -0.73502 -0.64165
-0.039576 -0.061909 0.429 0.13115 -0.74278 -0.65656
-0.039576 -0.061116 0.429 0.14413 -0.74323 -0.65332
-0.039576 -0.060322 0.429 0.15081 -0.7335 -0.66275
-0.039576 -0.059528 0.429 0.14549 -0.71328 -0.68561
-0.039576 -0.058735 0.429 0.13558 -0.69089 -0.71013
-0.039576 -0.057941 0.429 0.13576 -0.65972 -0.73915
-0.039576 -0.057147 0.429 0.12556 -0.6301 -0.7663
-0.039576 -0.056353 0.429 0.10199 -0.60739 -0.78783
-0.039576 -0.05556 0.429 0.11375 -0.56634 -0.81629
-0.039576 -0.054766 0.429 0.11445 -0.53274 -0.83851
-0.039576 -0.053972 0.429 0.1107 -0.50409 -0.85653
-0.039576 -0.053179 0.429 0.09947 -0.47473 -0.87449
-0.039576 -0.052385 0.429 0.067782 -0.4509 -0.89
-0.039576 -0.051591 0.429 0.053514 -0.42049 -0.90572
-0.039576 -0.050797 0.429 0.037103 -0.3985 -0.91642
-0.039576 -0.050004 0.429 0.036795 -0.36513 -0.93023
-0.039576 -0.04921 0.429 0.040347 -0.31662 -0.94769
-0.039576 -0.048416 0.429 0.031204 -0.26955 -0.96248
-0.039576 -0.047623 0.429 0.02021 -0.22338 -0.97452
-0.039576 -0.046829 0.429 0.020485 -0.19305 -0.98097
-0.039483 -0.045928 0.428 0.032047 -0.15258 -0.98777
-0.039483 -0.045136 0.428 0.043643 -0.11088 -0.99288
-0.039483 -0.044344 0.428 0.036491 -0.079019 -0.99621
-0.039483 -0.043552 0.428 0.019856 -0.050024 -0.99855
-0.039483 -0.04276 0.428 0.011508 -0.025039 -0.99962
-0.039483 -0.041969 0.428 0.010465 0.0010436 -0.99994
-0.039483 -0.041177 0.428 0.038689 0.016684 -0.99911
-0.039483 -0.040385 0.428 0.061613 0.023952 -0.99781
-0.039483 -0.039593 0.428 0.06783 0.034342 -0.99711
-0.039483 -0.038801 0.428 0.064698 0.040585 -0.99708
-0.039483 -0.038009 0.428 0.058444 0.046834 -0.99719
-0.039391 -0.03713 0.427 0.033513 0.046997 -0.99833
-0.039391 -0.03634 0.427 0.0083826 0.047022 -0.99886
-0.039483 -0.035634 0.428 -0.016724 0.046907 -0.99876
-0.039483 -0.034842 0.428 -0.04698 0.052055 -0.99754
-0.039483 -0.03405 0.428 -0.081209 0.061258 -0.99481
-0.039483 -0.033258 0.428 -0.12026 0.065134 -0.9906
-0.039483 -0.032466 0.428 -0.15687 0.054547 -0.98611
-0.039483 -0.031674 0.428 -0.17098 0.047248 -0.98414
-0.039483 -0.030883 0.428 -0.18003 0.036932 -0.98297
-0.039483 -0.030091 0.428 -0.18007 0.030783 -0.98317
-0.039576 -0.029367 0.429 -0.18567 0.017391 -0.98246
-0.039576 -0.028574 0.429 -0.22578 0.017241 -0.97403
-0.039576 -0.02778 0.429 -0.24399 0.017163 -0.96963
-0.039576 -0.026986 0.429 -0.2554 0.0050335 -0.96682
-0.039576 -0.026192 0.429 -0.2582 -0.015087 -0.96597
-0.039576 -0.025399 0.429 -0.27954 -0.032972 -0.95957
-0.039668 -0.024662 0.43 -0.30592 -0.056276 -0.95039
-0.039668 -0.023867 0.43 -0.34837 -0.077632 -0.93414
-0.039668 -0.023071 0.43 -0.38396 -0.087846 -0.91916
-0.039668 -0.022276 0.43 -0.40477 -0.1094 -0.90785
-0.03976 -0.02153 0.431 -0.42061 -0.11931 -0.89936
-0.03976 -0.020733 0.431 -0.43065 -0.1305 -0.89303
-0.039852 -0.019981 0.432 -0.45109 -0.14479 -0.88066
-0.039852 -0.019182 0.432 -0.45542 -0.15501 -0.87668
-0.039852 -0.018383 0.432 -0.44625 -0.16199 -0.88012
-0.039945 -0.017624 0.433 -0.42953 -0.16841 -0.88721
-0.039945 -0.016823 0.433 -0.43123 -0.1753 -0.88505
-0.040037 -0.016059 0.434 -0.44458 -0.17191 -0.87909
-0.040037 -0.015256 0.434 -0.45533 -0.17174 -0.8736
-0.040037 -0.014453 0.434 -0.47444 -0.16712 -0.86428
-0.040129 -0.013682 0.435 -0.51353 -0.16445 -0.84217
-0.040129 -0.012877 0.435 -0.53179 -0.15292 -0.83296
-0.040221 -0.0121 0.436 -0.57764 -0.16958 -0.79848
-0.040221 -0.011293 0.436 -0.57672 -0.14412 -0.80413
-0.040314 -0.010511 0.437 -0.60373 -0.16413 -0.78011
-0.040406 -0.0097243 0.438 -0.63242 -0.18587 -0.752
-0.040498 -0.0089343 0.439 -0.66321 -0.18545 -0.72509
-0.040683 -0.0073432 0.441 -0.71996 -0.18963 -0.66761
-0.044649 -0.0035819 0.484 0.038251 0.64033 -0.76714
-0.044649 -0.0026864 0.484 0.16358 0.61576 -0.77077
-0.044649 -0.0017909 0.484 0.27899 0.56933 -0.77332
-0.044557 0.00089362 0.483 0.34637 0.54464 -0.7638
-0.044557 0.0017872 0.483 0.34553 0.49345 -0.7982
-0.044465 0.0026753 0.482 0.40495 0.55903 -0.72354
-0.043266 0.0052063 0.469 0.43364 0.73279 -0.52438
-0.043173 0.0060611 0.468 0.50277 0.60499 -0.61742
-0.042989 0.0086216 0.466 0.60098 0.3534 -0.71689
-0.042897 0.0094635 0.465 0.50042 0.38156 -0.77717
-0.042804 0.010302 0.464 0.40137 0.36241 -0.84116
-0.042804 0.01116 0.464 0.47154 0.32121 -0.82126
-0.042712 0.011993 0.463 0.43555 0.21115 -0.87505
-0.042712 0.012849 0.463 0.46957 0.20104 -0.8597
-0.04262 0.013676 0.462 0.45476 0.13046 -0.88101
-0.042528 0.0145 0.461 0.41703 0.086156 -0.9048
-0.042528 0.015352 0.461 0.42075 0.076893 -0.90391
-0.042528 0.016205 0.461 0.38873 0.055252 -0.91969
-0.042435 0.017021 0.46 0.35562 0.033559 -0.93403
-0.042435 0.017872 0.46 0.2983 0.017607 -0.95431
-0.042343 0.018683 0.459 0.22984 0.0047356 -0.97322
-0.042343 0.019532 0.459 0.18138 -0.0066992 -0.98339
-0.042343 0.020381 0.459 0.12012 -0.013525 -0.99267
-0.042343 0.02123 0.459 0.024388 -0.012647 -0.99962
-0.042343 0.02208 0.459 -0.042896 -0.012639 -0.999
-0.042343 0.022929 0.459 -0.12013 -0.0019323 -0.99276
-0.042343 0.023778 0.459 -0.10425 -0.0010647 -0.99455
-0.042343 0.024627 0.459 -0.051273 -0.0011879 -0.99868
-0.042435 0.025532 0.46 -0.20111 0.0026159 -0.97957
-0.038332 -0.10512 0.424 -0.12942 -0.2137 -0.96829
-0.038332 -0.10433 0.424 -0.17955 -0.25879 -0.9491
-0.038332 -0.10355 0.424 -0.22324 -0.31291 -0.92317
-0.038332 -0.10276 0.424 -0.27274 -0.36754 -0.88912
-0.038332 -0.10198 0.424 -0.30878 -0.40475 -0.86072
-0.038332 -0.1012 0.424 -0.33611 -0.42234 -0.84182
-0.038332 -0.10041 0.424 -0.33966 -0.43278 -0.83507
-0.038332 -0.099626 0.424 -0.33927 -0.43077 -0.83626
-0.038423 -0.099075 0.425 -0.32767 -0.41798 -0.8473
-0.038513 -0.09852 0.426 -0.3105 -0.42025 -0.85263
-0.038513 -0.097732 0.426 -0.30379 -0.43302 -0.84865
-0.038513 -0.096944 0.426 -0.28067 -0.43659 -0.85476
-0.038603 -0.096381 0.427 -0.31769 -0.47121 -0.82282
-0.038603 -0.095591 0.427 -0.28703 -0.46928 -0.8351
-0.038603 -0.094801 0.427 -0.25375 -0.45229 -0.85501
-0.038603 -0.094011 0.427 -0.22139 -0.42387 -0.87825
-0.038603 -0.093221 0.427 -0.18305 -0.3841 -0.90497
-0.038694 -0.092648 0.428 -0.27953 -0.48892 -0.82633
-0.038965 -0.063793 0.431 0.24374 -0.69637 -0.67502
-0.038965 -0.062995 0.431 0.26407 -0.67552 -0.68843
-0.038965 -0.062198 0.431 0.27221 -0.64466 -0.71437
-0.038965 -0.061401 0.431 0.27965 -0.59305 -0.75504
-0.038875 -0.060463 0.43 0.17782 -0.67065 -0.72014
-0.038875 -0.059667 0.43 0.17776 -0.63549 -0.75137
-0.038875 -0.058871 0.43 0.17945 -0.59904 -0.78035
-0.038875 -0.058076 0.43 0.19915 -0.54162 -0.81669
-0.038875 -0.05728 0.43 0.18736 -0.49832 -0.84651
-0.038875 -0.056485 0.43 0.14813 -0.47489 -0.86749
-0.038875 -0.055689 0.43 0.15199 -0.42007 -0.89467
-0.038875 -0.054894 0.43 0.1766 -0.36732 -0.91318
-0.038875 -0.054098 0.43 0.19898 -0.31607 -0.92763
-0.038875 -0.053302 0.43 0.18963 -0.29502 -0.93648
-0.038784 -0.052385 0.429 0.070247 -0.40594 -0.91119
-0.038784 -0.051591 0.429 0.054313 -0.36355 -0.92999
-0.038784 -0.050797 0.429 0.045117 -0.33434 -0.94137
-0.038784 -0.050004 0.429 0.048777 -0.29781 -0.95338
-0.038784 -0.04921 0.429 0.059586 -0.24675 -0.96725
-0.038784 -0.048416 0.429 0.057243 -0.19572 -0.97899
-0.038784 -0.047623 0.429 0.058756 -0.14803 -0.98724
-0.038784 -0.046829 0.429 0.072432 -0.11248 -0.99101
