-0.024151 -0.022794 0.385 -0.51593 -0.40821 -0.75311
-0.024151 -0.022081 0.385 -0.53569 -0.38 -0.75408
-0.024151 -0.021369 0.385 -0.48224 -0.35877 -0.7992
-0.024214 -0.02071 0.386 -0.49646 -0.35543 -0.79196
-0.024214 -0.019996 0.386 -0.38116 -0.34194 -0.85895
-0.024339 -0.019382 0.388 -0.65248 -0.30317 -0.69452
-0.025531 -0.018825 0.407 -0.096023 -0.31909 -0.94285
-0.025531 -0.017319 0.407 -0.1916 -0.30225 -0.93377
-0.025531 -0.01506 0.407 -0.23239 -0.29182 -0.92781
-0.025531 -0.014307 0.407 -0.24859 -0.2805 -0.92711
-0.025594 -0.013587 0.408 -0.21516 -0.28889 -0.93287
-0.025594 -0.012833 0.408 -0.24137 -0.29135 -0.92567
-0.025594 -0.012078 0.408 -0.25803 -0.29654 -0.9195
-0.025594 -0.011323 0.408 -0.26228 -0.30565 -0.91531
-0.025594 -0.010568 0.408 -0.27025 -0.30943 -0.91171
-0.025657 -0.0098372 0.409 -0.29064 -0.31744 -0.90264
-0.025657 -0.0090805 0.409 -0.31792 -0.31802 -0.89319
-0.025657 -0.0083238 0.409 -0.34733 -0.32136 -0.88096
-0.025657 -0.0075671 0.409 -0.38545 -0.31621 -0.86686
-0.02572 -0.006827 0.41 -0.41911 -0.30718 -0.85439
-0.02572 -0.0060685 0.41 -0.4477 -0.30253 -0.84145
-0.025782 -0.0053228 0.411 -0.46868 -0.29743 -0.83179
-0.025782 -0.0045624 0.411 -0.49715 -0.28661 -0.81896
-0.025845 -0.0038113 0.412 -0.5181 -0.26933 -0.81181
-0.025845 -0.003049 0.412 -0.53307 -0.26012 -0.80509
-0.025908 -0.0022923 0.413 -0.538 -0.25179 -0.80446
-0.025908 -0.0015282 0.413 -0.53488 -0.25565 -0.80532
-0.02597 -0.00076596 0.414 -0.5617 -0.23252 -0.79399
-0.02597 0 0.414 -0.52774 -0.2553 -0.81013
-0.026033 0.00076781 0.415 -0.58408 -0.22 -0.78132
-0.026096 0.002309 0.416 -0.56877 -0.22924 -0.78991
-0.026159 0.003086 0.417 -0.63478 -0.19141 -0.74861
-0.028982 0.014531 0.462 0.36284 -0.021429 -0.9316
-0.028919 0.015352 0.461 0.2863 0.2593 -0.92238
-0.028919 0.017058 0.461 0.17393 0.19778 -0.96469
-0.028856 0.017872 0.46 0.14564 0.39212 -0.90831
-0.028793 0.018683 0.459 0.18196 0.51927 -0.83501
-0.028731 0.019489 0.458 0.33257 0.54511 -0.76958
-0.028229 0.024977 0.45 0.46336 0.5861 -0.66467
-0.028166 0.025752 0.449 0.40786 0.53109 -0.74269
-0.028166 0.026583 0.449 0.3506 0.60712 -0.71308
-0.028103 0.027352 0.448 0.28929 0.49943 -0.81663
-0.028041 0.028945 0.447 0.26785 0.39928 -0.87683
-0.028103 0.029839 0.448 0.092771 0.58243 -0.80757
-0.028103 0.030668 0.448 0.020407 0.58706 -0.80928
-0.028103 0.031497 0.448 -0.051909 0.58259 -0.81111
-0.026607 -0.11643 0.437 0.33605 -0.84356 -0.41891
-0.026546 -0.11535 0.436 0.33449 -0.81474 -0.47362
-0.026424 -0.11322 0.434 0.37335 -0.70881 -0.59849
-0.026424 -0.11241 0.434 0.33655 -0.76197 -0.5533
-0.026363 -0.11135 0.433 0.35747 -0.71082 -0.60576
-0.02338 -0.025576 0.384 -0.38496 -0.59259 -0.70756
-0.02338 -0.024866 0.384 -0.42185 -0.56477 -0.70928
-0.02338 -0.024155 0.384 -0.42715 -0.55 -0.71766
-0.023441 -0.023506 0.385 -0.43263 -0.51042 -0.74317
-0.023441 -0.022794 0.385 -0.48362 -0.46836 -0.73943
-0.023502 -0.022139 0.386 -0.49619 -0.46508 -0.73315
-0.023502 -0.021425 0.386 -0.48007 -0.45437 -0.75039
-0.023502 -0.02071 0.386 -0.39673 -0.4496 -0.80029
-0.023563 -0.020048 0.387 -0.46483 -0.43529 -0.77101
-0.023624 -0.019382 0.388 -0.55928 -0.41156 -0.7196
-0.023624 -0.018664 0.388 -0.46784 -0.4206 -0.77732
-0.02478 -0.018825 0.407 -0.18135 -0.31883 -0.9303
-0.024841 -0.015852 0.408 -0.13599 -0.32569 -0.93565
-0.02478 -0.01506 0.407 -0.2469 -0.29822 -0.92201
-0.024841 -0.014342 0.408 -0.20203 -0.30666 -0.93013
-0.024841 -0.013587 0.408 -0.22478 -0.30795 -0.92447
-0.024841 -0.012833 0.408 -0.24971 -0.31319 -0.91627
-0.024841 -0.012078 0.408 -0.26147 -0.32098 -0.91028
-0.024841 -0.011323 0.408 -0.26308 -0.32695 -0.90768
-0.024902 -0.010594 0.409 -0.27181 -0.33414 -0.90248
-0.024902 -0.0098372 0.409 -0.28911 -0.34011 -0.89484
-0.024902 -0.0090805 0.409 -0.31318 -0.33656 -0.88806
-0.024963 -0.0083441 0.41 -0.34388 -0.33624 -0.87675
-0.024963 -0.0075856 0.41 -0.37965 -0.32962 -0.86442
-0.024963 -0.006827 0.41 -0.41615 -0.32236 -0.85024
-0.025024 -0.0060833 0.411 -0.43816 -0.3172 -0.84107
-0.025024 -0.0053228 0.411 -0.46276 -0.30886 -0.83094
-0.025085 -0.0045735 0.412 -0.48967 -0.2953 -0.82038
-0.025085 -0.0038113 0.412 -0.51163 -0.27453 -0.81417
-0.025146 -0.0030564 0.413 -0.52583 -0.26568 -0.80803
-0.025146 -0.0022923 0.413 -0.52897 -0.25413 -0.8097
-0.025207 -0.0015319 0.414 -0.5515 -0.22986 -0.80188
-0.025207 -0.00076596 0.414 -0.54697 -0.2363 -0.80311
-0.025268 0 0.415 -0.59453 -0.20334 -0.77794
-0.025268 0.00076781 0.415 -0.55425 -0.22375 -0.80171
-0.025328 0.0015393 0.416 -0.62559 -0.1919 -0.75618
-0.025328 0.002309 0.416 -0.53169 -0.22228 -0.81725
-0.025389 0.003086 0.417 -0.60909 -0.18261 -0.77179
-0.025511 0.003876 0.419 -0.77916 -0.1083 -0.6174
-0.028068 0.012794 0.461 0.32097 0.38192 -0.86667
-0.028007 0.017021 0.46 0.23937 0.36594 -0.89932
-0.028007 0.017872 0.46 0.089663 0.37243 -0.92372
-0.027946 0.018683 0.459 0.076406 0.5448 -0.83508
-0.027825 0.019447 0.457 0.39906 0.62317 -0.67262
-0.027399 0.024144 0.45 0.52171 0.55736 -0.64588
-0.027338 0.024921 0.449 0.47347 0.51983 -0.71106
-0.027338 0.025752 0.449 0.43331 0.60836 -0.66493
-0.027277 0.026524 0.448 0.36583 0.55467 -0.74734
-0.027216 0.027291 0.447 0.33487 0.48086 -0.81033
-0.027216 0.028118 0.447 0.30741 0.53716 -0.78547
-0.027216 0.028945 0.447 0.2231 0.54203 -0.8102
-0.027216 0.029772 0.447 0.11805 0.53545 -0.83628
-0.027216 0.030599 0.447 0.042516 0.53147 -0.84601
-0.027216 0.031426 0.447 -0.032774 0.52342 -0.85144
-0.022554 -0.02827 0.382 -0.47399 -0.58564 -0.65755
-0.022613 -0.027636 0.383 -0.35943 -0.63988 -0.67924
-0.022613 -0.026927 0.383 -0.42384 -0.59068 -0.68663
-0.022731 -0.023506 0.385 -0.4217 -0.53958 -0.72871
-0.02279 -0.022139 0.386 -0.459 -0.51764 -0.72206
-0.02279 -0.021425 0.386 -0.3992 -0.51276 -0.76008
-0.02279 -0.02071 0.386 -0.27793 -0.50678 -0.81605
-0.022849 -0.020048 0.387 -0.34606 -0.51093 -0.78689
-0.022908 -0.019382 0.388 -0.45712 -0.49557 -0.73855
-0.02403 -0.019578 0.407 -0.23801 -0.34002 -0.9098
-0.024089 -0.017362 0.408 -0.068686 -0.34917 -0.93454
-0.024089 -0.016607 0.408 -0.124 -0.34493 -0.9304
-0.024089 -0.015852 0.408 -0.17559 -0.33979 -0.92396
-0.024089 -0.015097 0.408 -0.20105 -0.33899 -0.91906
-0.024089 -0.014342 0.408 -0.22371 -0.33564 -0.91504
-0.024089 -0.013587 0.408 -0.23602 -0.3418 -0.90965
-0.024089 -0.012833 0.408 -0.25706 -0.34652 -0.90214
-0.024089 -0.012078 0.408 -0.26385 -0.35188 -0.89809
-0.024148 -0.011351 0.409 -0.26314 -0.35641 -0.89651
-0.024148 -0.010594 0.409 -0.27095 -0.35897 -0.89315
-0.024148 -0.0098372 0.409 -0.28715 -0.35722 -0.88879
-0.024207 -0.0091027 0.41 -0.30865 -0.35397 -0.88286
-0.024207 -0.0083441 0.41 -0.33848 -0.35181 -0.87273
-0.024207 -0.0075856 0.41 -0.37761 -0.34378 -0.85978
-0.024266 -0.0068437 0.411 -0.41365 -0.32853 -0.84909
-0.024266 -0.0060833 0.411 -0.4327 -0.31973 -0.84294
-0.024266 -0.0053228 0.411 -0.45802 -0.30813 -0.83383
-0.024325 -0.0045735 0.412 -0.48198 -0.29358 -0.82554
-0.024325 -0.0038113 0.412 -0.50069 -0.27897 -0.81944
-0.024384 -0.0030564 0.413 -0.52011 -0.27073 -0.81005
-0.024384 -0.0022923 0.413 -0.5223 -0.25996 -0.81217
-0.024443 -0.0015319 0.414 -0.53993 -0.24464 -0.80537
-0.024443 -0.00076596 0.414 -0.53494 -0.23951 -0.81023
-0.024502 0 0.415 -0.57216 -0.22071 -0.78989
-0.024561 0.00076966 0.416 -0.63919 -0.19843 -0.74301
-0.024561 0.0015393 0.416 -0.59389 -0.21065 -0.77648
-0.02462 0.0023145 0.417 -0.65838 -0.19122 -0.72799
-0.02462 0.003086 0.417 -0.57258 -0.20025 -0.79502
-0.027159 0.017021 0.46 0.23068 0.29523 -0.92716
-0.027041 0.017795 0.458 0.20555 0.64042 -0.74001
-0.026982 0.018601 0.457 0.28475 0.68695 -0.6686
-0.026923 0.019404 0.456 0.47862 0.6895 -0.54361
-0.026568 0.023312 0.45 0.55336 0.53417 -0.6391
-0.026509 0.024091 0.449 0.51382 0.49798 -0.69857
-0.02645 0.024866 0.448 0.46577 0.45617 -0.75826
-0.02645 0.025695 0.448 0.42127 0.53842 -0.72982
-0.026391 0.026464 0.447 0.38043 0.49935 -0.77841
-0.026391 0.027291 0.447 0.32441 0.56797 -0.75642
-0.026332 0.028056 0.446 0.3443 0.5021 -0.79332
-0.021963 -0.028418 0.384 -0.19086 -0.71755 -0.66984
-0.021963 -0.027708 0.384 -0.28283 -0.67595 -0.68052
-0.021963 -0.026997 0.384 -0.36119 -0.62912 -0.68829
-0.021963 -0.026287 0.384 -0.41099 -0.58333 -0.70058
-0.021963 -0.025576 0.384 -0.42841 -0.5447 -0.72095
-0.02202 -0.024931 0.385 -0.37341 -0.59516 -0.71158
-0.02202 -0.024218 0.385 -0.38936 -0.56154 -0.73012
-0.02202 -0.023506 0.385 -0.4079 -0.50704 -0.7593
-0.022077 -0.022853 0.386 -0.42535 -0.56337 -0.7083
-0.022077 -0.022139 0.386 -0.39973 -0.53596 -0.74362
-0.022077 -0.021425 0.386 -0.28142 -0.5293 -0.8004
-0.022135 -0.020764 0.387 -0.3171 -0.54396 -0.77689
-0.022192 -0.0201 0.388 -0.41888 -0.54559 -0.72586
-0.022192 -0.019382 0.388 -0.34272 -0.53247 -0.77396
-0.023336 -0.018871 0.408 -0.04925 -0.3626 -0.93064
-0.023336 -0.018117 0.408 -0.083876 -0.36882 -0.92571
-0.023336 -0.017362 0.408 -0.12949 -0.36734 -0.92103
-0.023336 -0.016607 0.408 -0.17811 -0.36248 -0.91481
-0.023336 -0.015852 0.408 -0.20882 -0.3634 -0.90793
-0.023336 -0.015097 0.408 -0.21471 -0.36826 -0.90459
-0.023336 -0.014342 0.408 -0.23375 -0.37128 -0.89862
-0.023336 -0.013587 0.408 -0.23402 -0.37476 -0.8971
-0.023393 -0.012864 0.409 -0.22666 -0.37884 -0.89728
-0.023393 -0.012107 0.409 -0.25504 -0.37805 -0.88996
-0.023393 -0.011351 0.409 -0.26513 -0.37867 -0.88674
-0.023393 -0.010594 0.409 -0.27073 -0.37642 -0.88601
-0.02345 -0.0098612 0.41 -0.28843 -0.37037 -0.88297
-0.02345 -0.0091027 0.41 -0.30673 -0.36897 -0.87737
-0.02345 -0.0083441 0.41 -0.33903 -0.35987 -0.86923
-0.023507 -0.0076041 0.411 -0.37564 -0.34658 -0.85952
-0.023507 -0.0068437 0.411 -0.40659 -0.33048 -0.85174
-0.023507 -0.0060833 0.411 -0.42431 -0.32195 -0.84635
-0.023565 -0.0053358 0.412 -0.44381 -0.31235 -0.83992
-0.023565 -0.0045735 0.412 -0.47269 -0.29686 -0.82972
-0.023622 -0.0038205 0.413 -0.49119 -0.2841 -0.82342
-0.023622 -0.0030564 0.413 -0.51342 -0.27359 -0.81336
-0.023622 -0.0022923 0.413 -0.51522 -0.26292 -0.81574
-0.023679 -0.0015319 0.414 -0.53251 -0.25022 -0.80859
-0.023736 -0.00076781 0.415 -0.55723 -0.23912 -0.79519
-0.023736 0 0.415 -0.55298 -0.22932 -0.80102
-0.023793 0.00076966 0.416 -0.61412 -0.22252 -0.7572
-0.023793 0.0015393 0.416 -0.55647 -0.22124 -0.80087
-0.023851 0.0023145 0.417 -0.6255 -0.21062 -0.75126
-0.023851 0.003086 0.417 -0.52774 -0.20165 -0.82513
-0.026138 0.011837 0.457 -0.11664 0.69986 -0.70469
-0.026196 0.014405 0.458 0.20955 0.68287 -0.69984
-0.026196 0.015253 0.458 0.27809 0.64111 -0.7153
-0.026196 0.0161 0.458 0.28613 0.61666 -0.73339
-0.026138 0.01691 0.457 0.31184 0.69393 -0.64901
-0.026081 0.017717 0.456 0.40793 0.73263 -0.54483
-0.026024 0.01852 0.455 0.46337 0.69628 -0.54816
-0.025967 0.019319 0.454 0.57977 0.61918 -0.52961
-0.025624 0.023208 0.448 0.48557 0.34783 -0.80202
-0.025624 0.024037 0.448 0.50213 0.43734 -0.74605
-0.025624 0.024866 0.448 0.49016 0.51443 -0.70364
-0.025566 0.025637 0.447 0.42802 0.48058 -0.7654
-0.025566 0.026464 0.447 0.35806 0.54991 -0.75458
-0.025509 0.02723 0.446 0.34105 0.52965 -0.77663
-0.02131 -0.029204 0.385 -0.047769 -0.73746 -0.6737
-0.02131 -0.028492 0.385 -0.12895 -0.7247 -0.67689
-0.02131 -0.02778 0.385 -0.2085 -0.69373 -0.68939
-0.02131 -0.027068 0.385 -0.28809 -0.66382 -0.69018
-0.02131 -0.026355 0.385 -0.35008 -0.62412 -0.69852
-0.02131 -0.025643 0.385 -0.39072 -0.57729 -0.71699
-0.021365 -0.024995 0.386 -0.33506 -0.64242 -0.68923
-0.021365 -0.024281 0.386 -0.37046 -0.60984 -0.70061
-0.021365 -0.023567 0.386 -0.408 -0.56981 -0.71334
-0.021421 -0.022912 0.387 -0.40586 -0.59426 -0.69436
-0.021421 -0.022196 0.387 -0.40603 -0.55172 -0.72852
-0.021421 -0.02148 0.387 -0.33444 -0.5291 -0.77987
-0.021476 -0.020818 0.388 -0.38934 -0.56453 -0.72782
-0.021476 -0.0201 0.388 -0.32381 -0.54193 -0.77554
-0.021531 -0.019432 0.389 -0.43902 -0.54163 -0.71687
-0.022583 -0.018871 0.408 -0.12908 -0.38716 -0.91293
-0.022583 -0.018117 0.408 -0.16094 -0.39611 -0.90399
-0.022583 -0.017362 0.408 -0.19674 -0.39329 -0.89812
-0.022583 -0.016607 0.408 -0.22554 -0.39094 -0.89236
-0.022583 -0.015097 0.408 -0.22148 -0.3994 -0.88962
-0.022638 -0.014377 0.409 -0.18842 -0.39619 -0.89863
-0.022638 -0.013621 0.409 -0.2113 -0.4009 -0.89142
-0.022638 -0.012864 0.409 -0.24353 -0.40104 -0.8831
-0.022638 -0.012107 0.409 -0.25819 -0.39733 -0.88061
-0.022694 -0.011378 0.41 -0.26146 -0.39686 -0.87985
-0.022694 -0.01062 0.41 -0.26713 -0.39383 -0.87951
-0.022694 -0.0098612 0.41 -0.28568 -0.38527 -0.87747
-0.022694 -0.0091027 0.41 -0.3052 -0.38045 -0.87299
-0.022749 -0.0083645 0.411 -0.33366 -0.36949 -0.86727
-0.022749 -0.0076041 0.411 -0.36845 -0.35247 -0.86024
-0.022749 -0.0068437 0.411 -0.39612 -0.33938 -0.85318
-0.022804 -0.0060981 0.412 -0.41547 -0.32593 -0.84921
-0.022804 -0.0053358 0.412 -0.44221 -0.31343 -0.84036
-0.022804 -0.0045735 0.412 -0.47327 -0.29756 -0.82914
-0.02286 -0.0038205 0.413 -0.48989 -0.28831 -0.82273
-0.02286 -0.0030564 0.413 -0.51384 -0.27902 -0.81124
-0.022915 -0.0022979 0.414 -0.51828 -0.26715 -0.81241
-0.022915 -0.0015319 0.414 -0.52776 -0.25246 -0.81101
-0.02297 -0.00076781 0.415 -0.54652 -0.24766 -0.79999
-0.02297 0 0.415 -0.52763 -0.22356 -0.81953
-0.023026 0.00076966 0.416 -0.57953 -0.23503 -0.78032
-0.023026 0.0015393 0.416 -0.50303 -0.21451 -0.83723
-0.023081 0.0023145 0.417 -0.57361 -0.22003 -0.78903
-0.025295 0.013528 0.457 0.15939 0.75911 -0.63115
-0.025295 0.014374 0.457 0.25393 0.74255 -0.61978
-0.025295 0.016065 0.457 0.37194 0.65995 -0.65279
-0.025185 0.017678 0.455 0.39101 0.72863 -0.56233
-0.025129 0.018479 0.454 0.44737 0.68361 -0.57666
-0.025074 0.019277 0.453 0.56657 0.59643 -0.56857
-0.025018 0.02007 0.452 0.61208 0.53924 -0.57843
-0.024852 0.021599 0.449 0.56721 0.32829 -0.75531
-0.024852 0.022429 0.449 0.56345 0.45195 -0.69157
-0.024797 0.023208 0.448 0.51379 0.41901 -0.74863
-0.024742 0.023983 0.447 0.46855 0.39218 -0.79162
-0.024742 0.02481 0.447 0.47035 0.45473 -0.7563
-0.024686 0.02558 0.446 0.42536 0.43773 -0.79212
-0.024686 0.026405 0.446 0.36802 0.49933 -0.78436
-0.024686 0.02723 0.446 0.29668 0.53829 -0.78881
-0.024631 0.027993 0.445 0.28519 0.49252 -0.82225
-0.024631 0.032932 0.445 -0.069168 0.44606 -0.89233
-0.020653 -0.027852 0.386 -0.14387 -0.73637 -0.66111
-0.020653 -0.027138 0.386 -0.22098 -0.71441 -0.66392
-0.020653 -0.026424 0.386 -0.28595 -0.67601 -0.67915
-0.020653 -0.02571 0.386 -0.34424 -0.63199 -0.69432
-0.020653 -0.024995 0.386 -0.37305 -0.59311 -0.71348
-0.020707 -0.024344 0.387 -0.32699 -0.6632 -0.67324
-0.020707 -0.023628 0.387 -0.37245 -0.61728 -0.693
-0.020707 -0.022912 0.387 -0.41368 -0.54703 -0.72776
-0.02076 -0.021536 0.388 -0.35883 -0.58237 -0.72944
-0.020814 -0.020871 0.389 -0.42033 -0.62548 -0.65733
-0.020867 -0.020204 0.39 -0.50234 -0.64109 -0.58022
-0.02183 -0.018117 0.408 -0.24415 -0.42317 -0.87254
-0.02183 -0.017362 0.408 -0.25858 -0.42606 -0.86696
-0.021884 -0.015134 0.409 -0.18803 -0.42647 -0.88474
-0.021884 -0.014377 0.409 -0.21668 -0.43535 -0.8738
-0.021884 -0.013621 0.409 -0.2275 -0.43315 -0.87214
-0.021884 -0.012864 0.409 -0.24887 -0.43298 -0.86637
-0.021937 -0.012137 0.41 -0.24427 -0.41981 -0.87412
-0.021937 -0.011378 0.41 -0.25873 -0.41833 -0.87067
-0.021937 -0.01062 0.41 -0.26686 -0.40963 -0.87235
-0.021937 -0.0098612 0.41 -0.28299 -0.39909 -0.87215
-0.021991 -0.0091249 0.411 -0.29975 -0.39068 -0.87036
-0.021991 -0.0083645 0.411 -0.32707 -0.37518 -0.86733
-0.021991 -0.0076041 0.411 -0.35691 -0.35498 -0.86406
-0.021991 -0.0068437 0.411 -0.38518 -0.34029 -0.85781
-0.022044 -0.0060981 0.412 -0.40933 -0.32693 -0.8518
-0.022044 -0.0053358 0.412 -0.43667 -0.31678 -0.84201
-0.022098 -0.0045846 0.413 -0.4636 -0.30581 -0.8316
-0.022098 -0.0038205 0.413 -0.48274 -0.29597 -0.82424
-0.022098 -0.0030564 0.413 -0.50521 -0.2834 -0.81514
-0.022151 -0.0022979 0.414 -0.51466 -0.28326 -0.80925
-0.022151 -0.0015319 0.414 -0.51545 -0.26773 -0.81402
-0.022205 -0.00076781 0.415 -0.53259 -0.26526 -0.80373
-0.022205 0 0.415 -0.4947 -0.23646 -0.83628
-0.022258 0.00076966 0.416 -0.54148 -0.27066 -0.79595
-0.022258 0.0015393 0.416 -0.43831 -0.25845 -0.86086
-0.022312 0.0023145 0.417 -0.51455 -0.26883 -0.81423
-0.024345 0.014311 0.455 0.12983 0.76597 -0.62963
-0.024345 0.015153 0.455 0.25034 0.74797 -0.61472
-0.024399 0.016873 0.456 0.47494 0.64898 -0.59436
-0.024292 0.017639 0.454 0.40921 0.69946 -0.58592
-0.024238 0.018438 0.453 0.46716 0.64135 -0.60863
-0.024185 0.019234 0.452 0.57627 0.53627 -0.61671
-0.024131 0.020026 0.451 0.6066 0.47332 -0.63875
-0.024077 0.020814 0.45 0.60803 0.43848 -0.66184
-0.024024 0.021599 0.449 0.5841 0.4071 -0.70221
-0.02397 0.022379 0.448 0.54537 0.38596 -0.74405
-0.02397 0.023208 0.448 0.55104 0.44581 -0.70542
-0.023917 0.023983 0.447 0.50696 0.42123 -0.75204
-0.023863 0.024755 0.446 0.46662 0.41056 -0.78339
-0.023863 0.02558 0.446 0.42155 0.45649 -0.78352
-0.02381 0.026346 0.445 0.37761 0.43537 -0.81723
-0.02381 0.027169 0.445 0.31973 0.47042 -0.82248
-0.02381 0.027993 0.445 0.24999 0.48579 -0.83756
-0.02381 0.032109 0.445 -0.11625 0.46855 -0.87576
-0.02381 0.032932 0.445 -0.11941 0.4579 -0.88095
-0.019941 -0.027852 0.386 -0.28026 -0.68193 -0.67559
-0.019993 -0.027208 0.387 -0.16517 -0.75234 -0.63773
-0.019993 -0.025776 0.387 -0.28638 -0.67709 -0.67789
-0.019993 -0.02506 0.387 -0.32786 -0.63302 -0.70128
-0.019993 -0.024344 0.387 -0.36049 -0.58277 -0.7283
-0.020044 -0.023689 0.388 -0.34349 -0.66912 -0.65901
-0.020044 -0.022971 0.388 -0.38766 -0.60555 -0.695
-0.020096 -0.022311 0.389 -0.39218 -0.67725 -0.62252
-0.020148 -0.021647 0.39 -0.43159 -0.71779 -0.54636
-0.020148 -0.020925 0.39 -0.42631 -0.67725 -0.59966
-0.020148 -0.020204 0.39 -0.40203 -0.63869 -0.65609
-0.021129 -0.018918 0.409 -0.039868 -0.43024 -0.90184
-0.021129 -0.015891 0.409 -0.1956 -0.45335 -0.86961
-0.021129 -0.015134 0.409 -0.20411 -0.45253 -0.86808
-0.021129 -0.014377 0.409 -0.23121 -0.45567 -0.8596
-0.021181 -0.013654 0.41 -0.20801 -0.44203 -0.87255
-0.021181 -0.012895 0.41 -0.22699 -0.44185 -0.8679
-0.021181 -0.012137 0.41 -0.24552 -0.43518 -0.86622
-0.021181 -0.011378 0.41 -0.25442 -0.43104 -0.86572
-0.021181 -0.01062 0.41 -0.25644 -0.42244 -0.86936
-0.021232 -0.0098853 0.411 -0.2767 -0.40918 -0.86948
-0.021232 -0.0091249 0.411 -0.2901 -0.39896 -0.86987
-0.021232 -0.0083645 0.411 -0.31852 -0.38268 -0.86724
-0.021232 -0.0076041 0.411 -0.34498 -0.36471 -0.86486
-0.021284 -0.0068603 0.412 -0.37058 -0.34902 -0.86073
-0.021284 -0.0060981 0.412 -0.39866 -0.33746 -0.85275
-0.021284 -0.0053358 0.412 -0.43032 -0.32504 -0.84212
-0.021336 -0.0045846 0.413 -0.45734 -0.31484 -0.8317
-0.021336 -0.0038205 0.413 -0.48011 -0.30823 -0.82127
-0.021387 -0.0030638 0.414 -0.51076 -0.30752 -0.80284
-0.021387 -0.0022979 0.414 -0.50972 -0.30032 -0.80622
-0.021439 -0.0015356 0.415 -0.52868 -0.30013 -0.79399
-0.021439 -0.00076781 0.415 -0.50886 -0.27971 -0.81414
-0.021439 0 0.415 -0.4512 -0.24139 -0.85916
-0.021491 0.00076966 0.416 -0.49625 -0.29703 -0.81579
-0.021491 0.0015393 0.416 -0.35885 -0.29274 -0.8863
-0.021542 0.0023145 0.417 -0.43335 -0.30894 -0.84662
-0.023454 0.016799 0.454 0.44831 0.67363 -0.58758
-0.023402 0.0176 0.453 0.46306 0.62761 -0.62584
-0.023351 0.018398 0.452 0.48834 0.56207 -0.66754
-0.023299 0.019191 0.451 0.57332 0.45623 -0.68056
-0.023247 0.019981 0.45 0.59571 0.40277 -0.69491
-0.023247 0.020814 0.45 0.6105 0.4618 -0.64346
-0.023196 0.021599 0.449 0.60061 0.42817 -0.67523
-0.023144 0.022379 0.448 0.57529 0.39953 -0.71374
-0.023092 0.023156 0.447 0.53656 0.37423 -0.75634
-0.023041 0.02393 0.446 0.49525 0.36426 -0.7887
-0.023041 0.024755 0.446 0.48739 0.39758 -0.77742
-0.022989 0.025523 0.445 0.44373 0.37732 -0.81286
-0.022989 0.026346 0.445 0.39004 0.41414 -0.82241
-0.022937 0.027108 0.444 0.37992 0.35732 -0.85322
-0.022937 0.02793 0.444 0.30246 0.37232 -0.87744
-0.022937 0.028751 0.444 0.21178 0.39439 -0.8942
-0.022937 0.032858 0.444 -0.16198 0.30467 -0.93858
-0.020325 -0.030194 0.408 -0.13013 -0.7382 -0.66191
-0.020375 -0.029512 0.409 -0.034255 -0.65146 -0.75791
-0.019328 -0.025125 0.388 -0.2799 -0.69459 -0.66272
-0.019328 -0.024407 0.388 -0.32368 -0.6456 -0.69169
-0.019378 -0.02375 0.389 -0.31534 -0.72745 -0.60941
-0.019428 -0.022368 0.39 -0.36481 -0.73699 -0.56899
-0.019428 -0.021647 0.39 -0.36024 -0.69632 -0.62078
-0.019428 -0.020925 0.39 -0.33314 -0.66141 -0.67197
-0.020375 -0.021188 0.409 -0.028342 -0.49059 -0.87093
-0.020375 -0.020431 0.409 -0.063477 -0.47461 -0.8779
-0.020375 -0.017404 0.409 -0.1708 -0.48375 -0.85838
-0.020375 -0.016648 0.409 -0.19592 -0.48002 -0.8551
-0.020375 -0.015891 0.409 -0.21884 -0.47362 -0.85311
-0.020424 -0.015171 0.41 -0.18549 -0.44905 -0.87404
-0.020424 -0.014413 0.41 -0.20949 -0.4551 -0.86545
-0.020424 -0.013654 0.41 -0.21889 -0.45568 -0.86281
-0.020424 -0.012895 0.41 -0.23285 -0.45389 -0.86009
-0.020474 -0.012167 0.411 -0.23078 -0.44647 -0.86453
-0.020474 -0.011406 0.411 -0.24369 -0.44193 -0.86331
-0.020474 -0.010646 0.411 -0.24923 -0.43307 -0.86622
-0.020474 -0.0098853 0.411 -0.2648 -0.42062 -0.86773
-0.020474 -0.0091249 0.411 -0.27418 -0.40872 -0.8705
-0.020474 -0.0083645 0.411 -0.29886 -0.39706 -0.86777
-0.020524 -0.0076226 0.412 -0.33141 -0.38012 -0.86353
-0.020524 -0.0068603 0.412 -0.36036 -0.36958 -0.85647
-0.020524 -0.0060981 0.412 -0.39212 -0.35982 -0.84662
-0.020574 -0.0053488 0.413 -0.42559 -0.35323 -0.83313
-0.020574 -0.0045846 0.413 -0.45578 -0.3482 -0.81916
-0.020624 -0.0038298 0.414 -0.47236 -0.34503 -0.81107
-0.020624 -0.0030638 0.414 -0.50455 -0.33633 -0.79518
-0.020624 -0.0022979 0.414 -0.49656 -0.32617 -0.80439
-0.020673 -0.0015356 0.415 -0.51737 -0.33665 -0.78676
-0.020673 -0.00076781 0.415 -0.47245 -0.31798 -0.822
-0.020723 0 0.416 -0.51405 -0.36681 -0.77537
-0.020773 0.00077151 0.417 -0.56532 -0.3764 -0.73399
-0.020773 0.001543 0.417 -0.46067 -0.39113 -0.79674
-0.022566 0.016762 0.453 0.4494 0.61313 -0.64971
-0.022517 0.017562 0.452 0.46611 0.5529 -0.69068
-0.022467 0.018357 0.451 0.49387 0.48458 -0.72199
-0.022417 0.019149 0.45 0.54975 0.3978 -0.73452
-0.022417 0.019981 0.45 0.60344 0.42715 -0.67335
-0.022367 0.020768 0.449 0.59887 0.39192 -0.6984
-0.022317 0.02155 0.448 0.58492 0.3457 -0.73373
-0.022268 0.022329 0.447 0.56117 0.3224 -0.76233
-0.022268 0.023156 0.447 0.56088 0.36185 -0.74463
-0.022218 0.02393 0.446 0.52129 0.34901 -0.77875
-0.022168 0.024699 0.445 0.48616 0.31962 -0.81332
-0.022168 0.025523 0.445 0.46035 0.34897 -0.81627
-0.022118 0.026287 0.444 0.45118 0.293 -0.84296
-0.022118 0.027108 0.444 0.39543 0.31391 -0.86319
-0.022118 0.02793 0.444 0.28974 0.34435 -0.89301
-0.022068 0.028686 0.443 0.24723 0.21285 -0.94529
-0.022118 0.029573 0.444 0.080325 0.39385 -0.91566
-0.022118 0.032037 0.444 -0.15675 0.33473 -0.92918
-0.022118 0.032858 0.444 -0.22913 0.28595 -0.93045
-0.019668 -0.030342 0.41 0.017877 -0.57591 -0.81732
-0.019668 -0.029584 0.41 0.015096 -0.56672 -0.82377
-0.019668 -0.028825 0.41 0.015495 -0.56001 -0.82834
-0.019668 -0.027308 0.41 0.043644 -0.54402 -0.83794
-0.018661 -0.02519 0.389 -0.2575 -0.72423 -0.63967
-0.018708 -0.024533 0.39 -0.25782 -0.78872 -0.55807
-0.018708 -0.023811 0.39 -0.30766 -0.74826 -0.58774
-0.019668 -0.024274 0.41 0.046069 -0.48975 -0.87065
-0.01962 -0.018918 0.409 -0.18535 -0.54177 -0.81984
-0.01962 -0.018161 0.409 -0.20994 -0.53986 -0.81515
-0.019668 -0.017447 0.41 -0.081236 -0.49112 -0.8673
-0.019668 -0.016688 0.41 -0.1312 -0.49116 -0.86113
-0.019668 -0.01593 0.41 -0.1773 -0.48748 -0.85494
-0.019668 -0.015171 0.41 -0.19819 -0.47806 -0.85568
-0.019668 -0.014413 0.41 -0.21736 -0.47987 -0.84999
-0.019668 -0.013654 0.41 -0.22446 -0.47616 -0.85023
-0.019716 -0.012927 0.411 -0.21658 -0.46528 -0.85826
-0.019716 -0.012167 0.411 -0.22368 -0.46262 -0.85788
-0.019716 -0.011406 0.411 -0.2288 -0.4554 -0.86039
-0.019716 -0.010646 0.411 -0.23115 -0.44408 -0.86566
-0.019716 -0.0098853 0.411 -0.2455 -0.42819 -0.8697
-0.019764 -0.0091471 0.412 -0.25513 -0.41012 -0.87562
-0.019764 -0.0083848 0.412 -0.28173 -0.3992 -0.8725
-0.019764 -0.0076226 0.412 -0.32243 -0.38529 -0.86463
-0.019764 -0.0068603 0.412 -0.35401 -0.3799 -0.85461
-0.019812 -0.0061129 0.413 -0.39114 -0.3746 -0.84064
-0.019812 -0.0053488 0.413 -0.42199 -0.37071 -0.82734
-0.019812 -0.0045846 0.413 -0.45164 -0.35696 -0.81768
-0.01986 -0.0038298 0.414 -0.47323 -0.36453 -0.80198
-0.01986 -0.0030638 0.414 -0.49968 -0.35244 -0.79127
-0.019908 -0.0023034 0.415 -0.51043 -0.37842 -0.77217
-0.019908 -0.0015356 0.415 -0.49247 -0.3644 -0.79038
-0.019956 -0.00076966 0.416 -0.52551 -0.42126 -0.73917
-0.019956 0 0.416 -0.44251 -0.43339 -0.78509
-0.020004 0.00077151 0.417 -0.48098 -0.45156 -0.7515
-0.020004 0.001543 0.417 -0.33392 -0.47638 -0.81336
-0.021587 0.0099907 0.45 -0.33102 0.60516 -0.72402
-0.021635 0.010847 0.451 -0.26293 0.66779 -0.69636
-0.021587 0.011656 0.45 -0.35383 0.47724 -0.80439
-0.021683 0.014216 0.452 -0.0077894 0.6572 -0.75367
-0.021683 0.015889 0.452 0.27569 0.59725 -0.75319
-0.021683 0.016725 0.452 0.41447 0.56187 -0.7159
-0.021635 0.017523 0.451 0.4247 0.50801 -0.74937
-0.021587 0.018316 0.45 0.44715 0.44354 -0.77675
-0.021587 0.019149 0.45 0.55935 0.42708 -0.71045
-0.021539 0.019937 0.449 0.58092 0.36497 -0.72755
-0.021539 0.020768 0.449 0.60436 0.38754 -0.6961
-0.021491 0.02155 0.448 0.60142 0.3444 -0.72089
-0.021443 0.022329 0.447 0.58388 0.31749 -0.74718
-0.021395 0.023105 0.446 0.552 0.3029 -0.77689
-0.021347 0.023876 0.445 0.49946 0.28269 -0.81892
-0.021347 0.024699 0.445 0.49548 0.30768 -0.8123
-0.021299 0.025465 0.444 0.45526 0.27602 -0.84649
-0.021299 0.026287 0.444 0.42835 0.2962 -0.85369
-0.021299 0.027108 0.444 0.36072 0.31637 -0.87738
-0.021251 0.027867 0.443 0.32102 0.21566 -0.92219
-0.021251 0.028686 0.443 0.20461 0.25087 -0.94615
-0.021251 0.029506 0.443 0.083979 0.2934 -0.95229
-0.021251 0.030326 0.443 -0.020848 0.30433 -0.95234
-0.021251 0.031145 0.443 -0.10407 0.27954 -0.95448
-0.021251 0.031965 0.443 -0.19359 0.22029 -0.95603
-0.021299 0.032858 0.444 -0.22476 0.3175 -0.92124
-0.018958 -0.031177 0.411 0.15486 -0.55723 -0.81579
-0.018958 -0.030416 0.411 0.13254 -0.5309 -0.83701
-0.018958 -0.029656 0.411 0.1042 -0.50306 -0.85795
-0.018958 -0.028895 0.411 0.062416 -0.47757 -0.87637
-0.018958 -0.028135 0.411 0.045473 -0.46523 -0.88402
-0.018958 -0.027375 0.411 0.0087628 -0.45659 -0.88963
-0.018958 -0.026614 0.411 -0.030515 -0.44549 -0.89477
-0.018958 -0.025854 0.411 -0.019753 -0.43006 -0.90258
-0.018958 -0.025093 0.411 -0.0011305 -0.41936 -0.90782
-0.018911 -0.024274 0.41 0.047988 -0.59911 -0.79923
-0.018911 -0.018964 0.41 -0.056579 -0.56192 -0.82526
-0.018911 -0.018205 0.41 -0.10005 -0.55773 -0.82397
-0.018911 -0.017447 0.41 -0.13403 -0.55524 -0.82082
-0.018911 -0.016688 0.41 -0.16874 -0.5504 -0.81767
-0.018911 -0.01593 0.41 -0.20208 -0.5403 -0.81684
-0.018911 -0.015171 0.41 -0.20911 -0.52413 -0.82557
-0.018958 -0.014448 0.411 -0.20378 -0.50157 -0.84078
-0.018958 -0.013687 0.411 -0.20791 -0.49697 -0.84249
-0.018958 -0.012927 0.411 -0.21267 -0.4917 -0.84439
-0.018958 -0.012167 0.411 -0.21287 -0.48304 -0.84933
-0.018958 -0.011406 0.411 -0.20721 -0.47285 -0.85643
-0.019004 -0.010672 0.412 -0.20388 -0.46004 -0.86417
-0.019004 -0.0099093 0.412 -0.21485 -0.44268 -0.87056
-0.019004 -0.0091471 0.412 -0.22841 -0.42613 -0.87535
-0.019004 -0.0083848 0.412 -0.26484 -0.41596 -0.86996
-0.019004 -0.0076226 0.412 -0.30334 -0.39913 -0.86526
-0.01905 -0.006877 0.413 -0.34732 -0.40136 -0.84751
-0.01905 -0.0061129 0.413 -0.3895 -0.39133 -0.83376
-0.01905 -0.0053488 0.413 -0.41655 -0.37946 -0.82613
-0.019096 -0.0045957 0.414 -0.46278 -0.39999 -0.7911
-0.019096 -0.0038298 0.414 -0.46997 -0.39513 -0.7893
-0.019142 -0.0030712 0.415 -0.51423 -0.42202 -0.74664
-0.019142 -0.0023034 0.415 -0.49333 -0.42366 -0.7597
-0.019188 -0.0015393 0.416 -0.52795 -0.46512 -0.71059
-0.019188 -0.00076966 0.416 -0.4593 -0.48501 -0.74418
-0.019234 0 0.417 -0.47936 -0.50033 -0.72103
-0.01928 0.00077336 0.418 -0.52821 -0.51448 -0.67551
-0.02071 0.0099685 0.449 -0.39631 0.56958 -0.72008
-0.020756 0.010823 0.45 -0.29158 0.62423 -0.72479
-0.020803 0.014185 0.451 -0.049372 0.59903 -0.7992
-0.020803 0.015019 0.451 0.066363 0.57871 -0.81283
-0.020803 0.015854 0.451 0.20849 0.55265 -0.80692
-0.020803 0.017523 0.451 0.44472 0.49985 -0.74322
-0.020756 0.018316 0.45 0.4587 0.45247 -0.76476
-0.020756 0.019149 0.45 0.55303 0.4183 -0.72054
-0.02071 0.019937 0.449 0.58291 0.3695 -0.72366
-0.020664 0.020722 0.448 0.5873 0.32449 -0.74147
-0.020618 0.021502 0.447 0.58696 0.28542 -0.75764
-0.020572 0.022279 0.446 0.57384 0.26498 -0.77491
-0.020572 0.023105 0.446 0.56954 0.28405 -0.77132
-0.020526 0.023876 0.445 0.51805 0.26747 -0.81245
-0.020526 0.024699 0.445 0.49845 0.28484 -0.81879
-0.02048 0.025465 0.444 0.44696 0.26059 -0.85576
-0.02048 0.026287 0.444 0.40746 0.27611 -0.87048
-0.02048 0.027108 0.444 0.33461 0.29034 -0.89651
-0.020434 0.027867 0.443 0.28676 0.24168 -0.92702
-0.020434 0.028686 0.443 0.17244 0.26543 -0.94859
-0.020434 0.029506 0.443 0.066738 0.28946 -0.95486
-0.020434 0.030326 0.443 -0.016753 0.29253 -0.95611
-0.020434 0.031145 0.443 -0.089161 0.28993 -0.95289
-0.020434 0.031965 0.443 -0.16419 0.25975 -0.95162
-0.020434 0.032784 0.443 -0.22019 0.22737 -0.94859
-0.018199 -0.029656 0.411 0.041919 -0.56959 -0.82086
-0.018199 -0.028895 0.411 0.054613 -0.56096 -0.82604
-0.018199 -0.028135 0.411 0.06635 -0.55199 -0.83121
-0.018199 -0.027375 0.411 0.064298 -0.54201 -0.83791
-0.018199 -0.026614 0.411 0.042735 -0.52866 -0.84776
-0.018199 -0.025854 0.411 0.046948 -0.51099 -0.8583
-0.018155 -0.018964 0.41 -0.1236 -0.61287 -0.78045
-0.018155 -0.018205 0.41 -0.15254 -0.60515 -0.78136
-0.018155 -0.017447 0.41 -0.16948 -0.59696 -0.78416
-0.018199 -0.016729 0.411 -0.12505 -0.54027 -0.83215
-0.018199 -0.015969 0.411 -0.16999 -0.53663 -0.82652
-0.018199 -0.015208 0.411 -0.19069 -0.529 -0.82692
-0.018199 -0.014448 0.411 -0.20354 -0.52401 -0.82703
-0.018199 -0.013687 0.411 -0.20111 -0.51491 -0.83332
-0.018244 -0.012958 0.412 -0.19364 -0.49768 -0.84547
-0.018244 -0.012196 0.412 -0.19046 -0.49279 -0.84905
-0.018244 -0.011434 0.412 -0.18226 -0.485 -0.85531
-0.018244 -0.010672 0.412 -0.18546 -0.47264 -0.86152
-0.018244 -0.0099093 0.412 -0.19873 -0.45834 -0.86627
-0.018244 -0.0091471 0.412 -0.21962 -0.44741 -0.86694
-0.018288 -0.0084052 0.413 -0.26684 -0.4404 -0.85723
-0.018288 -0.0076411 0.413 -0.3148 -0.43442 -0.84391
-0.018288 -0.006877 0.413 -0.34427 -0.42315 -0.83811
-0.018288 -0.0061129 0.413 -0.37886 -0.40913 -0.83011
-0.018332 -0.0053617 0.414 -0.43956 -0.44172 -0.78209
-0.018332 -0.0045957 0.414 -0.4592 -0.43185 -0.7763
-0.018332 -0.0038298 0.414 -0.45194 -0.42148 -0.7862
-0.018376 -0.0030712 0.415 -0.49707 -0.46003 -0.73573
-0.018421 -0.002309 0.416 -0.51775 -0.50344 -0.69172
-0.018421 -0.0015393 0.416 -0.48788 -0.51392 -0.70559
-0.018465 -0.00077151 0.417 -0.47917 -0.53665 -0.69455
-0.018465 0 0.417 -0.37548 -0.55821 -0.73988
-0.018554 0.00077521 0.419 -0.57632 -0.53548 -0.61735
-0.018642 0.0023367 0.421 -0.67242 -0.50877 -0.53759
-0.019882 0.0099685 0.449 -0.30018 0.60679 -0.736
-0.019838 0.010775 0.448 -0.48438 0.48086 -0.73086
-0.019926 0.014154 0.45 -0.13629 0.53714 -0.83241
-0.01997 0.015019 0.451 0.14363 0.55301 -0.8207
-0.019926 0.016651 0.45 0.24759 0.47748 -0.84304
-0.019926 0.017484 0.45 0.36253 0.46914 -0.80528
-0.019926 0.018316 0.45 0.45733 0.43344 -0.77652
-0.019882 0.019106 0.449 0.51061 0.37974 -0.77141
-0.019882 0.019937 0.449 0.57529 0.34844 -0.74002
-0.019838 0.020722 0.448 0.58933 0.30762 -0.74703
-0.019793 0.021502 0.447 0.59155 0.28043 -0.75593
-0.019749 0.022279 0.446 0.58584 0.25368 -0.7697
-0.019705 0.023053 0.445 0.54101 0.21349 -0.81347
-0.019705 0.023876 0.445 0.53027 0.23792 -0.81376
-0.019661 0.024644 0.444 0.47616 0.21616 -0.85238
-0.019661 0.025465 0.444 0.44687 0.23839 -0.86225
-0.019616 0.026228 0.443 0.40252 0.19236 -0.89497
-0.019616 0.027047 0.443 0.35618 0.19868 -0.91305
-0.019616 0.027867 0.443 0.25608 0.2303 -0.93882
-0.019616 0.028686 0.443 0.15741 0.24584 -0.95644
-0.019616 0.029506 0.443 0.06569 0.26765 -0.96127
-0.019616 0.030326 0.443 -0.008098 0.27078 -0.96261
-0.019616 0.031145 0.443 -0.076317 0.27455 -0.95854
-0.019616 0.031965 0.443 -0.14931 0.2651 -0.95259
-0.019616 0.032784 0.443 -0.20618 0.24002 -0.94862
-0.017483 -0.029728 0.412 0.13361 -0.51319 -0.84781
-0.017483 -0.028966 0.412 0.10157 -0.49819 -0.8611
-0.017441 -0.028135 0.411 0.04054 -0.60132 -0.79798
-0.017441 -0.027375 0.411 0.079581 -0.59949 -0.79641
-0.017483 -0.026679 0.412 -0.021932 -0.4644 -0.88536
-0.017441 -0.020531 0.411 0.0051497 -0.58801 -0.80884
-0.017441 -0.019771 0.411 -0.016273 -0.58607 -0.8101
-0.017441 -0.01901 0.411 -0.04708 -0.58561 -0.80922
-0.017441 -0.01825 0.411 -0.078853 -0.58315 -0.80853
-0.017441 -0.017489 0.411 -0.11254 -0.58164 -0.80562
-0.017441 -0.016729 0.411 -0.14854 -0.57687 -0.80322
-0.017441 -0.015969 0.411 -0.18074 -0.56798 -0.80295
-0.017441 -0.015208 0.411 -0.18767 -0.55488 -0.81048
-0.017483 -0.014483 0.412 -0.18496 -0.53505 -0.82432
-0.017483 -0.013721 0.412 -0.18561 -0.52619 -0.82987
-0.017483 -0.012958 0.412 -0.18765 -0.52041 -0.83304
-0.017483 -0.012196 0.412 -0.17718 -0.51277 -0.84004
-0.017483 -0.011434 0.412 -0.16918 -0.50614 -0.8457
-0.017526 -0.010698 0.413 -0.17193 -0.49407 -0.85225
-0.017526 -0.0099334 0.413 -0.18422 -0.48742 -0.85351
-0.017526 -0.0091693 0.413 -0.21385 -0.48166 -0.84987
-0.017526 -0.0084052 0.413 -0.2588 -0.47464 -0.84127
-0.017526 -0.0076411 0.413 -0.3017 -0.46323 -0.8333
-0.017526 -0.006877 0.413 -0.32565 -0.44271 -0.83544
-0.017568 -0.0061277 0.414 -0.40454 -0.47274 -0.78286
-0.017568 -0.0053617 0.414 -0.43107 -0.46296 -0.7745
-0.017611 -0.0046068 0.415 -0.47874 -0.49404 -0.72577
-0.017611 -0.003839 0.415 -0.47741 -0.49554 -0.72562
-0.017611 -0.0030712 0.415 -0.46801 -0.47906 -0.74261
-0.017653 -0.002309 0.416 -0.49369 -0.53838 -0.68294
-0.017696 -0.001543 0.417 -0.49284 -0.55443 -0.6706
-0.017696 -0.00077151 0.417 -0.3937 -0.57543 -0.71685
-0.017738 0 0.418 -0.42177 -0.59706 -0.68238
-0.01778 0.00077521 0.419 -0.48448 -0.5873 -0.64836
-0.017865 0.0015578 0.421 -0.66828 -0.50093 -0.54997
-0.01795 0.0023478 0.423 -0.71648 -0.17903 -0.67424
-0.017993 0.0039223 0.424 -0.7034 -0.26375 -0.66004
-0.018969 0.0082701 0.447 -0.4262 0.58307 -0.69165
-0.019138 0.012516 0.451 0.035105 0.5697 -0.82111
-0.019096 0.016651 0.45 0.26809 0.47483 -0.83825
-0.019096 0.017484 0.45 0.35946 0.45621 -0.81404
-0.019054 0.018276 0.449 0.403 0.39288 -0.82658
-0.019054 0.019106 0.449 0.50738 0.35594 -0.78478
-0.019011 0.019893 0.448 0.54763 0.30457 -0.77932
-0.019011 0.020722 0.448 0.58511 0.27655 -0.76234
-0.018969 0.021502 0.447 0.59326 0.25034 -0.76509
-0.018926 0.022279 0.446 0.59161 0.22617 -0.77385
-0.018884 0.023053 0.445 0.55504 0.18612 -0.81074
-0.018884 0.023876 0.445 0.53501 0.19858 -0.82118
-0.018841 0.024644 0.444 0.48163 0.181 -0.85748
-0.018841 0.025465 0.444 0.44183 0.19919 -0.8747
-0.018799 0.026228 0.443 0.39394 0.17769 -0.90179
-0.018799 0.027047 0.443 0.341 0.17769 -0.92312
-0.018799 0.027867 0.443 0.24881 0.18821 -0.95009
-0.018799 0.028686 0.443 0.16216 0.20055 -0.96617
-0.018756 0.029439 0.442 0.083762 0.19303 -0.97761
-0.018756 0.030257 0.442 0.0036858 0.19788 -0.98022
-0.018799 0.031145 0.443 -0.06641 0.23095 -0.9707
-0.018799 0.031965 0.443 -0.14186 0.23503 -0.96158
-0.018799 0.032784 0.443 -0.19832 0.22968 -0.95285
-0.017292 -0.057536 0.426 0.75646 -0.21206 -0.61871
-0.01717 -0.054783 0.423 0.68361 -0.2863 -0.67135
-0.017129 -0.053872 0.422 0.64293 -0.3417 -0.68548
-0.017089 -0.052966 0.421 0.57227 -0.4045 -0.71336
-0.016723 -0.03049 0.412 0.067244 -0.57259 -0.81708
-0.016723 -0.029728 0.412 0.070545 -0.55658 -0.8278
-0.016723 -0.028966 0.412 0.057034 -0.54685 -0.83528
-0.016723 -0.027441 0.412 0.040382 -0.54228 -0.83922
-0.016723 -0.026679 0.412 0.017474 -0.53802 -0.84275
-0.016723 -0.025917 0.412 0.0093396 -0.52638 -0.8502
-0.016723 -0.021343 0.412 0.066294 -0.56335 -0.82355
-0.016723 -0.020581 0.412 0.063048 -0.56197 -0.82475
-0.016723 -0.019819 0.412 0.052522 -0.56357 -0.8244
-0.016683 -0.01901 0.411 -0.089838 -0.63524 -0.76707
-0.016683 -0.01825 0.411 -0.10803 -0.62104 -0.7763
-0.016683 -0.017489 0.411 -0.12205 -0.60976 -0.78313
-0.016683 -0.016729 0.411 -0.14803 -0.59876 -0.78713
-0.016723 -0.016007 0.412 -0.14934 -0.5687 -0.80887
-0.016723 -0.015245 0.412 -0.17385 -0.56004 -0.81002
-0.016723 -0.014483 0.412 -0.18883 -0.5486 -0.81448
-0.016723 -0.013721 0.412 -0.18286 -0.54172 -0.82043
-0.016723 -0.012958 0.412 -0.18079 -0.53819 -0.8232
-0.016764 -0.012226 0.413 -0.16646 -0.53298 -0.82959
-0.016764 -0.011462 0.413 -0.15971 -0.52394 -0.83665
-0.016764 -0.010698 0.413 -0.16393 -0.51769 -0.83972
-0.016764 -0.0099334 0.413 -0.18228 -0.51731 -0.83616
-0.016764 -0.0091693 0.413 -0.2062 -0.50779 -0.83644
-0.016764 -0.0084052 0.413 -0.24056 -0.49786 -0.83323
-0.016804 -0.0076596 0.414 -0.31661 -0.51548 -0.79626
-0.016804 -0.0068936 0.414 -0.3575 -0.50874 -0.78318
-0.016804 -0.0061277 0.414 -0.39105 -0.49746 -0.77435
-0.016804 -0.0053617 0.414 -0.40539 -0.47697 -0.77984
-0.016845 -0.0046068 0.415 -0.4659 -0.51385 -0.72034
-0.016886 -0.0038483 0.416 -0.49983 -0.5466 -0.67186
-0.016886 -0.0030786 0.416 -0.5047 -0.54477 -0.6697
-0.016926 -0.0023145 0.417 -0.5003 -0.5621 -0.65859
-0.016967 -0.0015467 0.418 -0.51524 -0.57499 -0.63554
-0.016967 -0.00077336 0.418 -0.44173 -0.59977 -0.6672
-0.017048 0 0.42 -0.58941 -0.54607 -0.59532
-0.017089 0.00077891 0.421 -0.64468 -0.50796 -0.57129
-0.018225 0.016614 0.449 0.14884 0.41869 -0.89585
-0.018225 0.017445 0.449 0.27229 0.39857 -0.87578
-0.018225 0.018276 0.449 0.39421 0.36348 -0.84408
-0.018225 0.019106 0.449 0.49494 0.32148 -0.80727
-0.018185 0.019893 0.448 0.54392 0.27041 -0.79437
-0.018144 0.020675 0.447 0.5664 0.22404 -0.79309
-0.018103 0.021454 0.446 0.58096 0.19764 -0.78957
-0.018103 0.022279 0.446 0.59323 0.18781 -0.78282
-0.018063 0.023053 0.445 0.56187 0.15937 -0.81173
-0.018022 0.023822 0.444 0.49889 0.12594 -0.85747
-0.018022 0.024644 0.444 0.48755 0.14688 -0.86065
-0.018022 0.025465 0.444 0.43796 0.16278 -0.88414
-0.017982 0.026228 0.443 0.3856 0.15393 -0.90973
-0.017982 0.027047 0.443 0.32645 0.14839 -0.93349
-0.017982 0.027867 0.443 0.23761 0.16013 -0.95807
-0.017941 0.028622 0.442 0.16623 0.15754 -0.97342
-0.017941 0.029439 0.442 0.08081 0.1708 -0.98199
-0.017941 0.030257 0.442 0.0082941 0.16931 -0.98553
-0.017982 0.031145 0.443 -0.057784 0.18647 -0.98076
-0.017982 0.031965 0.443 -0.14349 0.19216 -0.97082
-0.017982 0.032784 0.443 -0.2058 0.1965 -0.95866
-0.016506 -0.057536 0.426 0.72593 -0.30964 -0.61413
-0.016467 -0.056614 0.425 0.71224 -0.32578 -0.62176
-0.016351 -0.053872 0.422 0.61762 -0.42594 -0.66115
-0.016312 -0.052966 0.421 0.54045 -0.48616 -0.6867
-0.016312 -0.052187 0.421 0.56238 -0.37277 -0.73808
-0.016273 -0.051286 0.42 0.49581 -0.46062 -0.73621
-0.016273 -0.050509 0.42 0.502 -0.35048 -0.79067
-0.016234 -0.049613 0.419 0.44256 -0.4687 -0.7645
-0.016234 -0.048838 0.419 0.43579 -0.37883 -0.81644
-0.016234 -0.048063 0.419 0.41281 -0.27962 -0.86683
-0.016234 -0.047288 0.419 0.36452 -0.18825 -0.91197
-0.016196 -0.046401 0.418 0.35424 -0.36683 -0.8602
-0.016196 -0.045628 0.418 0.32899 -0.29887 -0.89579
-0.016002 -0.030564 0.413 0.16777 -0.51042 -0.8434
-0.016002 -0.0298 0.413 0.15786 -0.5025 -0.85004
-0.016002 -0.029036 0.413 0.11753 -0.50205 -0.85682
-0.015963 -0.028204 0.412 0.041415 -0.56169 -0.82631
-0.015963 -0.027441 0.412 0.060227 -0.55983 -0.82642
-0.015963 -0.026679 0.412 0.063347 -0.56427 -0.82316
-0.015963 -0.025917 0.412 0.058838 -0.57025 -0.81936
-0.015963 -0.025154 0.412 0.044412 -0.57976 -0.81358
-0.015963 -0.024392 0.412 0.023513 -0.58893 -0.80784
-0.015963 -0.02363 0.412 0.025659 -0.59797 -0.80111
-0.015963 -0.022868 0.412 0.023059 -0.61006 -0.79202
-0.015963 -0.022105 0.412 0.019999 -0.61704 -0.78668
-0.015963 -0.021343 0.412 0.014974 -0.61865 -0.78552
-0.015963 -0.020581 0.412 0.0063208 -0.61396 -0.78931
-0.015963 -0.019819 0.412 -0.015068 -0.61456 -0.78873
-0.015963 -0.019056 0.412 -0.035639 -0.61181 -0.7902
-0.015963 -0.018294 0.412 -0.065704 -0.60847 -0.79085
-0.015963 -0.017532 0.412 -0.09438 -0.60563 -0.79013
-0.015963 -0.01677 0.412 -0.12372 -0.59612 -0.7933
-0.015963 -0.016007 0.412 -0.14749 -0.5849 -0.79758
-0.016002 -0.015282 0.413 -0.16492 -0.57648 -0.8003
-0.016002 -0.014518 0.413 -0.18179 -0.56902 -0.80198
-0.016002 -0.013754 0.413 -0.17895 -0.56584 -0.80486
-0.016002 -0.01299 0.413 -0.17846 -0.56355 -0.80657
-0.016002 -0.012226 0.413 -0.1662 -0.56124 -0.81079
-0.016002 -0.011462 0.413 -0.16037 -0.5606 -0.81241
-0.016002 -0.010698 0.413 -0.16052 -0.5594 -0.81321
-0.016002 -0.0099334 0.413 -0.17314 -0.55402 -0.8143
-0.016041 -0.0091915 0.414 -0.21529 -0.56131 -0.79912
-0.016041 -0.0084255 0.414 -0.26245 -0.56147 -0.78478
-0.016041 -0.0076596 0.414 -0.29619 -0.55535 -0.77708
-0.016041 -0.0068936 0.414 -0.32991 -0.53901 -0.775
-0.016041 -0.0061277 0.414 -0.35557 -0.51406 -0.78059
-0.016041 -0.0053617 0.414 -0.35331 -0.47586 -0.80544
-0.016079 -0.0046068 0.415 -0.43924 -0.52566 -0.72853
-0.016118 -0.0038483 0.416 -0.48959 -0.56244 -0.6663
-0.016157 -0.003086 0.417 -0.50598 -0.56607 -0.65081
-0.016196 -0.0023201 0.418 -0.51692 -0.57792 -0.6315
-0.016234 -0.0015504 0.419 -0.54496 -0.57072 -0.61424
-0.016273 -0.00077706 0.42 -0.56222 -0.55587 -0.61231
-0.016312 0 0.421 -0.60871 -0.52197 -0.59751
-0.016312 0.00077891 0.421 -0.58252 -0.54541 -0.60266
-0.016351 0.0015615 0.422 -0.61165 -0.46152 -0.64256
-0.016389 0.0023478 0.423 -0.64577 -0.40291 -0.64857
-0.016389 0.0031304 0.423 -0.56605 -0.43341 -0.70124
-0.01728 0.010727 0.446 -0.54256 0.38354 -0.74735
-0.017358 0.011604 0.448 -0.34125 0.51447 -0.78668
-0.017358 0.014091 0.448 -0.26309 0.42667 -0.8653
-0.017397 0.014953 0.449 -0.11082 0.43708 -0.89257
-0.017397 0.015784 0.449 0.042867 0.41561 -0.90853
-0.017397 0.016614 0.449 0.14197 0.39931 -0.90576
-0.017397 0.017445 0.449 0.25489 0.36754 -0.8944
-0.017397 0.018276 0.449 0.3682 0.32362 -0.87161
-0.017358 0.019064 0.448 0.45025 0.26737 -0.85193
-0.017358 0.019893 0.448 0.53512 0.22794 -0.81345
-0.017319 0.020675 0.447 0.56135 0.18613 -0.80637
-0.01728 0.021454 0.446 0.57975 0.15815 -0.7993
-0.017242 0.022229 0.445 0.57041 0.11588 -0.81315
-0.017242 0.023053 0.445 0.56333 0.12182 -0.8172
-0.017203 0.023822 0.444 0.50541 0.087087 -0.85848
-0.017203 0.024644 0.444 0.48861 0.10285 -0.86642
-0.017164 0.025408 0.443 0.42937 0.098691 -0.89772
-0.017164 0.026228 0.443 0.38158 0.10647 -0.91818
-0.017164 0.027047 0.443 0.31805 0.10921 -0.94176
-0.017164 0.027867 0.443 0.24063 0.11755 -0.96347
-0.017125 0.028622 0.442 0.16856 0.11964 -0.9784
-0.017125 0.029439 0.442 0.083141 0.12686 -0.98843
-0.017125 0.030257 0.442 0.0090416 0.13124 -0.99131
-0.017125 0.031075 0.442 -0.055135 0.13596 -0.98918
-0.017164 0.031965 0.443 -0.14557 0.14023 -0.97936
-0.017164 0.032784 0.443 -0.21376 0.15088 -0.96516
-0.01572 -0.057536 0.426 0.68071 -0.39954 -0.61401
-0.015683 -0.056614 0.425 0.66847 -0.40514 -0.62371
-0.015646 -0.055697 0.424 0.64296 -0.42507 -0.63711
-0.015572 -0.053872 0.422 0.5736 -0.47374 -0.66825
-0.015572 -0.053092 0.422 0.61021 -0.37822 -0.69613
-0.015535 -0.052187 0.421 0.53921 -0.443 -0.71624
-0.015535 -0.051408 0.421 0.54037 -0.33836 -0.7704
-0.015498 -0.050509 0.42 0.49032 -0.4232 -0.76189
-0.015498 -0.049732 0.42 0.47264 -0.33676 -0.81438
-0.015461 -0.048838 0.419 0.42613 -0.45884 -0.77966
-0.015461 -0.048063 0.419 0.41093 -0.38006 -0.82867
-0.015461 -0.047288 0.419 0.37296 -0.30106 -0.87764
-0.015424 -0.046401 0.418 0.35973 -0.45106 -0.81679
-0.015424 -0.045628 0.418 0.33092 -0.39632 -0.8564
-0.015277 -0.031404 0.414 0.27114 -0.44718 -0.85236
-0.01524 -0.030564 0.413 0.094714 -0.55034 -0.82955
-0.01524 -0.0298 0.413 0.095946 -0.53227 -0.84112
-0.01524 -0.029036 0.413 0.085036 -0.52543 -0.84657
-0.01524 -0.028272 0.413 0.074057 -0.52429 -0.84831
-0.01524 -0.027508 0.413 0.056789 -0.52221 -0.85092
-0.01524 -0.026744 0.413 0.02879 -0.52423 -0.85109
-0.01524 -0.02598 0.413 0.0042394 -0.52352 -0.852
-0.01524 -0.025216 0.413 -0.015851 -0.52533 -0.85075
-0.01524 -0.024451 0.413 -0.025216 -0.53557 -0.84411
-0.01524 -0.023687 0.413 -0.012894 -0.54211 -0.84021
-0.01524 -0.022923 0.413 0.006529 -0.56059 -0.82807
-0.01524 -0.022159 0.413 0.01931 -0.57568 -0.81744
-0.01524 -0.021395 0.413 0.030603 -0.58727 -0.80882
-0.01524 -0.020631 0.413 0.029014 -0.59357 -0.80426
-0.01524 -0.019867 0.413 0.021634 -0.5976 -0.8015
-0.01524 -0.019103 0.413 0.0026867 -0.60386 -0.79708
-0.01524 -0.018339 0.413 -0.031814 -0.60433 -0.7961
-0.01524 -0.017574 0.413 -0.067664 -0.60368 -0.79435
-0.01524 -0.01681 0.413 -0.10413 -0.60125 -0.79225
-0.01524 -0.016046 0.413 -0.13427 -0.59563 -0.79195
-0.01524 -0.015282 0.413 -0.15479 -0.59526 -0.78848
-0.01524 -0.014518 0.413 -0.17847 -0.59013 -0.78733
-0.015277 -0.013787 0.414 -0.18251 -0.58768 -0.78824
-0.015277 -0.013021 0.414 -0.18021 -0.58684 -0.78939
-0.015277 -0.012255 0.414 -0.16636 -0.58664 -0.79257
-0.015277 -0.011489 0.414 -0.15884 -0.58738 -0.79357
-0.015277 -0.010723 0.414 -0.16103 -0.58937 -0.79165
-0.015277 -0.0099574 0.414 -0.17959 -0.59558 -0.78296
-0.015277 -0.0091915 0.414 -0.20447 -0.59781 -0.77512
-0.015277 -0.0084255 0.414 -0.24576 -0.58981 -0.76924
-0.015277 -0.0076596 0.414 -0.26511 -0.57708 -0.77246
-0.015277 -0.0068936 0.414 -0.28547 -0.55014 -0.78476
-0.015277 -0.0061277 0.414 -0.29551 -0.50871 -0.80863
-0.015314 -0.0053747 0.415 -0.39954 -0.54388 -0.73795
-0.015387 -0.004629 0.417 -0.48705 -0.58322 -0.65011
-0.015424 -0.0038668 0.418 -0.50681 -0.58915 -0.62932
-0.015461 -0.0031008 0.419 -0.51844 -0.58393 -0.62469
-0.015461 -0.0023256 0.419 -0.53059 -0.58238 -0.61588
-0.015498 -0.0015541 0.42 -0.54098 -0.56343 -0.62441
-0.015498 -0.00077706 0.42 -0.53137 -0.57133 -0.62548
-0.015535 0 0.421 -0.56629 -0.5458 -0.61759
-0.015572 0.00078076 0.422 -0.5893 -0.47991 -0.64994
-0.015572 0.0015615 0.422 -0.52745 -0.5016 -0.6857
-0.015609 0.0023478 0.423 -0.56683 -0.45013 -0.68998
-0.016421 0.0090564 0.445 -0.59947 0.37703 -0.70603
-0.016458 0.010727 0.446 -0.51957 0.36188 -0.77401
-0.016531 0.013262 0.448 -0.33096 0.40953 -0.85015
-0.016531 0.014091 0.448 -0.27441 0.37639 -0.88489
-0.016531 0.01492 0.448 -0.21695 0.33205 -0.91798
-0.016531 0.015748 0.448 -0.085205 0.31976 -0.94366
-0.016568 0.017445 0.449 0.2289 0.32241 -0.91851
-0.016531 0.018235 0.448 0.31562 0.25417 -0.91421
-0.016531 0.019064 0.448 0.42988 0.21809 -0.87615
-0.016531 0.019893 0.448 0.51727 0.17923 -0.83685
-0.016494 0.020675 0.447 0.5507 0.1425 -0.82245
-0.016458 0.021454 0.446 0.57092 0.11591 -0.81278
-0.016421 0.022229 0.445 0.56915 0.078306 -0.8185
-0.016421 0.023053 0.445 0.55963 0.078578 -0.82501
-0.016384 0.023822 0.444 0.50786 0.056197 -0.85961
-0.016384 0.024644 0.444 0.48564 0.060537 -0.87206
-0.016347 0.025408 0.443 0.43291 0.059859 -0.89945
-0.016347 0.026228 0.443 0.3823 0.058582 -0.92218
-0.016347 0.027047 0.443 0.31759 0.063915 -0.94607
-0.016347 0.027867 0.443 0.23987 0.070296 -0.96826
-0.01631 0.028622 0.442 0.16742 0.07056 -0.98336
-0.01631 0.029439 0.442 0.086585 0.074298 -0.99347
-0.01631 0.030257 0.442 0.011112 0.079581 -0.99677
-0.01631 0.031075 0.442 -0.054462 0.081466 -0.99519
-0.01631 0.031893 0.442 -0.13182 0.092959 -0.98691
-0.016347 0.032784 0.443 -0.21068 0.095866 -0.97284
-0.015004 -0.058598 0.428 0.73168 -0.30591 -0.60915
-0.014969 -0.057671 0.427 0.72182 -0.3272 -0.60985
-0.014934 -0.056747 0.426 0.71169 -0.34672 -0.61097
-0.014863 -0.055697 0.424 0.58581 -0.46769 -0.66188
-0.014863 -0.054912 0.424 0.66127 -0.38691 -0.64268
-0.014828 -0.054 0.423 0.62378 -0.41288 -0.66365
-0.014793 -0.053092 0.422 0.57799 -0.43097 -0.69296
-0.014758 -0.052187 0.421 0.50193 -0.47917 -0.72004
-0.014758 -0.051408 0.421 0.51611 -0.41804 -0.74758
-0.014723 -0.050509 0.42 0.4666 -0.47238 -0.74776
-0.014723 -0.049732 0.42 0.45867 -0.41899 -0.78363
-0.014723 -0.048955 0.42 0.43981 -0.36215 -0.82183
-0.014688 -0.048063 0.419 0.4066 -0.46471 -0.78659
-0.014688 -0.047288 0.419 0.37725 -0.4132 -0.82883
-0.014688 -0.046512 0.419 0.33211 -0.3448 -0.87796
-0.014653 -0.045628 0.418 0.34424 -0.48362 -0.80474
-0.014513 -0.03217 0.414 0.17269 -0.54219 -0.82232
-0.014513 -0.031404 0.414 0.1818 -0.51887 -0.83529
-0.014513 -0.030638 0.414 0.17909 -0.50614 -0.84365
