-0.023622 -0.016046 0.413 -0.13448 0.52918 -0.83778
-0.023622 -0.015282 0.413 -0.14661 0.52306 -0.83959
-0.023622 -0.014518 0.413 -0.13953 0.52294 -0.84087
-0.023679 -0.013787 0.414 -0.1519 0.51976 -0.8407
-0.023679 -0.013021 0.414 -0.16864 0.51899 -0.83798
-0.023679 -0.012255 0.414 -0.18373 0.51626 -0.83649
-0.023679 -0.011489 0.414 -0.19998 0.51654 -0.83258
-0.023679 -0.010723 0.414 -0.21989 0.51879 -0.82614
-0.023679 -0.0099574 0.414 -0.24345 0.52086 -0.81819
-0.023736 -0.0092137 0.415 -0.27687 0.51823 -0.80918
-0.023736 -0.0084459 0.415 -0.31244 0.51958 -0.79525
-0.023736 -0.0076781 0.415 -0.34918 0.518 -0.78087
-0.023736 -0.0069103 0.415 -0.38187 0.50656 -0.77303
-0.023793 -0.0061573 0.416 -0.42207 0.5088 -0.75032
-0.023793 -0.0053876 0.416 -0.44428 0.50126 -0.74253
-0.023851 -0.004629 0.417 -0.46458 0.50523 -0.72727
-0.023851 -0.0038575 0.417 -0.4627 0.49123 -0.73797
-0.023908 -0.0030934 0.418 -0.48093 0.51941 -0.70634
-0.023965 -0.0023256 0.419 -0.48587 0.53202 -0.69346
-0.023965 -0.0015504 0.419 -0.47718 0.52761 -0.7028
-0.024022 -0.00077706 0.42 -0.48021 0.53826 -0.69258
-0.024022 0 0.42 -0.47527 0.52174 -0.70845
-0.024079 0.00077891 0.421 -0.48228 0.52833 -0.69876
-0.024079 0.0015578 0.421 -0.48994 0.49816 -0.7154
-0.024137 0.0023423 0.422 -0.53224 0.50077 -0.68261
-0.024137 0.003123 0.422 -0.53732 0.45302 -0.71138
-0.024194 0.003913 0.423 -0.57137 0.4492 -0.68685
-0.024251 0.0047068 0.424 -0.62265 0.4522 -0.63861
-0.024308 0.0055042 0.425 -0.65617 0.46855 -0.59153
-0.024365 0.0063053 0.426 -0.66502 0.49124 -0.56252
-0.02448 0.0071267 0.428 -0.67722 0.58023 -0.45244
-0.024537 0.0079371 0.429 -0.66943 0.60001 -0.43801
-0.024594 0.0087512 0.43 -0.64456 0.62078 -0.44629
-0.025074 -0.10979 0.453 -0.1327 0.66752 -0.73267
-0.025074 -0.10895 0.453 -0.21198 0.64275 -0.73616
-0.025074 -0.10812 0.453 -0.2619 0.62165 -0.73822
-0.025129 -0.10752 0.454 -0.2551 0.59119 -0.76513
-0.025129 -0.10668 0.454 -0.32354 0.55428 -0.76688
-0.025129 -0.10584 0.454 -0.38311 0.52213 -0.76198
-0.025185 -0.10523 0.455 -0.43084 0.44882 -0.7829
-0.025185 -0.10438 0.455 -0.4953 0.4021 -0.77007
-0.02524 -0.10377 0.456 -0.50946 0.3246 -0.79692
-0.025295 -0.10315 0.457 -0.52973 0.22653 -0.81736
-0.025351 -0.10253 0.458 -0.52518 0.1504 -0.8376
-0.025351 -0.10168 0.458 -0.54634 0.13277 -0.82697
-0.025406 -0.10106 0.459 -0.50007 0.03936 -0.86509
-0.025406 -0.10021 0.459 -0.50415 0.033219 -0.86298
-0.025461 -0.099574 0.46 -0.44258 -0.032538 -0.89614
-0.025461 -0.098723 0.46 -0.41259 -0.028407 -0.91048
-0.025461 -0.097872 0.46 -0.38254 -0.0443 -0.92288
-0.025517 -0.097232 0.461 -0.31956 -0.082859 -0.94394
-0.025517 -0.096379 0.461 -0.26404 -0.11594 -0.95752
-0.025517 -0.095526 0.461 -0.21893 -0.13024 -0.96701
-0.025517 -0.094673 0.461 -0.19332 -0.14388 -0.97053
-0.025517 -0.093821 0.461 -0.1636 -0.16126 -0.97326
-0.025572 -0.093169 0.462 -0.13267 -0.16444 -0.97742
-0.025572 -0.092315 0.462 -0.11298 -0.16852 -0.9792
-0.025572 -0.09146 0.462 -0.092303 -0.16796 -0.98146
-0.025572 -0.090605 0.462 -0.068601 -0.17198 -0.98271
-0.025572 -0.08975 0.462 -0.033408 -0.17229 -0.98448
-0.025572 -0.088895 0.462 0.023936 -0.15563 -0.98752
-0.025572 -0.088041 0.462 0.075814 -0.12058 -0.9898
-0.025572 -0.087186 0.462 0.13786 -0.077332 -0.98743
-0.025572 -0.086331 0.462 0.20853 -0.027412 -0.97763
-0.025572 -0.085476 0.462 0.28769 0.032391 -0.95718
-0.025517 -0.084438 0.461 0.37316 0.092137 -0.92318
-0.025517 -0.083586 0.461 0.4248 0.11221 -0.89831
-0.025461 -0.082553 0.46 0.49223 0.16996 -0.85371
-0.025461 -0.081702 0.46 0.5088 0.17974 -0.84191
-0.025406 -0.080675 0.459 0.5573 0.21692 -0.80147
-0.025351 -0.079652 0.458 0.6117 0.26239 -0.7463
-0.025295 -0.078633 0.457 0.66549 0.31029 -0.67886
-0.023247 -0.054394 0.42 0.55657 0.54189 -0.62975
-0.023137 -0.052588 0.418 0.51905 0.43534 -0.73557
-0.023137 -0.051815 0.418 0.48345 0.53472 -0.69308
-0.023081 -0.05092 0.417 0.45057 0.45864 -0.76592
-0.023026 -0.050028 0.416 0.44941 0.33744 -0.82715
-0.023026 -0.049258 0.416 0.40324 0.44938 -0.79716
-0.023026 -0.048488 0.416 0.36646 0.53443 -0.76164
-0.02297 -0.047604 0.415 0.38607 0.40213 -0.83021
-0.02297 -0.046836 0.415 0.35612 0.49456 -0.79284
-0.02297 -0.046068 0.415 0.32938 0.5784 -0.74629
-0.02297 -0.045301 0.415 0.34298 0.62523 -0.70104
-0.022915 -0.044426 0.414 0.29625 0.57382 -0.76352
-0.022915 -0.04366 0.414 0.294 0.61358 -0.73286
-0.022915 -0.042894 0.414 0.29363 0.64005 -0.71001
-0.02286 -0.042026 0.413 0.21368 0.61212 -0.76135
-0.02286 -0.041262 0.413 0.21675 0.63228 -0.7438
-0.022804 -0.0404 0.412 0.15351 0.62237 -0.76752
-0.022804 -0.039637 0.412 0.14789 0.64074 -0.75338
-0.022804 -0.038875 0.412 0.139 0.65346 -0.74409
-0.022804 -0.038113 0.412 0.12298 0.66207 -0.73928
-0.022804 -0.037351 0.412 0.10163 0.66279 -0.74188
-0.022804 -0.036588 0.412 0.086998 0.66594 -0.74091
-0.022804 -0.035826 0.412 0.077393 0.66647 -0.7415
-0.022804 -0.035064 0.412 0.055677 0.66788 -0.74218
-0.022804 -0.034302 0.412 0.035594 0.66716 -0.74406
-0.022804 -0.033539 0.412 0.039654 0.66661 -0.74435
-0.022804 -0.032777 0.412 0.05115 0.66311 -0.74677
-0.022804 -0.032015 0.412 0.061867 0.65998 -0.74873
-0.022804 -0.031253 0.412 0.062913 0.65672 -0.75151
-0.022804 -0.03049 0.412 0.071311 0.6531 -0.75391
-0.022749 -0.029656 0.411 0.044419 0.62764 -0.77723
-0.022749 -0.028895 0.411 0.034642 0.62887 -0.77674
-0.022749 -0.028135 0.411 0.018437 0.62822 -0.77781
-0.022749 -0.027375 0.411 0.0021722 0.62601 -0.77981
-0.022749 -0.026614 0.411 -0.035603 0.62179 -0.78237
-0.022749 -0.025854 0.411 -0.054791 0.6164 -0.78552
-0.022749 -0.025093 0.411 -0.075672 0.6097 -0.78901
-0.022804 -0.024392 0.412 -0.090561 0.60207 -0.79329
-0.022804 -0.02363 0.412 -0.09881 0.59554 -0.79722
-0.022804 -0.022868 0.412 -0.10023 0.5893 -0.80167
-0.022804 -0.022105 0.412 -0.093218 0.58056 -0.80886
-0.022804 -0.021343 0.412 -0.094712 0.57288 -0.81415
-0.022804 -0.020581 0.412 -0.091054 0.56351 -0.82108
-0.022804 -0.019819 0.412 -0.09653 0.54969 -0.82978
-0.022804 -0.019056 0.412 -0.095584 0.53833 -0.8373
-0.022804 -0.018294 0.412 -0.10541 0.5274 -0.84305
-0.02286 -0.017574 0.413 -0.11442 0.52398 -0.84401
-0.02286 -0.01681 0.413 -0.12657 0.51858 -0.84561
-0.02286 -0.016046 0.413 -0.1462 0.50982 -0.84777
-0.02286 -0.015282 0.413 -0.15673 0.50289 -0.85002
-0.02286 -0.014518 0.413 -0.15272 0.49842 -0.85338
-0.02286 -0.013754 0.413 -0.16271 0.49693 -0.8524
-0.02286 -0.01299 0.413 -0.17201 0.49338 -0.85264
-0.022915 -0.012255 0.414 -0.18406 0.48515 -0.85484
-0.022915 -0.011489 0.414 -0.20174 0.48413 -0.85142
-0.022915 -0.010723 0.414 -0.21893 0.48506 -0.84663
-0.022915 -0.0099574 0.414 -0.24026 0.49003 -0.83794
-0.022915 -0.0091915 0.414 -0.27432 0.48344 -0.83128
-0.022915 -0.0084255 0.414 -0.30268 0.47721 -0.82502
-0.02297 -0.0076781 0.415 -0.35352 0.48668 -0.79885
-0.02297 -0.0069103 0.415 -0.39165 0.48327 -0.78298
-0.02297 -0.0061425 0.415 -0.41751 0.47319 -0.77574
-0.023026 -0.0053876 0.416 -0.45681 0.48232 -0.74746
-0.023026 -0.0046179 0.416 -0.46693 0.47749 -0.7443
-0.023081 -0.0038575 0.417 -0.48503 0.48269 -0.72922
-0.023137 -0.0030934 0.418 -0.49683 0.499 -0.71004
-0.023137 -0.0023201 0.418 -0.48889 0.49808 -0.71617
-0.023192 -0.0015504 0.419 -0.49262 0.5077 -0.7068
-0.023192 -0.00077521 0.419 -0.48533 0.50337 -0.7149
-0.023247 0 0.42 -0.49808 0.50321 -0.70618
-0.023247 0.00077706 0.42 -0.4937 0.48679 -0.72062
-0.023303 0.0015578 0.421 -0.51414 0.48833 -0.70512
-0.023303 0.0023367 0.421 -0.52012 0.46053 -0.71929
-0.023358 0.003123 0.422 -0.5598 0.46294 -0.68725
-0.023413 0.003913 0.423 -0.58958 0.46786 -0.65841
-0.023413 0.0046957 0.423 -0.58141 0.42219 -0.6955
-0.023469 0.0054912 0.424 -0.61716 0.44211 -0.65088
-0.023579 0.0063053 0.426 -0.66282 0.52405 -0.53483
-0.023579 0.0070934 0.426 -0.64614 0.49542 -0.58057
-0.02369 0.0079186 0.428 -0.66811 0.58325 -0.462
-0.023745 0.0087308 0.429 -0.663 0.59796 -0.45041
-0.023745 0.0095245 0.429 -0.56269 0.59656 -0.57227
-0.024185 -0.10955 0.452 -0.19628 0.675 -0.71123
-0.024185 -0.10871 0.452 -0.26377 0.65736 -0.70591
-0.024185 -0.10788 0.452 -0.29573 0.64646 -0.7033
-0.024238 -0.10728 0.453 -0.29863 0.61546 -0.72941
-0.024238 -0.10644 0.453 -0.36577 0.57833 -0.72921
-0.024292 -0.10584 0.454 -0.41448 0.51937 -0.7473
-0.024292 -0.105 0.454 -0.47407 0.48236 -0.7366
-0.024345 -0.10438 0.455 -0.51388 0.41569 -0.75042
-0.024399 -0.10377 0.456 -0.52803 0.33101 -0.78206
-0.024452 -0.10315 0.457 -0.55491 0.23098 -0.7992
-0.024452 -0.10231 0.457 -0.59545 0.21382 -0.77442
-0.024506 -0.10168 0.458 -0.5781 0.13379 -0.80493
-0.024559 -0.10106 0.459 -0.52597 0.033396 -0.84985
-0.024559 -0.10021 0.459 -0.53569 0.037394 -0.84359
-0.024613 -0.099574 0.46 -0.44808 -0.064773 -0.89164
-0.024613 -0.098723 0.46 -0.42032 -0.056265 -0.90563
-0.024613 -0.097872 0.46 -0.39086 -0.072575 -0.91758
-0.024666 -0.097232 0.461 -0.32253 -0.11263 -0.93984
-0.024666 -0.096379 0.461 -0.27197 -0.14339 -0.95156
-0.024666 -0.095526 0.461 -0.22058 -0.16125 -0.96195
-0.024666 -0.094673 0.461 -0.19775 -0.17477 -0.96455
-0.024666 -0.093821 0.461 -0.16551 -0.18944 -0.96784
-0.02472 -0.093169 0.462 -0.13673 -0.18807 -0.97259
-0.02472 -0.092315 0.462 -0.11909 -0.18851 -0.97482
-0.02472 -0.09146 0.462 -0.09577 -0.18534 -0.978
-0.02472 -0.090605 0.462 -0.064686 -0.18214 -0.98114
-0.02472 -0.08975 0.462 -0.021939 -0.17788 -0.98381
-0.02472 -0.088895 0.462 0.042109 -0.15461 -0.98708
-0.02472 -0.088041 0.462 0.10813 -0.11928 -0.98695
-0.02472 -0.087186 0.462 0.18433 -0.074856 -0.98001
-0.02472 -0.086331 0.462 0.26281 -0.020519 -0.96463
-0.02472 -0.085476 0.462 0.33359 0.023766 -0.94242
-0.024666 -0.084438 0.461 0.43028 0.089647 -0.89823
-0.024666 -0.083586 0.461 0.47203 0.10344 -0.87549
-0.024613 -0.082553 0.46 0.53177 0.15591 -0.83241
-0.024613 -0.081702 0.46 0.53308 0.16075 -0.83066
-0.024506 -0.0805 0.458 0.63799 0.22056 -0.73778
-0.024506 -0.079652 0.458 0.60664 0.22896 -0.76129
-0.024452 -0.078633 0.457 0.65292 0.26298 -0.7103
-0.022526 -0.056081 0.421 0.60202 0.53782 -0.59018
-0.022365 -0.052588 0.418 0.50469 0.517 -0.69137
-0.022312 -0.051691 0.417 0.49359 0.44003 -0.75017
-0.022258 -0.050797 0.416 0.45503 0.33248 -0.82608
-0.022258 -0.050028 0.416 0.43289 0.43528 -0.78939
-0.022258 -0.049258 0.416 0.38821 0.52269 -0.75901
-0.022205 -0.048372 0.415 0.3976 0.41244 -0.81964
-0.022205 -0.047604 0.415 0.3683 0.49082 -0.78959
-0.022205 -0.046836 0.415 0.34731 0.56255 -0.75027
-0.022151 -0.045957 0.414 0.34166 0.48615 -0.80432
-0.022151 -0.045191 0.414 0.34185 0.54708 -0.76409
-0.022151 -0.044426 0.414 0.34824 0.58833 -0.7298
-0.022098 -0.043554 0.413 0.29858 0.5469 -0.78215
-0.022098 -0.04279 0.413 0.29375 0.58399 -0.75675
-0.022044 -0.041924 0.412 0.22008 0.56199 -0.79733
-0.022044 -0.041162 0.412 0.21683 0.58743 -0.77969
-0.022044 -0.0404 0.412 0.20354 0.60387 -0.77066
-0.022044 -0.039637 0.412 0.17784 0.61458 -0.76855
-0.022044 -0.038875 0.412 0.14884 0.62233 -0.76847
-0.021991 -0.03802 0.411 0.094147 0.59976 -0.79462
-0.021991 -0.03726 0.411 0.083793 0.61071 -0.78741
-0.021991 -0.0365 0.411 0.067689 0.6191 -0.78239
-0.021991 -0.035739 0.411 0.063628 0.62188 -0.78053
-0.021991 -0.034979 0.411 0.053026 0.62823 -0.77622
-0.021991 -0.034218 0.411 0.045522 0.63218 -0.77349
-0.021991 -0.033458 0.411 0.047154 0.63314 -0.7726
-0.021991 -0.032698 0.411 0.056479 0.63132 -0.77346
-0.021991 -0.031937 0.411 0.06491 0.63049 -0.77348
-0.021991 -0.031177 0.411 0.063331 0.62903 -0.77479
-0.021991 -0.030416 0.411 0.069362 0.62675 -0.77613
-0.021991 -0.029656 0.411 0.060284 0.62404 -0.77907
-0.021991 -0.028895 0.411 0.047833 0.61926 -0.78373
-0.021991 -0.028135 0.411 0.024026 0.61609 -0.78731
-0.021991 -0.027375 0.411 -0.00086193 0.612 -0.79086
-0.021937 -0.026549 0.41 -0.045809 0.59295 -0.80393
-0.021991 -0.025854 0.411 -0.06904 0.5935 -0.80187
-0.021991 -0.025093 0.411 -0.094917 0.5837 -0.8064
-0.021991 -0.024333 0.411 -0.11303 0.57506 -0.81027
-0.021991 -0.023573 0.411 -0.12254 0.56672 -0.81475
-0.021991 -0.022812 0.411 -0.12334 0.55883 -0.82006
-0.021991 -0.022052 0.411 -0.11354 0.55087 -0.82683
-0.022044 -0.021343 0.412 -0.1104 0.54323 -0.83229
-0.022044 -0.020581 0.412 -0.10554 0.53714 -0.83686
-0.022044 -0.019819 0.412 -0.10898 0.52786 -0.84231
-0.022044 -0.019056 0.412 -0.10982 0.51719 -0.84879
-0.022044 -0.018294 0.412 -0.11993 0.50436 -0.85512
-0.022044 -0.017532 0.412 -0.12297 0.50072 -0.85683
-0.022044 -0.01677 0.412 -0.13335 0.49657 -0.85769
-0.022044 -0.016007 0.412 -0.15117 0.4904 -0.85828
-0.022044 -0.015245 0.412 -0.16456 0.483 -0.86002
-0.022044 -0.014483 0.412 -0.16234 0.47819 -0.86312
-0.022098 -0.013754 0.413 -0.1688 0.4732 -0.86463
-0.022098 -0.01299 0.413 -0.17495 0.46617 -0.86722
-0.022098 -0.012226 0.413 -0.18393 0.45808 -0.86967
-0.022098 -0.011462 0.413 -0.19853 0.45602 -0.86754
-0.022098 -0.010698 0.413 -0.21829 0.45406 -0.86381
-0.022098 -0.0099334 0.413 -0.23884 0.45689 -0.85686
-0.022098 -0.0091693 0.413 -0.27323 0.4483 -0.8511
-0.022151 -0.0084255 0.414 -0.30573 0.44643 -0.84097
-0.022151 -0.0076596 0.414 -0.34377 0.44036 -0.8294
-0.022205 -0.0069103 0.415 -0.39624 0.44778 -0.80155
-0.022205 -0.0061425 0.415 -0.43284 0.44179 -0.78579
-0.022205 -0.0053747 0.415 -0.45385 0.43754 -0.77626
-0.022258 -0.0046179 0.416 -0.48218 0.45018 -0.75156
-0.022258 -0.0038483 0.416 -0.49306 0.44677 -0.74652
-0.022312 -0.003086 0.417 -0.50244 0.44777 -0.73963
-0.022365 -0.0023201 0.418 -0.50508 0.46289 -0.72844
-0.022365 -0.0015467 0.418 -0.50088 0.45949 -0.73347
-0.022419 -0.00077521 0.419 -0.50302 0.47069 -0.72486
-0.022419 0 0.419 -0.5027 0.46059 -0.73154
-0.022472 0.00077706 0.42 -0.51091 0.46726 -0.72155
-0.022472 0.0015541 0.42 -0.51467 0.45249 -0.72826
-0.022526 0.0023367 0.421 -0.54147 0.4515 -0.7092
-0.022579 0.003123 0.422 -0.57047 0.45585 -0.6832
-0.022579 0.0039038 0.422 -0.56815 0.43932 -0.69585
-0.022633 0.0046957 0.423 -0.60098 0.44864 -0.66147
-0.022686 0.0054912 0.424 -0.63121 0.47158 -0.61578
-0.02274 0.0062905 0.425 -0.64592 0.49693 -0.57953
-0.022793 0.0070934 0.426 -0.64949 0.52708 -0.54804
-0.022847 0.0079001 0.427 -0.65325 0.56028 -0.50927
-0.0229 0.0087105 0.428 -0.66336 0.57644 -0.47715
-0.022954 0.0095245 0.429 -0.64962 0.59876 -0.46848
-0.022954 0.010318 0.429 -0.53813 0.60428 -0.58759
-0.023247 -0.11073 0.45 -0.34919 0.63986 -0.68457
-0.023299 -0.11014 0.451 -0.19269 0.68648 -0.70115
-0.023299 -0.10931 0.451 -0.25882 0.66808 -0.69763
-0.023299 -0.10847 0.451 -0.31975 0.64726 -0.69196
-0.023299 -0.10764 0.451 -0.32988 0.63515 -0.6984
-0.023351 -0.10704 0.452 -0.31097 0.65089 -0.69256
-0.023351 -0.10621 0.452 -0.3688 0.61341 -0.69837
-0.023402 -0.1056 0.453 -0.43565 0.55802 -0.70628
-0.023454 -0.105 0.454 -0.48912 0.48038 -0.72801
-0.023454 -0.10416 0.454 -0.53224 0.4769 -0.6995
-0.023557 -0.10377 0.456 -0.5501 0.29192 -0.78241
-0.023557 -0.10293 0.456 -0.60375 0.3046 -0.73669
-0.023609 -0.10231 0.457 -0.62718 0.18964 -0.75544
-0.023661 -0.10168 0.458 -0.60487 0.086447 -0.79162
-0.023661 -0.10084 0.458 -0.61315 0.085505 -0.78533
-0.023712 -0.10021 0.459 -0.55382 0.0043079 -0.83262
-0.023764 -0.099574 0.46 -0.44883 -0.10238 -0.88773
-0.023764 -0.098723 0.46 -0.42814 -0.093396 -0.89887
-0.023815 -0.098085 0.461 -0.36281 -0.14218 -0.92095
-0.023815 -0.097232 0.461 -0.32706 -0.14676 -0.93354
-0.023815 -0.096379 0.461 -0.27724 -0.16964 -0.94571
-0.023815 -0.095526 0.461 -0.22409 -0.18452 -0.95694
-0.023815 -0.094673 0.461 -0.20402 -0.19788 -0.95876
-0.023867 -0.094024 0.462 -0.16904 -0.20863 -0.96328
-0.023867 -0.093169 0.462 -0.14275 -0.20324 -0.96867
-0.023867 -0.092315 0.462 -0.12716 -0.20007 -0.97149
-0.023867 -0.09146 0.462 -0.10028 -0.19435 -0.97579
-0.023867 -0.090605 0.462 -0.059927 -0.18403 -0.98109
-0.023867 -0.08975 0.462 -0.0086047 -0.1659 -0.98611
-0.023867 -0.088895 0.462 0.067015 -0.14321 -0.98742
-0.023867 -0.088041 0.462 0.14124 -0.10564 -0.98432
-0.023867 -0.087186 0.462 0.22624 -0.059224 -0.97227
-0.023867 -0.086331 0.462 0.31224 -0.0055111 -0.94999
-0.023867 -0.085476 0.462 0.37729 0.022822 -0.92581
-0.023815 -0.084438 0.461 0.47864 0.089709 -0.87341
-0.023815 -0.083586 0.461 0.5109 0.099821 -0.85383
-0.023764 -0.082553 0.46 0.56569 0.14149 -0.81239
-0.023712 -0.081525 0.459 0.60714 0.16224 -0.77786
-0.023661 -0.0805 0.458 0.65342 0.18605 -0.73378
-0.023609 -0.079478 0.457 0.69503 0.21217 -0.68696
-0.023557 -0.078461 0.456 0.75113 0.24678 -0.6123
-0.021749 -0.05686 0.421 0.63015 0.48241 -0.60844
-0.021697 -0.055948 0.42 0.59438 0.47715 -0.64734
-0.021594 -0.053362 0.418 0.53749 0.4813 -0.69242
-0.021542 -0.052463 0.417 0.51283 0.42201 -0.7476
-0.021491 -0.051567 0.416 0.49794 0.33835 -0.79848
-0.021491 -0.050797 0.416 0.45495 0.42404 -0.78308
-0.021439 -0.049907 0.415 0.43887 0.33226 -0.83487
-0.021439 -0.04914 0.415 0.40644 0.418 -0.81245
-0.021439 -0.048372 0.415 0.38049 0.49045 -0.78402
-0.021387 -0.047489 0.414 0.39165 0.39057 -0.8331
-0.021387 -0.046723 0.414 0.36811 0.46871 -0.803
-0.021387 -0.045957 0.414 0.35361 0.53258 -0.76897
-0.021336 -0.045082 0.413 0.34707 0.47485 -0.80874
-0.021336 -0.044318 0.413 0.34937 0.52027 -0.77927
-0.021336 -0.043554 0.413 0.34225 0.55208 -0.76031
-0.021284 -0.042686 0.412 0.29748 0.52727 -0.79593
-0.021284 -0.041924 0.412 0.27449 0.55306 -0.78663
-0.021232 -0.041062 0.411 0.21655 0.53335 -0.81771
-0.021232 -0.040302 0.411 0.19784 0.55155 -0.81034
-0.021232 -0.039541 0.411 0.173 0.56907 -0.80389
-0.021232 -0.038781 0.411 0.14978 0.57968 -0.80096
-0.021232 -0.03802 0.411 0.12298 0.5852 -0.80151
-0.021232 -0.03726 0.411 0.10638 0.59042 -0.80006
-0.021232 -0.0365 0.411 0.089726 0.5942 -0.7993
-0.021232 -0.035739 0.411 0.083759 0.59339 -0.80055
-0.021232 -0.034979 0.411 0.069693 0.59683 -0.79933
-0.021232 -0.034218 0.411 0.057512 0.59786 -0.79954
-0.021232 -0.033458 0.411 0.052162 0.60081 -0.79769
-0.021181 -0.032618 0.41 0.054819 0.60221 -0.79645
-0.021181 -0.031859 0.41 0.056436 0.60436 -0.79471
-0.021181 -0.031101 0.41 0.053084 0.60227 -0.79653
-0.021181 -0.030342 0.41 0.058471 0.59876 -0.79879
-0.021181 -0.029584 0.41 0.049049 0.5957 -0.80171
-0.021181 -0.028825 0.41 0.036922 0.59262 -0.80464
-0.021181 -0.028067 0.41 0.014096 0.59125 -0.80636
-0.021181 -0.027308 0.41 -0.013263 0.58724 -0.80931
-0.021181 -0.026549 0.41 -0.052477 0.57832 -0.81412
-0.021181 -0.025791 0.41 -0.07781 0.56903 -0.81863
-0.021181 -0.025032 0.41 -0.10679 0.56023 -0.82142
-0.021181 -0.024274 0.41 -0.12675 0.554 -0.82281
-0.021181 -0.023515 0.41 -0.137 0.54829 -0.82499
-0.021232 -0.022812 0.411 -0.13731 0.54232 -0.82888
-0.021232 -0.022052 0.411 -0.12607 0.53997 -0.83219
-0.021232 -0.021291 0.411 -0.12148 0.53192 -0.83804
-0.021232 -0.020531 0.411 -0.11413 0.52319 -0.84454
-0.021232 -0.019771 0.411 -0.11409 0.51246 -0.8511
-0.021232 -0.01901 0.411 -0.11571 0.50345 -0.85624
-0.021284 -0.018294 0.412 -0.12083 0.49318 -0.8615
-0.021284 -0.017532 0.412 -0.12855 0.48846 -0.86307
-0.021284 -0.01677 0.412 -0.14287 0.4818 -0.86455
-0.021284 -0.016007 0.412 -0.16362 0.4745 -0.86491
-0.021284 -0.015245 0.412 -0.17884 0.46745 -0.86574
-0.021284 -0.014483 0.412 -0.17833 0.45499 -0.87246
-0.021284 -0.013721 0.412 -0.18585 0.44385 -0.87662
-0.021284 -0.012958 0.412 -0.19108 0.43732 -0.87877
-0.021336 -0.012226 0.413 -0.19755 0.43208 -0.87993
-0.021336 -0.011462 0.413 -0.20512 0.42909 -0.87966
-0.021336 -0.010698 0.413 -0.21778 0.42866 -0.87683
-0.021336 -0.0099334 0.413 -0.23201 0.42874 -0.87313
-0.021336 -0.0091693 0.413 -0.26516 0.42196 -0.86697
-0.021387 -0.0084255 0.414 -0.29821 0.4169 -0.85864
-0.021387 -0.0076596 0.414 -0.34222 0.41408 -0.84346
-0.021387 -0.0068936 0.414 -0.39197 0.41043 -0.82335
-0.021439 -0.0061425 0.415 -0.43179 0.41334 -0.80169
-0.021439 -0.0053747 0.415 -0.4611 0.41421 -0.78474
-0.021439 -0.0046068 0.415 -0.47836 0.41274 -0.77512
-0.021491 -0.0038483 0.416 -0.50493 0.41928 -0.75448
-0.021491 -0.0030786 0.416 -0.50928 0.41754 -0.75252
-0.021542 -0.0023145 0.417 -0.50977 0.42193 -0.74974
-0.021542 -0.001543 0.417 -0.49924 0.41288 -0.76177
-0.021594 -0.00077336 0.418 -0.50978 0.43367 -0.743
-0.021594 0 0.418 -0.49983 0.42366 -0.75544
-0.021646 0.00077521 0.419 -0.50964 0.43429 -0.74274
-0.021697 0.0015541 0.42 -0.5309 0.43793 -0.72551
-0.021697 0.0023312 0.42 -0.53123 0.42423 -0.73337
-0.021749 0.0031156 0.421 -0.55428 0.42751 -0.71415
-0.021801 0.0039038 0.422 -0.5813 0.4469 -0.67998
-0.021801 0.0046846 0.422 -0.57247 0.42743 -0.69969
-0.021852 0.0054783 0.423 -0.6001 0.44506 -0.66469
-0.021904 0.0062757 0.424 -0.62124 0.4764 -0.62218
-0.021956 0.0070768 0.425 -0.62512 0.50778 -0.59278
-0.022007 0.0078816 0.426 -0.62789 0.54394 -0.55667
-0.022059 0.0086901 0.427 -0.63385 0.57374 -0.51871
-0.022111 0.0095023 0.428 -0.62939 0.59742 -0.49696
-0.022111 0.010294 0.428 -0.52477 0.6026 -0.60124
-0.022162 0.011112 0.429 -0.51545 0.62387 -0.58746
-0.022417 -0.11073 0.45 -0.18747 0.67868 -0.7101
-0.022417 -0.1099 0.45 -0.24028 0.66801 -0.7043
-0.022417 -0.10907 0.45 -0.31042 0.6466 -0.69681
-0.022467 -0.10847 0.451 -0.21325 0.67325 -0.708
-0.022467 -0.10764 0.451 -0.27713 0.66453 -0.69397
-0.022467 -0.1068 0.451 -0.30266 0.6568 -0.69066
-0.022467 -0.10597 0.451 -0.33986 0.62859 -0.69955
-0.022517 -0.10537 0.452 -0.41855 0.59573 -0.6855
-0.022566 -0.10476 0.453 -0.50725 0.53328 -0.67698
-0.022566 -0.10393 0.453 -0.50327 0.55179 -0.66501
-0.022616 -0.10332 0.454 -0.54333 0.50189 -0.67298
-0.022666 -0.1027 0.455 -0.58945 0.42011 -0.68997
-0.022766 -0.10231 0.457 -0.64119 0.15635 -0.75129
-0.022766 -0.10146 0.457 -0.6459 0.19631 -0.73775
-0.022815 -0.10084 0.458 -0.63659 0.075476 -0.7675
-0.022865 -0.10021 0.459 -0.5729 -0.018982 -0.81941
-0.022915 -0.099574 0.46 -0.45598 -0.14154 -0.87866
-0.022915 -0.098723 0.46 -0.44404 -0.12382 -0.88741
-0.022965 -0.098085 0.461 -0.36256 -0.19002 -0.91238
-0.022965 -0.097232 0.461 -0.33381 -0.18258 -0.92479
-0.022965 -0.096379 0.461 -0.28821 -0.20038 -0.93637
-0.022965 -0.095526 0.461 -0.23859 -0.21295 -0.94749
-0.022965 -0.094673 0.461 -0.21758 -0.22561 -0.94961
-0.023015 -0.094024 0.462 -0.18051 -0.23632 -0.95476
-0.023015 -0.093169 0.462 -0.15112 -0.22698 -0.9621
-0.023015 -0.092315 0.462 -0.12735 -0.22597 -0.96577
-0.023015 -0.09146 0.462 -0.09325 -0.21792 -0.9715
-0.023015 -0.090605 0.462 -0.041747 -0.20153 -0.97859
-0.023015 -0.08975 0.462 0.014315 -0.17606 -0.98428
-0.023015 -0.088895 0.462 0.098227 -0.15121 -0.98361
-0.023015 -0.088041 0.462 0.18273 -0.11424 -0.9765
-0.023015 -0.087186 0.462 0.27269 -0.064967 -0.95991
-0.023015 -0.086331 0.462 0.36156 -0.011718 -0.93228
-0.022965 -0.085291 0.461 0.44728 0.03118 -0.89385
-0.022965 -0.084438 0.461 0.51672 0.066169 -0.8536
-0.022915 -0.083404 0.46 0.58075 0.088797 -0.80922
-0.022915 -0.082553 0.46 0.59238 0.10636 -0.79861
-0.022865 -0.081525 0.459 0.62627 0.12531 -0.76947
-0.022815 -0.0805 0.458 0.6684 0.14063 -0.73039
-0.022766 -0.079478 0.457 0.70225 0.15353 -0.69518
-0.022716 -0.078461 0.456 0.74262 0.17369 -0.6468
-0.020873 -0.055815 0.419 0.55105 0.45074 -0.70227
-0.020823 -0.054908 0.418 0.50379 0.42074 -0.75443
-0.020823 -0.054135 0.418 0.55957 0.44795 -0.69729
-0.020773 -0.053234 0.417 0.51231 0.41505 -0.75185
-0.020723 -0.052337 0.416 0.49314 0.35443 -0.79448
-0.020723 -0.051567 0.416 0.49228 0.41703 -0.76403
-0.020673 -0.050675 0.415 0.44639 0.34673 -0.82493
-0.020673 -0.049907 0.415 0.42945 0.41833 -0.80036
-0.020673 -0.04914 0.415 0.40084 0.46839 -0.78736
-0.020624 -0.048255 0.414 0.40152 0.41106 -0.81842
-0.020624 -0.047489 0.414 0.38434 0.45573 -0.80286
-0.020624 -0.046723 0.414 0.37073 0.49891 -0.78335
-0.020574 -0.045846 0.413 0.36607 0.46339 -0.80701
-0.020574 -0.045082 0.413 0.37173 0.49429 -0.7858
-0.020574 -0.044318 0.413 0.37273 0.51642 -0.77096
-0.020524 -0.043449 0.412 0.34537 0.49197 -0.79918
-0.020474 -0.042583 0.411 0.30913 0.47897 -0.8216
-0.020474 -0.041822 0.411 0.27867 0.50794 -0.81507
-0.020474 -0.041062 0.411 0.25572 0.52446 -0.81212
-0.020474 -0.040302 0.411 0.22699 0.53382 -0.81456
-0.020474 -0.039541 0.411 0.19476 0.54314 -0.81674
-0.020424 -0.038686 0.41 0.14928 0.53834 -0.8294
-0.020424 -0.037928 0.41 0.12148 0.54773 -0.82779
-0.020424 -0.037169 0.41 0.11 0.55388 -0.8253
-0.020424 -0.036411 0.41 0.0928 0.55795 -0.82467
-0.020424 -0.035652 0.41 0.086542 0.55827 -0.82513
-0.020424 -0.034894 0.41 0.071947 0.56322 -0.82317
-0.020424 -0.034135 0.41 0.059315 0.56552 -0.8226
-0.020424 -0.033377 0.41 0.054021 0.56386 -0.8241
-0.020424 -0.032618 0.41 0.052225 0.56391 -0.82418
-0.020424 -0.031859 0.41 0.050327 0.5664 -0.82259
-0.020424 -0.031101 0.41 0.044139 0.56413 -0.82451
-0.020424 -0.030342 0.41 0.047903 0.55973 -0.82729
-0.020424 -0.029584 0.41 0.037168 0.55688 -0.82976
-0.020424 -0.028825 0.41 0.029119 0.55264 -0.83291
-0.020424 -0.028067 0.41 0.010034 0.55032 -0.83489
-0.020424 -0.027308 0.41 -0.013716 0.54711 -0.83695
-0.020424 -0.026549 0.41 -0.05425 0.53733 -0.84162
-0.020424 -0.025791 0.41 -0.079488 0.52722 -0.846
-0.020424 -0.025032 0.41 -0.10735 0.52051 -0.84708
-0.020424 -0.024274 0.41 -0.13063 0.51367 -0.84798
-0.020424 -0.023515 0.41 -0.14388 0.50729 -0.84968
-0.020424 -0.022757 0.41 -0.14716 0.50156 -0.85252
-0.020424 -0.021998 0.41 -0.13809 0.50153 -0.85405
-0.020424 -0.02124 0.41 -0.14083 0.49156 -0.85938
-0.020474 -0.020531 0.411 -0.13389 0.48331 -0.86515
-0.020474 -0.019771 0.411 -0.1327 0.47544 -0.86968
-0.020474 -0.01901 0.411 -0.13136 0.46894 -0.87341
-0.020474 -0.01825 0.411 -0.13739 0.46337 -0.87545
-0.020474 -0.017489 0.411 -0.14026 0.46244 -0.87549
-0.020474 -0.016729 0.411 -0.15492 0.45394 -0.87746
-0.020524 -0.016007 0.412 -0.1747 0.44553 -0.87805
-0.020524 -0.015245 0.412 -0.18808 0.43987 -0.87815
-0.020524 -0.014483 0.412 -0.18462 0.42863 -0.88442
-0.020524 -0.013721 0.412 -0.18824 0.41973 -0.88791
-0.020524 -0.012958 0.412 -0.1939 0.41847 -0.88729
-0.020524 -0.012196 0.412 -0.20171 0.41386 -0.88771
-0.020524 -0.011434 0.412 -0.21044 0.40913 -0.88788
-0.020524 -0.010672 0.412 -0.22404 0.40944 -0.8844
-0.020574 -0.0099334 0.413 -0.2393 0.40474 -0.88257
-0.020574 -0.0091693 0.413 -0.26806 0.40003 -0.87643
-0.020574 -0.0084052 0.413 -0.30194 0.39584 -0.86726
-0.020574 -0.0076411 0.413 -0.34268 0.39161 -0.85394
-0.020624 -0.0068936 0.414 -0.39369 0.3854 -0.83455
-0.020624 -0.0061277 0.414 -0.43222 0.38889 -0.8136
-0.020673 -0.0053747 0.415 -0.46142 0.39159 -0.79608
-0.020673 -0.0046068 0.415 -0.48284 0.39128 -0.78343
-0.020673 -0.003839 0.415 -0.49943 0.38978 -0.77372
-0.020723 -0.0030786 0.416 -0.51088 0.39643 -0.76279
-0.020773 -0.0023145 0.417 -0.51484 0.39526 -0.76073
-0.020773 -0.001543 0.417 -0.51176 0.39679 -0.76201
-0.020773 -0.00077151 0.417 -0.4977 0.38808 -0.77569
-0.020823 0 0.418 -0.51634 0.4071 -0.75343
-0.020873 0.00077521 0.419 -0.51822 0.42065 -0.74465
-0.020873 0.0015504 0.419 -0.52318 0.40916 -0.74758
-0.020923 0.0023312 0.42 -0.54747 0.417 -0.72553
-0.020923 0.0031082 0.42 -0.53864 0.39826 -0.74247
-0.020972 0.0038945 0.421 -0.55691 0.41173 -0.72134
-0.021022 0.0046846 0.422 -0.58672 0.43582 -0.68251
-0.021072 0.0054783 0.423 -0.61095 0.45722 -0.64629
-0.021072 0.0062609 0.423 -0.59136 0.44064 -0.67538
-0.021122 0.0070601 0.424 -0.60718 0.47392 -0.63775
-0.021172 0.0078631 0.425 -0.6048 0.51331 -0.60888
-0.021221 0.0086698 0.426 -0.60597 0.54529 -0.57918
-0.021271 0.0094801 0.427 -0.60129 0.58155 -0.54795
-0.021321 0.010294 0.428 -0.60117 0.60153 -0.52608
-0.021321 0.011086 0.428 -0.50165 0.60112 -0.62209
-0.021539 -0.11048 0.449 -0.22667 0.65608 -0.71985
-0.021539 -0.10965 0.449 -0.27395 0.64344 -0.7148
-0.021587 -0.10907 0.45 -0.15093 0.68493 -0.71281
-0.021587 -0.10823 0.45 -0.25132 0.66961 -0.6989
-0.021587 -0.1074 0.45 -0.28962 0.66265 -0.69066
-0.021587 -0.10657 0.45 -0.29302 0.65951 -0.69224
-0.021635 -0.10597 0.451 -0.39946 0.61432 -0.68047
-0.021635 -0.10514 0.451 -0.38914 0.62468 -0.67701
-0.021683 -0.10453 0.452 -0.47666 0.58186 -0.65896
-0.021731 -0.10393 0.453 -0.55017 0.53005 -0.64526
-0.021779 -0.10332 0.454 -0.58475 0.4692 -0.66176
-0.021827 -0.1027 0.455 -0.62301 0.38494 -0.68094
-0.021827 -0.10186 0.455 -0.57438 0.47903 -0.66379
-0.021923 -0.10146 0.457 -0.66411 0.17829 -0.72606
-0.02197 -0.10084 0.458 -0.65316 0.070731 -0.75391
-0.022066 -0.099574 0.46 -0.46947 -0.17669 -0.86509
-0.022066 -0.098723 0.46 -0.46386 -0.15077 -0.87299
-0.022114 -0.098085 0.461 -0.36681 -0.23411 -0.90036
-0.022114 -0.097232 0.461 -0.34689 -0.21859 -0.91208
-0.022114 -0.096379 0.461 -0.30286 -0.2294 -0.92501
-0.022114 -0.095526 0.461 -0.25354 -0.23814 -0.93755
-0.022162 -0.094879 0.462 -0.21756 -0.25736 -0.94151
-0.022162 -0.094024 0.462 -0.18478 -0.25852 -0.94817
-0.022162 -0.093169 0.462 -0.15384 -0.25045 -0.95583
-0.022162 -0.092315 0.462 -0.12481 -0.24801 -0.96068
-0.022162 -0.09146 0.462 -0.081625 -0.23858 -0.96769
-0.02221 -0.090801 0.463 -0.016995 -0.2175 -0.97591
-0.02221 -0.089944 0.463 0.050265 -0.19105 -0.98029
-0.022162 -0.088895 0.462 0.13739 -0.16157 -0.97725
-0.02221 -0.088231 0.463 0.22534 -0.12308 -0.96647
-0.022162 -0.087186 0.462 0.31878 -0.07582 -0.94479
-0.022162 -0.086331 0.462 0.40863 -0.028225 -0.91226
-0.022162 -0.085476 0.462 0.46072 -0.014947 -0.88742
-0.022114 -0.084438 0.461 0.5486 0.038037 -0.83522
-0.022066 -0.083404 0.46 0.60422 0.060949 -0.79449
-0.022066 -0.082553 0.46 0.60927 0.078608 -0.78906
-0.022018 -0.081525 0.459 0.63381 0.097908 -0.76726
-0.02197 -0.0805 0.458 0.67013 0.1078 -0.73437
-0.021923 -0.079478 0.457 0.69647 0.11824 -0.70778
-0.021875 -0.078461 0.456 0.72617 0.132 -0.67473
-0.020052 -0.054908 0.418 0.55755 0.42689 -0.71197
-0.020004 -0.054006 0.417 0.50213 0.41134 -0.7607
-0.019956 -0.053106 0.416 0.4512 0.38168 -0.80669
-0.019956 -0.052337 0.416 0.49806 0.40815 -0.76509
-0.019908 -0.051443 0.415 0.46846 0.36011 -0.80676
-0.019908 -0.050675 0.415 0.45095 0.40109 -0.79735
-0.019908 -0.049907 0.415 0.43196 0.44031 -0.78711
-0.01986 -0.049021 0.414 0.41314 0.41013 -0.81309
-0.01986 -0.048255 0.414 0.39918 0.44367 -0.80238
-0.019812 -0.047375 0.413 0.39847 0.41364 -0.81861
-0.019812 -0.046611 0.413 0.3873 0.44233 -0.80891
-0.019812 -0.045846 0.413 0.38521 0.46461 -0.79734
-0.019764 -0.044973 0.412 0.38519 0.44822 -0.80668
-0.019764 -0.044211 0.412 0.37734 0.46346 -0.80176
-0.019764 -0.043449 0.412 0.36613 0.47608 -0.79956
-0.019716 -0.042583 0.411 0.33989 0.47277 -0.813
-0.019716 -0.041822 0.411 0.30746 0.4871 -0.81743
-0.019716 -0.041062 0.411 0.27452 0.49847 -0.82229
-0.019668 -0.040204 0.41 0.23295 0.49581 -0.83661
-0.019668 -0.039445 0.41 0.19631 0.50523 -0.84036
-0.019668 -0.038686 0.41 0.15959 0.51147 -0.84435
-0.019668 -0.037928 0.41 0.12601 0.51466 -0.84808
-0.019668 -0.037169 0.41 0.10771 0.51578 -0.84992
-0.019668 -0.036411 0.41 0.091631 0.52334 -0.84718
-0.019668 -0.035652 0.41 0.085828 0.52827 -0.84473
-0.019668 -0.034894 0.41 0.07632 0.5346 -0.84165
-0.01962 -0.034052 0.409 0.06895 0.53908 -0.83943
-0.01962 -0.033295 0.409 0.06895 0.53908 -0.83943
-0.01962 -0.032538 0.409 0.067153 0.53849 -0.83995
-0.01962 -0.031782 0.409 0.064278 0.54119 -0.83844
-0.01962 -0.031025 0.409 0.056153 0.53886 -0.84052
-0.01962 -0.030268 0.409 0.048054 0.53451 -0.8438
-0.01962 -0.029512 0.409 0.030652 0.52891 -0.84812
-0.01962 -0.028755 0.409 0.015858 0.52372 -0.85174
-0.01962 -0.027998 0.409 -0.0046873 0.51698 -0.85598
-0.01962 -0.027241 0.409 -0.029162 0.51126 -0.85893
-0.01962 -0.026485 0.409 -0.069903 0.50116 -0.86253
-0.01962 -0.025728 0.409 -0.093908 0.49094 -0.86612
-0.01962 -0.024971 0.409 -0.11936 0.48745 -0.86495
-0.01962 -0.024215 0.409 -0.14398 0.48082 -0.86492
-0.019668 -0.023515 0.41 -0.15622 0.47396 -0.86658
-0.019668 -0.022757 0.41 -0.1567 0.46881 -0.86929
-0.019668 -0.021998 0.41 -0.15372 0.47123 -0.86851
-0.019668 -0.02124 0.41 -0.1567 0.46881 -0.86929
-0.019668 -0.020481 0.41 -0.14935 0.46861 -0.87069
-0.019668 -0.019722 0.41 -0.1472 0.46136 -0.87492
-0.019668 -0.018964 0.41 -0.14403 0.45482 -0.87886
-0.019716 -0.01825 0.411 -0.14726 0.44537 -0.88315
-0.019716 -0.017489 0.411 -0.14639 0.44466 -0.88365
-0.019716 -0.016729 0.411 -0.15652 0.43549 -0.88648
-0.019716 -0.015969 0.411 -0.18139 0.42817 -0.8853
-0.019716 -0.015208 0.411 -0.19419 0.42007 -0.88647
-0.019716 -0.014448 0.411 -0.1942 0.41056 -0.89092
-0.019716 -0.013687 0.411 -0.19613 0.39993 -0.89531
-0.019764 -0.012958 0.412 -0.19987 0.39475 -0.89678
-0.019764 -0.012196 0.412 -0.21094 0.38564 -0.89821
-0.019764 -0.011434 0.412 -0.22125 0.38392 -0.89647
-0.019764 -0.010672 0.412 -0.23115 0.38547 -0.8933
-0.019812 -0.0099334 0.413 -0.24231 0.38604 -0.89009
-0.019812 -0.0091693 0.413 -0.26799 0.37931 -0.88561
-0.019812 -0.0084052 0.413 -0.29876 0.37573 -0.87725
-0.019812 -0.0076411 0.413 -0.3422 0.36836 -0.86441
-0.019812 -0.006877 0.413 -0.38807 0.36595 -0.84586
-0.01986 -0.0061277 0.414 -0.43019 0.3667 -0.8249
-0.01986 -0.0053617 0.414 -0.45686 0.37006 -0.80891
-0.019908 -0.0046068 0.415 -0.47844 0.36813 -0.79723
-0.019908 -0.003839 0.415 -0.50009 0.37066 -0.78264
-0.019956 -0.0030786 0.416 -0.51322 0.37138 -0.77375
-0.019956 -0.002309 0.416 -0.51746 0.37296 -0.77015
-0.020004 -0.001543 0.417 -0.51898 0.37341 -0.76891
-0.020004 -0.00077151 0.417 -0.51239 0.37483 -0.77263
-0.020052 0 0.418 -0.52593 0.38576 -0.75801
-0.020052 0.00077336 0.418 -0.51321 0.38946 -0.76481
-0.0201 0.0015504 0.419 -0.5327 0.39817 -0.74679
-0.0201 0.0023256 0.419 -0.53649 0.38193 -0.75254
-0.020148 0.0031082 0.42 -0.55241 0.39326 -0.73497
-0.020196 0.0038945 0.421 -0.56895 0.40918 -0.71335
-0.020196 0.0046735 0.421 -0.56014 0.38949 -0.73112
-0.020244 0.0054653 0.422 -0.58736 0.41934 -0.69221
-0.020292 0.0062609 0.423 -0.60492 0.44574 -0.65984
-0.020292 0.0070435 0.423 -0.58001 0.42142 -0.69713
-0.020339 0.0078446 0.424 -0.5898 0.46854 -0.65773
-0.020387 0.0086494 0.425 -0.58423 0.51078 -0.6307
-0.020435 0.0094579 0.426 -0.57445 0.54513 -0.61061
-0.020483 0.01027 0.427 -0.57728 0.57274 -0.58199
-0.020483 0.01106 0.427 -0.49225 0.56081 -0.66572
-0.020531 0.011878 0.428 -0.50334 0.58621 -0.63483
-0.02071 -0.10882 0.449 -0.17582 0.67748 -0.71422
-0.02071 -0.10799 0.449 -0.25092 0.65963 -0.70847
-0.02071 -0.10716 0.449 -0.25878 0.65526 -0.7097
-0.020756 -0.10657 0.45 -0.36277 0.62409 -0.69203
-0.020756 -0.10574 0.45 -0.37018 0.63654 -0.6766
-0.020803 -0.10514 0.451 -0.45843 0.58147 -0.67211
-0.020849 -0.10453 0.452 -0.53762 0.51202 -0.66992
-0.020849 -0.1037 0.452 -0.51388 0.57951 -0.63253
-0.020941 -0.10332 0.454 -0.6289 0.37783 -0.67951
-0.020941 -0.10248 0.454 -0.60347 0.48716 -0.63127
-0.020987 -0.10186 0.455 -0.62821 0.43076 -0.64792
-0.021033 -0.10124 0.456 -0.63389 0.34391 -0.69275
-0.021079 -0.10062 0.457 -0.65989 0.25155 -0.708
-0.021172 -0.10021 0.459 -0.61667 -0.090182 -0.78204
-0.021218 -0.099574 0.46 -0.48804 -0.20871 -0.8475
-0.021264 -0.098938 0.461 -0.36561 -0.30669 -0.87879
-0.021264 -0.098085 0.461 -0.37831 -0.27084 -0.88517
-0.021264 -0.097232 0.461 -0.36544 -0.24706 -0.89745
-0.02131 -0.096588 0.462 -0.27552 -0.29113 -0.91615
-0.02131 -0.095734 0.462 -0.23695 -0.28541 -0.92865
-0.02131 -0.094879 0.462 -0.21522 -0.28471 -0.93414
-0.02131 -0.094024 0.462 -0.18152 -0.28174 -0.94216
-0.021356 -0.093371 0.463 -0.14786 -0.2775 -0.94928
-0.021356 -0.092514 0.463 -0.11454 -0.27449 -0.95474
-0.021356 -0.091658 0.463 -0.062378 -0.26461 -0.96234
-0.021356 -0.090801 0.463 0.004694 -0.24154 -0.97038
-0.021356 -0.089944 0.463 0.077294 -0.2115 -0.97432
-0.021356 -0.089088 0.463 0.16604 -0.17961 -0.96962
-0.021356 -0.088231 0.463 0.25702 -0.14383 -0.95564
-0.02131 -0.087186 0.462 0.35261 -0.10252 -0.93014
-0.02131 -0.086331 0.462 0.44398 -0.054479 -0.89438
-0.02131 -0.085476 0.462 0.48705 -0.045095 -0.87221
-0.021264 -0.084438 0.461 0.5748 0.011892 -0.81821
-0.021218 -0.083404 0.46 0.6231 0.036417 -0.7813
-0.021172 -0.082374 0.459 0.65493 0.054062 -0.75375
-0.021125 -0.081347 0.458 0.70032 0.073944 -0.70999
-0.021125 -0.0805 0.458 0.66877 0.085181 -0.73857
-0.021079 -0.079478 0.457 0.68896 0.094918 -0.71856
-0.021033 -0.078461 0.456 0.71229 0.10493 -0.694
-0.01928 -0.055682 0.418 0.53623 0.4187 -0.73291
-0.019234 -0.054777 0.417 0.46302 0.41891 -0.78111
-0.019234 -0.054006 0.417 0.5479 0.40157 -0.73386
-0.019188 -0.053106 0.416 0.48238 0.40368 -0.7774
-0.019142 -0.052211 0.415 0.43769 0.38025 -0.81476
-0.019142 -0.051443 0.415 0.47748 0.3927 -0.786
-0.019142 -0.050675 0.415 0.4601 0.40783 -0.78866
-0.019096 -0.049787 0.414 0.42665 0.4007 -0.8108
-0.019096 -0.049021 0.414 0.42115 0.41514 -0.80641
-0.01905 -0.048139 0.413 0.40719 0.42702 -0.80738
-0.01905 -0.047375 0.413 0.40086 0.43037 -0.80876
-0.01905 -0.046611 0.413 0.39523 0.43696 -0.808
-0.019004 -0.045735 0.412 0.39688 0.43946 -0.80583
-0.019004 -0.044973 0.412 0.39316 0.44359 -0.80539
-0.018958 -0.044104 0.411 0.38369 0.44253 -0.81052
-0.018958 -0.043343 0.411 0.37305 0.45048 -0.81111
-0.018958 -0.042583 0.411 0.35492 0.45595 -0.81618
-0.018911 -0.041721 0.41 0.31154 0.45115 -0.83631
-0.018911 -0.040962 0.41 0.27842 0.46205 -0.84202
-0.018911 -0.040204 0.41 0.24413 0.46747 -0.84963
-0.018911 -0.039445 0.41 0.20283 0.46915 -0.85951
-0.018911 -0.038686 0.41 0.16366 0.47265 -0.86592
-0.018911 -0.037928 0.41 0.13586 0.47467 -0.86962
-0.018865 -0.037079 0.409 0.11792 0.48177 -0.86833
-0.018865 -0.036322 0.409 0.10156 0.48842 -0.86668
-0.018865 -0.035565 0.409 0.094627 0.49448 -0.86403
-0.018865 -0.034809 0.409 0.088788 0.49829 -0.86245
-0.018865 -0.034052 0.409 0.079144 0.50362 -0.8603
-0.018865 -0.033295 0.409 0.077161 0.50579 -0.8592
-0.018865 -0.032538 0.409 0.073313 0.50802 -0.85822
-0.018865 -0.031782 0.409 0.062928 0.51046 -0.85759
-0.018865 -0.031025 0.409 0.051666 0.51149 -0.85774
-0.018865 -0.030268 0.409 0.040647 0.50338 -0.86311
-0.018865 -0.029512 0.409 0.020927 0.49517 -0.86855
-0.018865 -0.027998 0.409 -0.020191 0.47844 -0.87789
-0.018865 -0.027241 0.409 -0.048246 0.47054 -0.88106
-0.018865 -0.026485 0.409 -0.081282 0.46125 -0.88354
-0.018865 -0.025728 0.409 -0.10671 0.45176 -0.88574
-0.018865 -0.024971 0.409 -0.12789 0.44832 -0.88468
-0.018865 -0.024215 0.409 -0.14814 0.4432 -0.8841
-0.018865 -0.023458 0.409 -0.15604 0.43879 -0.88494
-0.018911 -0.022757 0.41 -0.15639 0.4301 -0.88913
-0.018911 -0.021998 0.41 -0.15247 0.43194 -0.88892
-0.018911 -0.02124 0.41 -0.1589 0.43384 -0.88687
-0.018911 -0.020481 0.41 -0.15486 0.43724 -0.88591
-0.018911 -0.019722 0.41 -0.156 0.43482 -0.8869
-0.018911 -0.018964 0.41 -0.1562 0.43247 -0.88802
-0.018911 -0.018205 0.41 -0.16241 0.42575 -0.89015
-0.018911 -0.017447 0.41 -0.16376 0.4209 -0.8922
-0.018911 -0.016688 0.41 -0.1702 0.41164 -0.89531
-0.018958 -0.015969 0.411 -0.19004 0.40528 -0.89422
-0.018958 -0.015208 0.411 -0.19707 0.39986 -0.89514
-0.018958 -0.014448 0.411 -0.2005 0.39306 -0.89739
-0.018958 -0.013687 0.411 -0.20495 0.38529 -0.89975
-0.018958 -0.012927 0.411 -0.20658 0.37768 -0.9026
-0.019004 -0.012196 0.412 -0.21437 0.36872 -0.90448
-0.019004 -0.011434 0.412 -0.22709 0.36174 -0.9042
-0.019004 -0.010672 0.412 -0.23831 0.3599 -0.90204
-0.019004 -0.0099093 0.412 -0.25094 0.36124 -0.89807
-0.019004 -0.0091471 0.412 -0.27737 0.35687 -0.89202
-0.01905 -0.0084052 0.413 -0.30332 0.35321 -0.88501
-0.01905 -0.0076411 0.413 -0.3427 0.34741 -0.87285
-0.01905 -0.006877 0.413 -0.38557 0.34281 -0.85663
-0.01905 -0.0061129 0.413 -0.42606 0.34623 -0.83582
-0.019096 -0.0053617 0.414 -0.45518 0.34685 -0.82007
-0.019096 -0.0045957 0.414 -0.47271 0.34919 -0.80908
-0.019142 -0.003839 0.415 -0.49391 0.35034 -0.79581
-0.019142 -0.0030712 0.415 -0.51164 0.34972 -0.7848
-0.019188 -0.002309 0.416 -0.51895 0.35003 -0.77985
-0.019188 -0.0015393 0.416 -0.51987 0.35397 -0.77746
-0.019234 -0.00077151 0.417 -0.52089 0.35844 -0.77472
-0.01928 0 0.418 -0.529 0.37093 -0.76326
-0.01928 0.00077336 0.418 -0.52262 0.37635 -0.765
-0.01928 0.0015467 0.418 -0.51838 0.36785 -0.77199
-0.019327 0.0023256 0.419 -0.54441 0.38016 -0.74772
-0.019373 0.0031082 0.42 -0.55794 0.38914 -0.73299
-0.019419 0.0038945 0.421 -0.57093 0.40149 -0.71613
-0.019419 0.0046735 0.421 -0.57154 0.39269 -0.72051
-0.019465 0.0054653 0.422 -0.59498 0.42133 -0.68445
-0.019465 0.0062461 0.422 -0.58035 0.41202 -0.70245
-0.019511 0.0070435 0.423 -0.59374 0.44197 -0.67241
-0.019511 0.0078261 0.423 -0.56458 0.41437 -0.71382
-0.019557 0.008629 0.424 -0.56873 0.46324 -0.67967
-0.019603 0.0094357 0.425 -0.54943 0.50885 -0.66273
-0.019649 0.010246 0.426 -0.54928 0.53419 -0.6426
-0.019696 0.01106 0.427 -0.56062 0.56148 -0.60864
-0.019696 0.01185 0.427 -0.48353 0.54247 -0.68697
-0.019838 -0.10858 0.448 -0.20307 0.66153 -0.7219
-0.019838 -0.10775 0.448 -0.23109 0.65397 -0.72036
-0.019838 -0.10692 0.448 -0.18115 0.66937 -0.72051
-0.019882 -0.10633 0.449 -0.30128 0.65186 -0.69592
-0.019882 -0.1055 0.449 -0.27706 0.67016 -0.68856
-0.019926 -0.1049 0.45 -0.41144 0.62268 -0.66558
-0.020059 -0.10309 0.453 -0.62065 0.44544 -0.64528
-0.020103 -0.10248 0.454 -0.65294 0.39657 -0.64529
-0.020148 -0.10186 0.455 -0.67295 0.35679 -0.64795
-0.020148 -0.10102 0.455 -0.61165 0.49031 -0.62087
-0.020325 -0.10021 0.459 -0.6367 -0.10468 -0.76397
-0.020413 -0.099791 0.461 -0.34772 -0.38226 -0.85613
-0.020413 -0.098938 0.461 -0.38662 -0.3259 -0.86273
-0.020458 -0.098298 0.462 -0.2344 -0.39622 -0.88773
-0.020458 -0.097443 0.462 -0.28405 -0.34718 -0.89374
-0.020458 -0.096588 0.462 -0.28398 -0.31666 -0.90503
-0.020458 -0.095734 0.462 -0.24793 -0.30955 -0.91799
-0.020458 -0.094879 0.462 -0.22488 -0.3099 -0.92379
-0.020502 -0.094228 0.463 -0.17133 -0.32797 -0.92902
-0.020502 -0.093371 0.463 -0.14244 -0.31972 -0.93674
-0.020502 -0.092514 0.463 -0.10527 -0.31301 -0.9439
-0.020502 -0.091658 0.463 -0.046095 -0.29971 -0.95292
-0.020502 -0.090801 0.463 0.030708 -0.27189 -0.96184
-0.020502 -0.089944 0.463 0.11008 -0.24095 -0.96427
-0.020502 -0.089088 0.463 0.20179 -0.20953 -0.95675
-0.020502 -0.088231 0.463 0.29643 -0.16957 -0.93988
-0.020458 -0.087186 0.462 0.39088 -0.12347 -0.91212
-0.020458 -0.086331 0.462 0.48041 -0.074354 -0.87389
-0.020458 -0.085476 0.462 0.51397 -0.065362 -0.85532
-0.020413 -0.084438 0.461 0.59705 -0.0062183 -0.80218
-0.020369 -0.083404 0.46 0.63886 0.017178 -0.76913
-0.020325 -0.082374 0.459 0.66456 0.035157 -0.7464
-0.02028 -0.081347 0.458 0.70409 0.053362 -0.70811
-0.020236 -0.080324 0.457 0.74146 0.064449 -0.66789
-0.020236 -0.079478 0.457 0.68143 0.072709 -0.72826
-0.020192 -0.078461 0.456 0.69901 0.0779 -0.71085
-0.018465 -0.055549 0.417 0.43344 0.40964 -0.8027
-0.018465 -0.054777 0.417 0.54034 0.37901 -0.75125
-0.018421 -0.053876 0.416 0.4691 0.38623 -0.79421
-0.018421 -0.053106 0.416 0.52475 0.3807 -0.76138
-0.018376 -0.052211 0.415 0.47256 0.36226 -0.8034
-0.018376 -0.051443 0.415 0.49001 0.37313 -0.78782
-0.018332 -0.050553 0.414 0.45168 0.3698 -0.81193
-0.018332 -0.049787 0.414 0.44097 0.38186 -0.81224
-0.018288 -0.048903 0.413 0.42938 0.3867 -0.81615
-0.018288 -0.048139 0.413 0.41549 0.39663 -0.81856
-0.018288 -0.047375 0.413 0.41034 0.40124 -0.81892
-0.018288 -0.046611 0.413 0.4105 0.40405 -0.81746
-0.018244 -0.045735 0.412 0.40954 0.40575 -0.8171
-0.018244 -0.044973 0.412 0.40731 0.40619 -0.81799
-0.018199 -0.044104 0.411 0.3975 0.4089 -0.82146
-0.018199 -0.043343 0.411 0.37896 0.41741 -0.82593
-0.018155 -0.042479 0.41 0.35265 0.41738 -0.83751
-0.018155 -0.041721 0.41 0.31945 0.42383 -0.84753
-0.018155 -0.040962 0.41 0.28273 0.42527 -0.85977
-0.018111 -0.040105 0.409 0.23881 0.42159 -0.87478
-0.018111 -0.039349 0.409 0.20584 0.43164 -0.87825
-0.018111 -0.038592 0.409 0.1714 0.43455 -0.88419
-0.018111 -0.037835 0.409 0.14846 0.43931 -0.88598
-0.018111 -0.037079 0.409 0.12991 0.44666 -0.88522
-0.018111 -0.036322 0.409 0.11819 0.45117 -0.88458
-0.018111 -0.035565 0.409 0.11039 0.45387 -0.8842
-0.018111 -0.034809 0.409 0.10273 0.45425 -0.88493
-0.018111 -0.034052 0.409 0.090123 0.4571 -0.88484
-0.018066 -0.033214 0.408 0.079475 0.46297 -0.88281
-0.018111 -0.032538 0.409 0.0666 0.4678 -0.88132
-0.018111 -0.031782 0.409 0.053082 0.46968 -0.88124
-0.018066 -0.030949 0.408 0.039652 0.47162 -0.88091
-0.018066 -0.030194 0.408 0.027226 0.4635 -0.88568
-0.018066 -0.029439 0.408 0.0068333 0.45754 -0.88916
-0.018066 -0.028685 0.408 -0.013714 0.45132 -0.89226
-0.018066 -0.02793 0.408 -0.027505 0.44572 -0.89475
-0.018066 -0.027175 0.408 -0.049204 0.44063 -0.89634
-0.018066 -0.02642 0.408 -0.080806 0.43337 -0.89758
-0.018066 -0.025665 0.408 -0.1036 0.42606 -0.89874
-0.018111 -0.024971 0.409 -0.12685 0.42165 -0.89784
-0.018111 -0.024215 0.409 -0.14918 0.41792 -0.89615
-0.018111 -0.023458 0.409 -0.15895 0.41487 -0.89589
-0.018111 -0.022701 0.409 -0.16132 0.40904 -0.89814
-0.018111 -0.021944 0.409 -0.15895 0.41487 -0.89589
-0.018155 -0.02124 0.41 -0.16735 0.41184 -0.89576
-0.018155 -0.020481 0.41 -0.16558 0.41035 -0.89677
-0.018155 -0.019722 0.41 -0.16278 0.40974 -0.89756
-0.018155 -0.018964 0.41 -0.15813 0.40843 -0.89899
-0.018155 -0.018205 0.41 -0.16413 0.40477 -0.89957
-0.018155 -0.017447 0.41 -0.17019 0.40027 -0.90046
-0.018155 -0.016688 0.41 -0.18042 0.3913 -0.9024
-0.018155 -0.01593 0.41 -0.19905 0.38324 -0.90195
-0.018199 -0.015208 0.411 -0.20398 0.37538 -0.90415
-0.018199 -0.014448 0.411 -0.2056 0.36767 -0.90694
-0.018199 -0.013687 0.411 -0.21335 0.35426 -0.91048
-0.018199 -0.012927 0.411 -0.21671 0.34796 -0.91212
-0.018199 -0.012167 0.411 -0.22537 0.34553 -0.91094
-0.018244 -0.011434 0.412 -0.23297 0.3381 -0.91182
-0.018244 -0.010672 0.412 -0.24449 0.33364 -0.91044
-0.018244 -0.0099093 0.412 -0.25628 0.33519 -0.90662
-0.018244 -0.0091471 0.412 -0.28665 0.32879 -0.89985
-0.018244 -0.0083848 0.412 -0.31674 0.32552 -0.89091
-0.018244 -0.0076226 0.412 -0.3501 0.32147 -0.87982
-0.018288 -0.006877 0.413 -0.38733 0.31407 -0.8668
-0.018288 -0.0061129 0.413 -0.42308 0.31918 -0.84801
-0.018332 -0.0053617 0.414 -0.45261 0.31739 -0.83331
-0.018332 -0.0045957 0.414 -0.47032 0.32184 -0.82172
-0.018376 -0.003839 0.415 -0.49377 0.31723 -0.80967
-0.018376 -0.0030712 0.415 -0.50891 0.31998 -0.79914
-0.018421 -0.002309 0.416 -0.51782 0.31955 -0.79357
-0.018421 -0.0015393 0.416 -0.5207 0.32327 -0.79017
-0.018465 -0.00077151 0.417 -0.5262 0.32997 -0.78373
-0.018465 0 0.417 -0.52814 0.33418 -0.78064
-0.018509 0.00077336 0.418 -0.52666 0.35427 -0.77274
-0.018509 0.0015467 0.418 -0.52738 0.3583 -0.77039
-0.018554 0.0023256 0.419 -0.54792 0.36397 -0.7532
-0.018554 0.0031008 0.419 -0.54798 0.35695 -0.75651
-0.018598 0.0038853 0.42 -0.5597 0.37053 -0.74125
-0.018598 0.0046623 0.42 -0.55507 0.35599 -0.75178
-0.018642 0.0054524 0.421 -0.57575 0.37967 -0.72413
-0.018686 0.0062461 0.422 -0.58952 0.41029 -0.69579
-0.018686 0.0070268 0.422 -0.57087 0.39059 -0.72218
-0.018731 0.0078261 0.423 -0.58391 0.42968 -0.68878
-0.018775 0.008629 0.424 -0.58387 0.46022 -0.6688
-0.018775 0.0094135 0.424 -0.53896 0.44564 -0.71479
-0.018819 0.010222 0.425 -0.53208 0.48056 -0.6971
-0.018863 0.011034 0.426 -0.53662 0.50758 -0.6741
-0.018908 0.01185 0.427 -0.55457 0.53585 -0.63665
-0.018969 -0.10999 0.447 -0.12351 0.68069 -0.72208
-0.018969 -0.10917 0.447 -0.15907 0.67529 -0.72019
-0.018969 -0.10834 0.447 -0.1932 0.66732 -0.71928
-0.019011 -0.10775 0.448 -0.22094 0.64989 -0.72721
-0.019011 -0.10692 0.448 -0.259 0.6507 -0.7138
-0.019011 -0.10609 0.448 -0.23159 0.6715 -0.70389
-0.019011 -0.10527 0.448 -0.17895 0.69479 -0.69659
-0.019223 -0.10225 0.453 -0.63885 0.45897 -0.61743
-0.01952 -0.10043 0.46 -0.52375 -0.28417 -0.80307
-0.019563 -0.099791 0.461 -0.39066 -0.3821 -0.83749
-0.019563 -0.098938 0.461 -0.42343 -0.31756 -0.84845
-0.019605 -0.098298 0.462 -0.2717 -0.39999 -0.87532
-0.019605 -0.097443 0.462 -0.31197 -0.35039 -0.88312
-0.019605 -0.096588 0.462 -0.30815 -0.31206 -0.8987
-0.019605 -0.095734 0.462 -0.2727 -0.30096 -0.91382
-0.019648 -0.095084 0.463 -0.18892 -0.36337 -0.91229
-0.019648 -0.094228 0.463 -0.1683 -0.34819 -0.92219
-0.019648 -0.093371 0.463 -0.13641 -0.34115 -0.93006
-0.019648 -0.092514 0.463 -0.093758 -0.33123 -0.93888
-0.019648 -0.091658 0.463 -0.024802 -0.31679 -0.94817
-0.019648 -0.090801 0.463 0.062724 -0.28581 -0.95623
-0.019648 -0.089944 0.463 0.15176 -0.24916 -0.9565
-0.019648 -0.089088 0.463 0.24075 -0.21634 -0.94617
-0.019648 -0.088231 0.463 0.33732 -0.17578 -0.92484
-0.019648 -0.087375 0.463 0.42833 -0.12858 -0.89443
-0.019605 -0.086331 0.462 0.51523 -0.083298 -0.85299
-0.019563 -0.085291 0.461 0.57737 -0.047389 -0.81511
-0.019563 -0.084438 0.461 0.61359 -0.020651 -0.78936
