0.0015609 -0.028174 0.423 0.10893 0.099226 -0.98908
0.0015609 -0.027391 0.423 0.19928 0.097818 -0.97505
0.0015609 -0.026609 0.423 0.27457 0.095984 -0.95677
0.0015572 -0.025765 0.422 0.32369 0.09664 -0.94121
0.0015572 -0.024984 0.422 0.35905 0.086563 -0.92929
0.0015535 -0.024146 0.421 0.36276 0.072943 -0.92902
0.0015535 -0.023367 0.421 0.34832 0.061531 -0.93535
0.0015535 -0.022588 0.421 0.312 0.045311 -0.949
0.0015498 -0.021758 0.42 0.2585 0.025676 -0.96567
0.0015498 -0.020981 0.42 0.21056 0.02079 -0.97736
0.0015498 -0.020204 0.42 0.1456 0.011574 -0.98928
0.0015498 -0.019426 0.42 0.11442 0.011622 -0.99336
0.0015498 -0.018649 0.42 0.07127 0.011669 -0.99739
0.0015498 -0.017872 0.42 0.015994 0.011697 -0.9998
0.0015498 -0.016318 0.42 -0.010664 0.009571 -0.9999
0.0015498 -0.015541 0.42 -0.051113 0.0223 -0.99844
0.0015498 -0.014764 0.42 -0.098677 0.02222 -0.99487
0.0015498 -0.013987 0.42 -0.13419 0.022127 -0.99071
0.0015498 -0.01321 0.42 -0.17321 0.034546 -0.98428
0.0015498 -0.012433 0.42 -0.20237 0.048892 -0.97809
0.0015535 -0.011684 0.421 -0.23046 0.058743 -0.97131
0.0015535 -0.010905 0.421 -0.26513 0.063293 -0.96213
0.0015535 -0.010126 0.421 -0.29118 0.076894 -0.95357
0.0015535 -0.0093469 0.421 -0.32018 0.08708 -0.94335
0.0015535 -0.008568 0.421 -0.33765 0.098332 -0.93612
0.0015572 -0.0078076 0.422 -0.36838 0.088168 -0.92548
0.0015572 -0.0070268 0.422 -0.43367 0.075088 -0.89794
0.0015572 -0.0062461 0.422 -0.48726 0.061777 -0.87107
0.0015609 -0.0054783 0.423 -0.5302 0.05984 -0.84576
0.0015609 -0.0046957 0.423 -0.56066 0.035818 -0.82727
0.0015646 -0.0039223 0.424 -0.5793 0.023177 -0.81478
0.0015683 -0.0031452 0.425 -0.57795 0.010292 -0.81601
0.0015683 -0.0023589 0.425 -0.57394 -0.0060247 -0.81888
0.001572 -0.0015763 0.426 -0.55818 -0.020874 -0.82945
0.001572 -0.00078816 0.426 -0.55971 -0.037327 -0.82785
0.0015756 0 0.427 -0.5579 -0.050262 -0.82839
0.0015756 0.00079001 0.427 -0.56698 -0.042169 -0.82265
0.0015793 0.0015837 0.428 -0.59056 -0.037859 -0.80611
0.0015793 0.0023756 0.428 -0.61053 -0.027261 -0.79153
0.0015867 0.0031822 0.43 -0.64139 -0.026286 -0.76676
0.0015867 0.0039778 0.43 -0.65896 -0.0039069 -0.75217
0.0015904 0.0047845 0.431 -0.67613 0.0030544 -0.73677
0.0015941 0.0055948 0.432 -0.66077 0.040407 -0.7495
0.0015941 0.0063941 0.432 -0.65411 0.052277 -0.75459
0.0015978 0.00721 0.433 -0.61619 0.075401 -0.78398
0.0016015 0.0080296 0.434 -0.58855 0.093766 -0.803
0.0016015 0.0088326 0.434 -0.59777 0.092913 -0.79626
0.0016052 0.0096577 0.435 -0.6029 0.10635 -0.7907
0.0016052 0.010463 0.435 -0.59535 0.099205 -0.79732
0.0016052 0.011267 0.435 -0.52685 0.10073 -0.84397
0.0016089 0.0121 0.436 -0.60718 0.12461 -0.78473
0.0016125 0.012936 0.437 -0.68907 0.10502 -0.71704
0.0016125 0.013745 0.437 -0.61905 0.094439 -0.77965
0.0016236 0.014653 0.44 -0.72055 0.12221 -0.68255
0.0016273 0.015502 0.441 -0.66946 0.13999 -0.72954
0.001631 0.016355 0.442 -0.59739 0.12514 -0.79212
0.001631 0.017173 0.442 -0.60535 0.1198 -0.78689
0.001631 0.017991 0.442 -0.47795 0.10362 -0.87225
0.0016347 0.018851 0.443 -0.50389 0.13062 -0.85383
0.001679 0.020204 0.455 -0.14176 -0.11048 -0.98372
0.001679 0.021045 0.455 -0.23456 -0.091568 -0.96778
0.001679 0.021887 0.455 -0.34582 -0.066615 -0.93593
0.001679 0.022729 0.455 -0.41354 -0.049272 -0.90915
0.001679 0.023571 0.455 -0.36313 -0.040999 -0.93083
0.0016827 0.024466 0.456 -0.37359 -0.073365 -0.92469
0.0023911 -0.070335 0.432 0.77292 0.16554 -0.61253
0.0023856 -0.069375 0.431 0.76794 0.16561 -0.61874
0.0023801 -0.068418 0.43 0.75252 0.17245 -0.63559
0.0023745 -0.067465 0.429 0.7405 0.16585 -0.65127
0.002369 -0.066516 0.428 0.72351 0.15915 -0.67172
0.0023635 -0.065571 0.427 0.70812 0.14897 -0.6902
0.0023579 -0.064629 0.426 0.67753 0.14571 -0.72092
0.0023524 -0.063691 0.425 0.64297 0.13853 -0.75326
0.0023524 -0.062905 0.425 0.63395 0.15618 -0.75744
0.0023469 -0.061972 0.424 0.59426 0.15409 -0.78938
0.0023469 -0.061188 0.424 0.56217 0.16724 -0.80994
0.0023413 -0.060261 0.423 0.52114 0.16705 -0.83696
0.0023413 -0.059478 0.423 0.48511 0.16941 -0.85788
0.0023358 -0.058557 0.422 0.45445 0.16404 -0.87554
0.0023358 -0.057776 0.422 0.42065 0.1625 -0.89255
0.0023358 -0.056995 0.422 0.39341 0.16745 -0.90398
0.0023303 -0.056081 0.421 0.36886 0.16499 -0.91472
0.0023303 -0.055302 0.421 0.34264 0.16201 -0.92539
0.0023303 -0.054524 0.421 0.31797 0.1635 -0.9339
0.0023303 -0.053745 0.421 0.28338 0.16635 -0.94447
0.0023247 -0.05284 0.42 0.26261 0.16482 -0.95072
0.0023247 -0.052063 0.42 0.23698 0.16298 -0.95775
0.0023247 -0.051286 0.42 0.20907 0.15406 -0.96569
0.0023247 -0.050509 0.42 0.18749 0.14668 -0.97125
0.0023247 -0.049732 0.42 0.16551 0.14118 -0.97605
0.0023192 -0.048838 0.419 0.12813 0.13615 -0.98237
0.0023192 -0.048063 0.419 0.099161 0.12834 -0.98676
0.0023192 -0.047288 0.419 0.076158 0.12341 -0.98943
0.0023192 -0.046512 0.419 0.061467 0.11625 -0.99132
0.0023192 -0.045737 0.419 0.045657 0.10695 -0.99322
0.0023192 -0.044962 0.419 0.02978 0.096519 -0.99489
0.0023192 -0.044187 0.419 0.010642 0.094453 -0.99547
0.0023192 -0.043412 0.419 -0.0031928 0.094458 -0.99552
0.0023192 -0.042636 0.419 -0.015954 0.099701 -0.99489
0.0023192 -0.041861 0.419 -0.031896 0.099663 -0.99451
0.0023192 -0.041086 0.419 -0.076434 0.089984 -0.99301
0.0023192 -0.040311 0.419 -0.11119 0.080258 -0.99055
0.0023192 -0.039536 0.419 -0.14651 0.079887 -0.98598
0.0023192 -0.03876 0.419 -0.18942 0.076186 -0.97894
0.0023192 -0.037985 0.419 -0.23427 0.070293 -0.96963
0.0023247 -0.037299 0.42 -0.25709 0.064607 -0.96423
0.0023247 -0.036522 0.42 -0.31154 0.058505 -0.94843
0.0023247 -0.035745 0.42 -0.34583 0.04585 -0.93718
0.0023247 -0.034968 0.42 -0.35301 0.033811 -0.93501
0.0023303 -0.034272 0.421 -0.37295 0.031485 -0.92732
0.0023303 -0.033493 0.421 -0.36695 0.034522 -0.9296
0.0023358 -0.032792 0.422 -0.35561 0.051367 -0.93322
0.0023358 -0.032011 0.422 -0.31449 0.071141 -0.94659
0.0023358 -0.03123 0.422 -0.25169 0.086727 -0.96391
0.0023413 -0.030522 0.423 -0.1801 0.11044 -0.97743
0.0023413 -0.029739 0.423 -0.08691 0.12113 -0.98882
0.0023413 -0.028957 0.423 0.023081 0.13392 -0.99072
0.0023413 -0.028174 0.423 0.11364 0.13308 -0.98457
0.0023413 -0.027391 0.423 0.19058 0.1315 -0.97282
0.0023358 -0.026546 0.422 0.25432 0.12985 -0.95836
0.0023358 -0.025765 0.422 0.30199 0.12406 -0.9452
0.0023358 -0.024984 0.422 0.33208 0.11105 -0.93669
0.0023303 -0.024146 0.421 0.3413 0.094268 -0.93522
0.0023303 -0.023367 0.421 0.32944 0.075891 -0.94112
0.0023303 -0.022588 0.421 0.29719 0.053609 -0.95331
0.0023247 -0.021758 0.42 0.24979 0.029851 -0.96784
0.0023247 -0.020981 0.42 0.20457 0.020817 -0.97863
0.0023247 -0.020204 0.42 0.14354 0.00842 -0.98961
0.0023247 -0.019426 0.42 0.11128 0.0084553 -0.99375
0.0023247 -0.018649 0.42 0.067037 0.008489 -0.99771
0.0023247 -0.017872 0.42 0.010664 0.0085077 -0.99991
0.0023247 -0.016318 0.42 -0.0053324 0.0053176 -0.99997
0.0023247 -0.015541 0.42 -0.041549 0.020186 -0.99893
0.0023247 -0.014764 0.42 -0.091318 0.020119 -0.99562
0.0023247 -0.013987 0.42 -0.129 0.020035 -0.99144
0.0023247 -0.01321 0.42 -0.16507 0.029358 -0.98584
0.0023247 -0.012433 0.42 -0.1924 0.04171 -0.98043
0.0023303 -0.011684 0.421 -0.22471 0.047503 -0.97327
0.0023303 -0.010905 0.421 -0.25869 0.04709 -0.96481
0.0023303 -0.010126 0.421 -0.28502 0.058876 -0.95671
0.0023303 -0.0093469 0.421 -0.31535 0.062293 -0.94693
0.0023303 -0.008568 0.421 -0.3349 0.070782 -0.93959
0.0023303 -0.0077891 0.421 -0.3681 0.064952 -0.92752
0.0023358 -0.0070268 0.422 -0.43359 0.049525 -0.89975
0.0023358 -0.0062461 0.422 -0.4949 0.034924 -0.86825
0.0023413 -0.0054783 0.423 -0.5404 0.033737 -0.84073
0.0023413 -0.0046957 0.423 -0.57223 0.012123 -0.82
0.0023469 -0.0039223 0.424 -0.5885 0.0017035 -0.8085
0.0023469 -0.0031378 0.424 -0.58905 -0.0059593 -0.80808
0.0023524 -0.0023589 0.425 -0.58471 -0.016197 -0.81108
0.0023579 -0.0015763 0.426 -0.56581 -0.028514 -0.82404
0.0023579 -0.00078816 0.426 -0.56632 -0.032814 -0.82353
0.0023635 0 0.427 -0.55945 -0.035518 -0.82811
0.0023635 0.00079001 0.427 -0.56617 -0.022412 -0.82398
0.002369 0.0015837 0.428 -0.5876 -0.015198 -0.80901
0.002369 0.0023756 0.428 -0.60866 -0.0033123 -0.79342
0.0023745 0.0031748 0.429 -0.6368 0.00080283 -0.77103
0.0023801 0.0039778 0.43 -0.65297 0.022806 -0.75704
0.0023856 0.0047845 0.431 -0.66832 0.026196 -0.74341
0.0023856 0.0055819 0.431 -0.66414 0.040233 -0.74653
0.0023911 0.0063941 0.432 -0.64079 0.066432 -0.76484
0.0023967 0.00721 0.433 -0.60809 0.077431 -0.79008
0.0023967 0.0080111 0.433 -0.5974 0.083108 -0.79763
0.0024022 0.0088326 0.434 -0.58872 0.089304 -0.80339
0.0024022 0.0096355 0.434 -0.58367 0.075016 -0.80852
0.0024022 0.010438 0.434 -0.5244 0.068897 -0.84868
0.0024077 0.011267 0.435 -0.54863 0.073334 -0.83284
0.0024133 0.0121 0.436 -0.62091 0.094867 -0.77812
0.0024188 0.012936 0.437 -0.70625 0.079675 -0.70346
0.0024244 0.013776 0.438 -0.75098 0.08836 -0.65439
0.0024354 0.014653 0.44 -0.7096 0.094492 -0.69824
0.002441 0.015502 0.441 -0.64561 0.10532 -0.75637
0.002441 0.016318 0.441 -0.68929 0.10353 -0.71705
0.0024465 0.017173 0.442 -0.62073 0.10366 -0.77714
0.0024465 0.017991 0.442 -0.51867 0.088127 -0.85042
0.002452 0.018851 0.443 -0.53884 0.10868 -0.83537
0.0025185 0.021045 0.455 -0.24843 -0.054947 -0.96709
0.0025185 0.021887 0.455 -0.36197 -0.029694 -0.93172
0.0025185 0.022729 0.455 -0.42524 -0.013723 -0.90497
0.002524 0.023623 0.456 -0.36904 -0.045789 -0.92829
0.002524 0.024466 0.456 -0.36559 -0.037179 -0.93003
0.0031808 -0.070172 0.431 0.70185 0.13595 -0.69924
0.0031808 -0.069375 0.431 0.78506 0.17433 -0.59438
0.0031734 -0.068418 0.43 0.76555 0.17699 -0.61855
0.0031661 -0.067465 0.429 0.75065 0.16754 -0.6391
0.0031587 -0.066516 0.428 0.73007 0.16162 -0.66398
0.0031513 -0.065571 0.427 0.70775 0.15415 -0.68944
0.0031439 -0.064629 0.426 0.68007 0.15047 -0.71754
0.0031365 -0.063691 0.425 0.64702 0.14358 -0.74884
0.0031292 -0.062757 0.424 0.59593 0.13344 -0.79187
0.0031292 -0.061972 0.424 0.59528 0.15522 -0.78839
0.0031218 -0.061043 0.423 0.54197 0.14912 -0.82706
0.0031218 -0.060261 0.423 0.51603 0.1668 -0.84018
0.0031218 -0.059478 0.423 0.48137 0.16456 -0.86093
0.0031144 -0.058557 0.422 0.45251 0.16063 -0.87718
0.0031144 -0.057776 0.422 0.41746 0.16368 -0.89383
0.003107 -0.05686 0.421 0.39486 0.16958 -0.90296
0.003107 -0.056081 0.421 0.3688 0.16594 -0.91458
0.003107 -0.055302 0.421 0.34166 0.16398 -0.92541
0.0030996 -0.054394 0.42 0.31224 0.16613 -0.93536
0.0030996 -0.053617 0.42 0.27753 0.16606 -0.94626
0.0030996 -0.05284 0.42 0.25694 0.16508 -0.95223
0.0030996 -0.052063 0.42 0.22741 0.16038 -0.9605
0.0030996 -0.051286 0.42 0.20145 0.14526 -0.96867
0.0030996 -0.050509 0.42 0.18275 0.13668 -0.97361
0.0030923 -0.049613 0.419 0.15909 0.12733 -0.97902
0.0030923 -0.048838 0.419 0.1191 0.11772 -0.98588
0.0030923 -0.048063 0.419 0.0942 0.10449 -0.99005
0.0030923 -0.047288 0.419 0.076396 0.095231 -0.99252
0.0030923 -0.046512 0.419 0.061685 0.080605 -0.99484
0.0030923 -0.045737 0.419 0.045824 0.064827 -0.99684
0.0030923 -0.044962 0.419 0.029884 0.04896 -0.99835
0.0030923 -0.044187 0.419 0.010679 0.045791 -0.99889
0.0030923 -0.043412 0.419 -0.0032038 0.045794 -0.99895
0.0030923 -0.042636 0.419 -0.016011 0.053222 -0.99845
0.0030923 -0.041861 0.419 -0.037342 0.05107 -0.998
0.0030923 -0.041086 0.419 -0.086181 0.045624 -0.99523
0.0030923 -0.040311 0.419 -0.12401 0.040166 -0.99147
0.0030923 -0.039536 0.419 -0.15615 0.039982 -0.98692
0.0030923 -0.03876 0.419 -0.20092 0.037569 -0.97889
0.0030923 -0.037985 0.419 -0.24641 0.037169 -0.96845
0.0030996 -0.037299 0.42 -0.26893 0.03685 -0.96245
0.0030996 -0.036522 0.42 -0.32188 0.036224 -0.94609
0.0030996 -0.035745 0.42 -0.35395 0.026846 -0.93488
0.0030996 -0.034968 0.42 -0.35838 0.017869 -0.93341
0.003107 -0.034272 0.421 -0.3662 0.024675 -0.93021
0.003107 -0.033493 0.421 -0.35392 0.040648 -0.93439
0.0031144 -0.032792 0.422 -0.33789 0.063615 -0.93903
0.0031144 -0.032011 0.422 -0.29304 0.088676 -0.95198
0.0031144 -0.03123 0.422 -0.22205 0.11277 -0.96849
0.0031218 -0.030522 0.423 -0.14921 0.14259 -0.97847
0.0031218 -0.029739 0.423 -0.062631 0.15614 -0.98575
0.0031218 -0.028957 0.423 0.038578 0.17052 -0.9846
0.0031218 -0.028174 0.423 0.11403 0.16953 -0.97891
0.0031218 -0.027391 0.423 0.17664 0.16796 -0.96984
0.0031144 -0.026546 0.422 0.22712 0.16657 -0.95952
0.0031144 -0.025765 0.422 0.27891 0.14961 -0.94859
0.0031144 -0.024984 0.422 0.30902 0.12965 -0.94218
0.003107 -0.024146 0.421 0.31956 0.10689 -0.94152
0.003107 -0.023367 0.421 0.31032 0.083395 -0.94697
0.003107 -0.022588 0.421 0.28224 0.056902 -0.95765
0.0030996 -0.021758 0.42 0.24105 0.03095 -0.97002
0.0030996 -0.020981 0.42 0.19857 0.018759 -0.97991
0.0030996 -0.020204 0.42 0.14147 0.0042114 -0.98993
0.0030996 -0.019426 0.42 0.10814 0.0042292 -0.99413
0.0030996 -0.018649 0.42 0.062799 0.0042458 -0.99802
0.0030996 -0.017872 0.42 0.0053324 0.0042541 -0.99998
0.0030996 -0.015541 0.42 -0.0373 0.010628 -0.99925
0.0030996 -0.014764 0.42 -0.088171 0.010594 -0.99605
0.0030996 -0.013987 0.42 -0.12694 0.010549 -0.99185
0.0030996 -0.01321 0.42 -0.15897 0.015748 -0.98716
0.0030996 -0.012433 0.42 -0.18341 0.025084 -0.98272
0.003107 -0.011684 0.421 -0.21897 0.026907 -0.97536
0.003107 -0.010905 0.421 -0.256 0.026657 -0.96631
0.003107 -0.010126 0.421 -0.28064 0.035619 -0.95915
0.003107 -0.0093469 0.421 -0.31484 0.037233 -0.94842
0.003107 -0.008568 0.421 -0.33818 0.036917 -0.94036
0.003107 -0.0077891 0.421 -0.36948 0.036452 -0.92852
0.0031144 -0.0070268 0.422 -0.43708 0.024744 -0.89908
0.0031144 -0.0062461 0.422 -0.50346 0.01006 -0.86396
0.0031144 -0.0054653 0.422 -0.55033 0.0097212 -0.83489
0.0031218 -0.0046957 0.423 -0.58092 -0.0077356 -0.81392
0.0031292 -0.0039223 0.424 -0.59342 -0.015261 -0.80475
0.0031365 -0.0031452 0.425 -0.59249 -0.017776 -0.80538
0.0031365 -0.0023589 0.425 -0.59129 -0.025416 -0.80606
0.0031439 -0.0015763 0.426 -0.56805 -0.034489 -0.82227
0.0031513 -0.00079001 0.427 -0.56596 -0.035328 -0.82368
0.0031513 0 0.427 -0.55846 -0.022554 -0.82922
0.0031587 0.00079186 0.428 -0.55947 -0.009515 -0.8288
0.0031587 0.0015837 0.428 -0.57812 -0.0042579 -0.81594
0.0031587 0.0023756 0.428 -0.60232 0.0083308 -0.79821
0.0031661 0.0031748 0.429 -0.62848 0.015385 -0.77767
0.0031734 0.0039778 0.43 -0.64587 0.03565 -0.76262
0.0031734 0.0047734 0.43 -0.66164 0.035014 -0.749
0.0031808 0.0055819 0.431 -0.65604 0.046842 -0.75327
0.0031882 0.0063941 0.432 -0.63277 0.066213 -0.7715
0.0031956 0.00721 0.433 -0.60103 0.073073 -0.79588
0.0031956 0.0080111 0.433 -0.59255 0.072829 -0.80223
0.003203 0.0088326 0.434 -0.58713 0.064779 -0.8069
0.003203 0.0096355 0.434 -0.58657 0.04815 -0.80847
0.003203 0.010438 0.434 -0.53403 0.043607 -0.84434
0.0032103 0.011267 0.435 -0.56239 0.056088 -0.82497
0.0032177 0.0121 0.436 -0.63551 0.055359 -0.77011
0.0032177 0.012907 0.436 -0.55259 0.048668 -0.83203
0.0032251 0.013745 0.437 -0.67376 0.033611 -0.73818
0.0032472 0.014653 0.44 -0.69659 0.060784 -0.71489
0.0032546 0.015502 0.441 -0.62599 0.074002 -0.77631
0.0032546 0.016318 0.441 -0.68604 0.06986 -0.7242
0.003262 0.017173 0.442 -0.61981 0.083603 -0.78028
0.003262 0.017991 0.442 -0.54174 0.06816 -0.83778
0.0032694 0.018851 0.443 -0.55672 0.083139 -0.82653
0.0032694 0.019671 0.443 -0.40584 0.067516 -0.91145
0.0033579 0.021045 0.455 -0.25225 -0.029591 -0.96721
0.0033579 0.021887 0.455 -0.36229 -0.014074 -0.93196
0.0033579 0.022729 0.455 -0.42351 -0.00093183 -0.90589
0.0033653 0.023623 0.456 -0.36113 -0.024709 -0.93219
0.0033653 0.024466 0.456 -0.35118 -0.018505 -0.93612
0.003976 -0.070172 0.431 0.73215 0.1499 -0.66444
0.0039668 -0.069214 0.43 0.72235 0.16494 -0.67157
0.0039576 -0.068259 0.429 0.71696 0.16054 -0.67838
0.0039576 -0.067465 0.429 0.75096 0.17291 -0.6373
0.0039483 -0.066516 0.428 0.72886 0.16708 -0.66396
0.0039391 -0.065571 0.427 0.7035 0.15894 -0.6927
0.0039299 -0.064629 0.426 0.67797 0.15596 -0.71836
0.0039207 -0.063691 0.425 0.64566 0.15142 -0.74846
0.0039114 -0.062757 0.424 0.60151 0.14207 -0.78613
0.0039114 -0.061972 0.424 0.59175 0.15922 -0.79024
0.0039022 -0.061043 0.423 0.54263 0.15001 -0.82647
0.0039022 -0.060261 0.423 0.51363 0.16451 -0.84209
0.003893 -0.059338 0.422 0.47955 0.16336 -0.86218
0.003893 -0.058557 0.422 0.45055 0.15721 -0.8788
0.003893 -0.057776 0.422 0.41582 0.16473 -0.8944
0.0038838 -0.05686 0.421 0.39796 0.17118 -0.90129
0.0038838 -0.056081 0.421 0.3676 0.17165 -0.91401
0.0038838 -0.055302 0.421 0.34121 0.1716 -0.92419
0.0038745 -0.054394 0.42 0.30821 0.17407 -0.93526
0.0038745 -0.053617 0.42 0.27538 0.17201 -0.94582
0.0038745 -0.05284 0.42 0.2521 0.16726 -0.95314
0.0038745 -0.052063 0.42 0.21966 0.15968 -0.96242
0.0038745 -0.051286 0.42 0.19666 0.13935 -0.97052
0.0038653 -0.050389 0.419 0.1764 0.12491 -0.97636
0.0038653 -0.049613 0.419 0.15018 0.11102 -0.9824
0.0038653 -0.048838 0.419 0.11421 0.09175 -0.98921
0.0038653 -0.048063 0.419 0.094458 0.074087 -0.99277
0.0038653 -0.047288 0.419 0.071308 0.061559 -0.99555
0.0038653 -0.046512 0.419 0.052257 0.045731 -0.99759
0.0038653 -0.045737 0.419 0.033108 0.029821 -0.99901
0.0038653 -0.044962 0.419 0.014963 0.014922 -0.99978
0.0038653 -0.043412 0.419 -0.0096205 0.01066 -0.9999
0.0038653 -0.042636 0.419 -0.02351 0.01492 -0.99961
0.0038653 -0.041861 0.419 -0.044852 0.011714 -0.99892
0.0038653 -0.041086 0.419 -0.092602 0.011676 -0.99563
0.0038653 -0.040311 0.419 -0.12828 0.011629 -0.99167
0.0038653 -0.039536 0.419 -0.15214 0.01159 -0.98829
0.0038653 -0.03876 0.419 -0.20006 0.0052226 -0.97977
0.0038653 -0.037985 0.419 -0.24852 0.0051632 -0.96861
0.0038745 -0.037299 0.42 -0.27387 0.0051144 -0.96175
0.0038745 -0.036522 0.42 -0.32478 0.010058 -0.94574
0.0038745 -0.035745 0.42 -0.35057 0.0099601 -0.93648
0.0038745 -0.034968 0.42 -0.34881 0.009967 -0.93714
0.0038838 -0.034272 0.421 -0.35145 0.029785 -0.93573
0.0038838 -0.033493 0.421 -0.3352 0.056876 -0.94043
0.003893 -0.032792 0.422 -0.31688 0.084002 -0.94474
0.003893 -0.032011 0.422 -0.27094 0.11233 -0.95602
0.003893 -0.03123 0.422 -0.19465 0.14379 -0.97028
0.0039022 -0.030522 0.423 -0.11886 0.18243 -0.97601
0.0039022 -0.029739 0.423 -0.03834 0.20253 -0.97852
0.0039022 -0.028957 0.423 0.053609 0.22207 -0.97356
0.003893 -0.028107 0.422 0.11918 0.2213 -0.9679
0.003893 -0.027327 0.422 0.17226 0.21956 -0.96027
0.003893 -0.026546 0.422 0.21331 0.21776 -0.95241
0.003893 -0.025765 0.422 0.25801 0.19723 -0.9458
0.003893 -0.024984 0.422 0.28337 0.17274 -0.94333
0.0038838 -0.024146 0.421 0.29074 0.14647 -0.94552
0.0038838 -0.023367 0.421 0.27971 0.12027 -0.95252
0.0038838 -0.022588 0.421 0.25117 0.092013 -0.96356
0.0038745 -0.021758 0.42 0.21715 0.061132 -0.97422
0.0038745 -0.020981 0.42 0.17926 0.041815 -0.98291
0.0038745 -0.020204 0.42 0.129 0.021089 -0.99142
0.0038745 -0.019426 0.42 0.098689 0.015873 -0.99499
0.0038745 -0.018649 0.42 0.057493 0.010617 -0.99829
0.0038745 -0.017872 0.42 0.0053324 0.0053176 -0.99997
0.0038745 -0.016318 0.42 -0.0053324 -0.0053176 -0.99997
0.0038745 -0.015541 0.42 -0.041558 0.0010626 -0.99914
0.0038745 -0.014764 0.42 -0.091336 0.0010591 -0.99582
0.0038745 -0.013987 0.42 -0.12903 0.0010547 -0.99164
0.0038745 -0.01321 0.42 -0.15488 0.0010507 -0.98793
0.0038745 -0.012433 0.42 -0.17433 0.0062835 -0.98467
0.0038745 -0.011656 0.42 -0.2116 0.0041579 -0.97735
0.0038838 -0.010905 0.421 -0.24935 0.00411 -0.96841
0.0038838 -0.010126 0.421 -0.27516 0.0040803 -0.96139
0.0038838 -0.0093469 0.421 -0.31049 0.0040343 -0.95057
0.0038838 -0.008568 0.421 -0.33485 -0.0049988 -0.94226
0.0038838 -0.0077891 0.421 -0.37652 -0.0049147 -0.92639
0.003893 -0.0070268 0.422 -0.44409 -0.012328 -0.8959
0.003893 -0.0062461 0.422 -0.51348 -0.025422 -0.85772
0.0039022 -0.0054783 0.423 -0.55844 -0.024518 -0.82918
0.0039022 -0.0046957 0.423 -0.58847 -0.035825 -0.80772
0.0039114 -0.0039223 0.424 -0.59631 -0.0397 -0.80177
0.0039207 -0.0031452 0.425 -0.59382 -0.03717 -0.80374
0.0039299 -0.0023645 0.426 -0.59282 -0.041324 -0.80427
0.0039299 -0.0015763 0.426 -0.56846 -0.042215 -0.82162
0.0039391 -0.00079001 0.427 -0.56123 -0.035467 -0.8269
0.0039391 0 0.427 -0.54887 -0.012241 -0.83582
0.0039483 0.00079186 0.428 -0.54923 0.0043608 -0.83566
0.0039483 0.0015837 0.428 -0.5683 0.012021 -0.82274
0.0039576 0.0023811 0.429 -0.59536 0.02425 -0.80309
0.0039668 0.0031822 0.43 -0.61987 0.033392 -0.78399
0.0039668 0.0039778 0.43 -0.63986 0.050187 -0.76685
0.0039668 0.0047734 0.43 -0.65772 0.049193 -0.75165
0.003976 0.0055819 0.431 -0.65162 0.058006 -0.75632
0.0039852 0.0063941 0.432 -0.63362 0.068526 -0.7706
0.0039945 0.00721 0.433 -0.59855 0.063904 -0.79853
0.0039945 0.0080111 0.433 -0.59504 0.064463 -0.80111
0.0040037 0.0088326 0.434 -0.59258 0.047176 -0.80413
0.0040037 0.0096355 0.434 -0.58965 0.036166 -0.80685
0.0040037 0.010438 0.434 -0.54127 0.035504 -0.8401
0.0040129 0.011267 0.435 -0.57329 0.026445 -0.81892
0.0040221 0.0121 0.436 -0.64748 0.023845 -0.76171
0.0040221 0.012907 0.436 -0.56535 0.019748 -0.82461
0.0040314 0.013745 0.437 -0.68472 0.0014005 -0.7288
0.0040498 0.01462 0.439 -0.74369 0.020094 -0.66822
0.0040683 0.015502 0.441 -0.60692 0.032179 -0.79411
0.0040775 0.016355 0.442 -0.5479 0.071125 -0.83351
0.0040775 0.017173 0.442 -0.62239 0.053443 -0.78088
0.0040775 0.017991 0.442 -0.55236 0.037133 -0.83278
0.0040867 0.018851 0.443 -0.57156 0.049897 -0.81904
0.0040867 0.019671 0.443 -0.42313 0.043171 -0.90504
0.0041974 0.021045 0.455 -0.25172 -0.009291 -0.96775
0.0041974 0.021887 0.455 -0.36506 0.00026296 -0.93098
0.0041974 0.022729 0.455 -0.4315 0.01353 -0.90201
0.0042066 0.023623 0.456 -0.36376 -0.0052519 -0.93148
0.0042066 0.024466 0.456 -0.35644 -0.000844 -0.93432
0.0047712 -0.070172 0.431 0.75448 0.14668 -0.63973
0.0047601 -0.069214 0.43 0.74575 0.15619 -0.64766
0.0047491 -0.068259 0.429 0.7364 0.16613 -0.65584
0.004738 -0.067308 0.428 0.7165 0.17051 -0.67643
0.004738 -0.066516 0.428 0.72857 0.1725 -0.66289
0.0047159 -0.065417 0.426 0.67489 0.15639 -0.72116
0.0047159 -0.064629 0.426 0.67758 0.16972 -0.7156
0.0047048 -0.063691 0.425 0.64618 0.16762 -0.74455
0.0046937 -0.062757 0.424 0.605 0.15469 -0.78106
0.0046937 -0.061972 0.424 0.58638 0.16914 -0.79218
0.0046827 -0.061043 0.423 0.54244 0.16422 -0.82389
0.0046827 -0.060261 0.423 0.51252 0.16977 -0.84172
0.0046716 -0.059338 0.422 0.47614 0.17075 -0.86263
0.0046716 -0.058557 0.422 0.44899 0.16814 -0.87758
0.0046605 -0.057639 0.421 0.41744 0.17503 -0.89169
0.0046605 -0.05686 0.421 0.39676 0.17681 -0.90073
0.0046605 -0.056081 0.421 0.36392 0.1766 -0.91454
0.0046494 -0.055171 0.42 0.3362 0.17993 -0.92444
0.0046494 -0.054394 0.42 0.30172 0.17734 -0.93676
0.0046494 -0.053617 0.42 0.26874 0.1743 -0.94731
0.0046494 -0.05284 0.42 0.24071 0.16579 -0.95633
0.0046494 -0.052063 0.42 0.2092 0.15005 -0.96629
0.0046384 -0.051164 0.419 0.18329 0.1319 -0.97417
0.0046384 -0.050389 0.419 0.1552 0.11712 -0.98092
0.0046384 -0.049613 0.419 0.12868 0.099926 -0.98664
0.0046384 -0.048838 0.419 0.094427 0.078295 -0.99245
0.0046384 -0.048063 0.419 0.078704 0.063637 -0.99486
0.0046384 -0.047288 0.419 0.055439 0.048906 -0.99726
0.0046384 -0.046512 0.419 0.03737 0.033008 -0.99876
0.0046384 -0.045737 0.419 0.020305 0.018117 -0.99963
0.0046384 -0.044962 0.419 0.0053451 0.0053303 -0.99997
0.0046384 -0.042636 0.419 -0.016034 -0.0042638 -0.99986
0.0046384 -0.041861 0.419 -0.03952 -0.013847 -0.99912
0.0046384 -0.041086 0.419 -0.089432 -0.013802 -0.9959
0.0046384 -0.040311 0.419 -0.12723 -0.013745 -0.99178
0.0046384 -0.039536 0.419 -0.15831 -0.018944 -0.98721
0.0046384 -0.03876 0.419 -0.207 -0.029191 -0.97791
0.0046384 -0.037985 0.419 -0.25617 -0.028842 -0.9662
0.0046494 -0.037299 0.42 -0.28226 -0.028556 -0.95891
0.0046494 -0.036522 0.42 -0.32924 -0.019077 -0.94405
0.0046494 -0.035745 0.42 -0.34706 -0.0099739 -0.93779
0.0046605 -0.035051 0.421 -0.33663 -0.00099911 -0.94164
0.0046605 -0.034272 0.421 -0.33292 0.03 -0.94248
0.0046605 -0.033493 0.421 -0.31072 0.066399 -0.94818
0.0046716 -0.032792 0.422 -0.28344 0.10095 -0.95366
0.0046716 -0.032011 0.422 -0.23015 0.13567 -0.96365
0.0046716 -0.03123 0.422 -0.15476 0.17696 -0.97197
0.0046716 -0.03045 0.422 -0.079442 0.22121 -0.97199
0.0046716 -0.029669 0.422 -0.008232 0.24525 -0.96942
0.0046716 -0.028888 0.422 0.071397 0.26751 -0.96091
0.0046716 -0.028107 0.422 0.12379 0.26613 -0.95596
0.0046716 -0.027327 0.422 0.16441 0.26454 -0.95026
0.0046716 -0.026546 0.422 0.19362 0.26312 -0.94514
0.0046716 -0.025765 0.422 0.23332 0.23567 -0.94341
0.0046605 -0.024925 0.421 0.25041 0.2096 -0.94518
0.0046605 -0.024146 0.421 0.25585 0.17648 -0.95047
0.0046605 -0.023367 0.421 0.24578 0.14441 -0.95851
0.0046605 -0.022588 0.421 0.22064 0.11104 -0.96901
0.0046494 -0.021758 0.42 0.19298 0.07802 -0.9781
0.0046494 -0.020981 0.42 0.15877 0.053475 -0.98587
0.0046494 -0.020204 0.42 0.11438 0.028516 -0.99303
0.0046494 -0.019426 0.42 0.086051 0.01907 -0.99611
0.0046494 -0.018649 0.42 0.047936 0.0095606 -0.9988
0.0046494 -0.016318 0.42 -0.010664 -0.009571 -0.9999
0.0046494 -0.015541 0.42 -0.04581 -0.0074369 -0.99892
0.0046494 -0.014764 0.42 -0.094492 -0.0074114 -0.9955
0.0046494 -0.013987 0.42 -0.1311 -0.0073804 -0.99134
0.0046494 -0.01321 0.42 -0.15591 -0.0073537 -0.98774
0.0046494 -0.012433 0.42 -0.17432 -0.012566 -0.98461
0.0046494 -0.011656 0.42 -0.21057 -0.018711 -0.9774
0.0046605 -0.010905 0.421 -0.24737 -0.018502 -0.96874
0.0046605 -0.010126 0.421 -0.27222 -0.027555 -0.96184
0.0046605 -0.0093469 0.421 -0.3067 -0.029273 -0.95136
0.0046605 -0.008568 0.421 -0.33457 -0.040957 -0.94148
0.0046605 -0.0077891 0.421 -0.38379 -0.040133 -0.92255
0.0046716 -0.0070268 0.422 -0.44902 -0.043456 -0.89246
0.0046716 -0.0062461 0.422 -0.51954 -0.054157 -0.85273
0.0046716 -0.0054653 0.422 -0.56296 -0.052385 -0.82483
0.0046827 -0.0046957 0.423 -0.59012 -0.056978 -0.8053
0.0046937 -0.0039223 0.424 -0.59651 -0.052314 -0.8009
0.0047048 -0.0031452 0.425 -0.59254 -0.044804 -0.80429
0.0047159 -0.0023645 0.426 -0.59274 -0.044691 -0.80416
0.0047159 -0.0015763 0.426 -0.56624 -0.037126 -0.82341
0.0047269 -0.00079001 0.427 -0.55363 -0.023512 -0.83243
0.0047269 0 0.427 -0.53962 0.0044036 -0.8419
0.0047269 0.00079001 0.427 -0.54073 0.022871 -0.84088
0.004738 0.0015837 0.428 -0.55979 0.032838 -0.82798
0.004738 0.0023756 0.428 -0.59206 0.043673 -0.80471
0.0047491 0.0031748 0.429 -0.61514 0.054054 -0.78656
0.0047601 0.0039778 0.43 -0.63375 0.061678 -0.77107
0.0047601 0.0047734 0.43 -0.65375 0.060336 -0.7543
0.0047712 0.0055819 0.431 -0.64724 0.065332 -0.75948
0.0047823 0.0063941 0.432 -0.63468 0.066079 -0.76994
0.0047934 0.00721 0.433 -0.59824 0.054551 -0.79946
0.0047934 0.0080111 0.433 -0.59959 0.056004 -0.79835
0.0048044 0.0088326 0.434 -0.59935 0.031284 -0.79987
0.0048044 0.0096355 0.434 -0.59186 0.02126 -0.80576
0.0048044 0.010438 0.434 -0.5441 0.018882 -0.83881
0.0048155 0.011267 0.435 -0.58651 0.0053855 -0.80993
0.0048266 0.0121 0.436 -0.65552 -0.0056737 -0.75516
0.0048376 0.012936 0.437 -0.72532 -0.010235 -0.68834
0.0048487 0.013776 0.438 -0.75417 -0.0040182 -0.65667
0.0048598 0.01462 0.439 -0.73987 -0.0063065 -0.67272
0.0048819 0.015502 0.441 -0.5943 -0.0019544 -0.80424
0.004893 0.016355 0.442 -0.54233 0.054038 -0.83843
0.004893 0.017173 0.442 -0.61728 0.031258 -0.78612
0.004893 0.017991 0.442 -0.54531 0.02029 -0.83799
0.004893 0.018809 0.442 -0.35634 0.01373 -0.93426
0.0049041 0.019671 0.443 -0.42616 0.019158 -0.90444
0.0050369 0.021045 0.455 -0.25396 0.0037585 -0.96721
0.0050369 0.021887 0.455 -0.37168 0.006769 -0.92834
0.005048 0.022779 0.456 -0.28193 0.0057188 -0.95942
0.005048 0.023623 0.456 -0.37587 0.0081266 -0.92664
0.005048 0.024466 0.456 -0.36171 0.016569 -0.93215
0.0055664 -0.070172 0.431 0.77823 0.14146 -0.61184
0.0055535 -0.069214 0.43 0.76429 0.15419 -0.62617
0.0055406 -0.068259 0.429 0.75156 0.15673 -0.64078
0.0055277 -0.067308 0.428 0.72845 0.16604 -0.66468
0.0055148 -0.066361 0.427 0.70791 0.16214 -0.68744
0.0055018 -0.065417 0.426 0.68254 0.15323 -0.71461
0.0055018 -0.064629 0.426 0.67499 0.16764 -0.71853
0.0054889 -0.063691 0.425 0.64389 0.16745 -0.74657
0.005476 -0.062757 0.424 0.60774 0.15855 -0.77814
0.005476 -0.061972 0.424 0.58126 0.16777 -0.79624
0.0054631 -0.061043 0.423 0.54181 0.16618 -0.82391
0.0054631 -0.060261 0.423 0.51247 0.16293 -0.84311
0.0054502 -0.059338 0.422 0.47437 0.16653 -0.86443
0.0054502 -0.058557 0.422 0.4498 0.16716 -0.87735
0.0054373 -0.057639 0.421 0.42149 0.17285 -0.89021
0.0054373 -0.05686 0.421 0.39528 0.17509 -0.90172
0.0054373 -0.056081 0.421 0.36151 0.17491 -0.91582
0.0054244 -0.055171 0.42 0.32853 0.17664 -0.92783
0.0054244 -0.054394 0.42 0.29392 0.17006 -0.94058
0.0054244 -0.053617 0.42 0.26158 0.16683 -0.95065
0.0054244 -0.05284 0.42 0.22958 0.15433 -0.96098
0.0054244 -0.052063 0.42 0.19956 0.14229 -0.9695
0.0054114 -0.051164 0.419 0.17127 0.1281 -0.97686
0.0054114 -0.050389 0.419 0.13675 0.11434 -0.98398
0.0054114 -0.049613 0.419 0.11104 0.095964 -0.98917
0.0054114 -0.048838 0.419 0.079702 0.074183 -0.99405
0.0054114 -0.048063 0.419 0.062842 0.058419 -0.99631
0.0054114 -0.047288 0.419 0.039488 0.042572 -0.99831
0.0054114 -0.046512 0.419 0.022436 0.027701 -0.99936
0.0054114 -0.045737 0.419 0.0074823 0.014923 -0.99986
0.0054114 -0.044962 0.419 -0.0042761 0.0053304 -0.99998
0.0054114 -0.044187 0.419 -0.0053451 0.0053303 -0.99997
0.0054114 -0.043412 0.419 -0.0053451 -0.0053303 -0.99997
0.0054114 -0.042636 0.419 -0.020305 -0.018117 -0.99963
0.0054114 -0.041861 0.419 -0.042698 -0.034064 -0.99851
0.0054114 -0.041086 0.419 -0.0915 -0.033952 -0.99523
0.0054114 -0.040311 0.419 -0.13339 -0.039063 -0.99029
0.0054114 -0.039536 0.419 -0.16738 -0.048291 -0.98471
0.0054114 -0.03876 0.419 -0.21266 -0.062375 -0.97513
0.0054114 -0.037985 0.419 -0.25867 -0.061663 -0.964
0.0054244 -0.037299 0.42 -0.28185 -0.061102 -0.95751
0.0054244 -0.036522 0.42 -0.32171 -0.048274 -0.94561
0.0054244 -0.035745 0.42 -0.33356 -0.036069 -0.94204
0.0054373 -0.035051 0.421 -0.32315 -0.019074 -0.94616
0.0054373 -0.034272 0.421 -0.31134 0.021169 -0.95006
0.0054373 -0.033493 0.421 -0.27731 0.070152 -0.95822
0.0054502 -0.032792 0.422 -0.24058 0.10924 -0.96446
0.0054502 -0.032011 0.422 -0.18548 0.15209 -0.97081
0.0054502 -0.03123 0.422 -0.11264 0.19889 -0.97353
0.0054502 -0.03045 0.422 -0.039073 0.24507 -0.96872
0.0054502 -0.029669 0.422 0.021451 0.27096 -0.96235
0.0054502 -0.028888 0.422 0.087887 0.29416 -0.95171
0.0054502 -0.028107 0.422 0.12675 0.29292 -0.9477
0.0054373 -0.027262 0.421 0.15463 0.29238 -0.94372
0.0054373 -0.026483 0.421 0.17122 0.29157 -0.9411
0.0054373 -0.025704 0.421 0.19977 0.26429 -0.94353
0.0054373 -0.024925 0.421 0.21304 0.23259 -0.94896
0.0054373 -0.024146 0.421 0.21771 0.1958 -0.95617
0.0054373 -0.023367 0.421 0.20936 0.16068 -0.96455
0.0054373 -0.022588 0.421 0.18862 0.12505 -0.97406
0.0054244 -0.021758 0.42 0.1685 0.092888 -0.98132
0.0054244 -0.020981 0.42 0.13911 0.065158 -0.98813
0.0054244 -0.020204 0.42 0.10178 0.038061 -0.99408
0.0054244 -0.019426 0.42 0.076538 0.025442 -0.99674
0.0054244 -0.018649 0.42 0.042618 0.01275 -0.99901
0.0054244 -0.016318 0.42 -0.015994 -0.01276 -0.99979
0.0054244 -0.015541 0.42 -0.050058 -0.014869 -0.99864
0.0054244 -0.014764 0.42 -0.097639 -0.014817 -0.99511
0.0054244 -0.013987 0.42 -0.13317 -0.014756 -0.99098
0.0054244 -0.01321 0.42 -0.15692 -0.014704 -0.9875
0.0054244 -0.012433 0.42 -0.17936 -0.024058 -0.98349
0.0054244 -0.011656 0.42 -0.21346 -0.034267 -0.97635
0.0054373 -0.010905 0.421 -0.25302 -0.038976 -0.96668
0.0054373 -0.010126 0.421 -0.27952 -0.050865 -0.95879
0.0054373 -0.0093469 0.421 -0.3145 -0.059308 -0.9474
0.0054373 -0.008568 0.421 -0.34192 -0.07257 -0.93692
0.0054502 -0.0078076 0.422 -0.39395 -0.070812 -0.9164
0.0054502 -0.0070268 0.422 -0.45434 -0.0705 -0.88804
0.0054502 -0.0062461 0.422 -0.52331 -0.078144 -0.84855
0.0054631 -0.0054783 0.423 -0.5612 -0.075723 -0.82421
0.0054631 -0.0046957 0.423 -0.58555 -0.074163 -0.80724
0.005476 -0.0039223 0.424 -0.59165 -0.066027 -0.80349
0.0054889 -0.0031452 0.425 -0.58451 -0.053609 -0.80961
0.0055018 -0.0023645 0.426 -0.58486 -0.04924 -0.80964
0.0055018 -0.0015763 0.426 -0.55558 -0.033974 -0.83077
0.0055148 -0.00079001 0.427 -0.54147 -0.0096738 -0.84066
0.0055148 0 0.427 -0.52362 0.01604 -0.8518
0.0055148 0.00079001 0.427 -0.52661 0.034655 -0.8494
0.0055277 0.0015837 0.428 -0.54569 0.041928 -0.83693
0.0055277 0.0023756 0.428 -0.58525 0.050677 -0.80927
0.0055406 0.0031748 0.429 -0.60921 0.061741 -0.7906
0.0055406 0.0039685 0.429 -0.62922 0.058558 -0.77502
0.0055535 0.0047734 0.43 -0.655 0.062581 -0.75303
0.0055664 0.0055819 0.431 -0.64962 0.06282 -0.75766
0.0055793 0.0063941 0.432 -0.638 0.052358 -0.76826
0.0055923 0.00721 0.433 -0.60411 0.032017 -0.79626
0.0055923 0.0080111 0.433 -0.61323 0.030129 -0.78933
0.0056052 0.0088326 0.434 -0.61109 0.0048882 -0.79155
0.0056052 0.0096355 0.434 -0.60193 -0.0010415 -0.79855
0.0056052 0.010438 0.434 -0.55331 0.004415 -0.83297
0.0056181 0.011267 0.435 -0.59457 -0.026817 -0.8036
0.005631 0.0121 0.436 -0.65699 -0.044293 -0.7526
0.0056439 0.012936 0.437 -0.72537 -0.042451 -0.68705
0.0056439 0.013745 0.437 -0.68601 -0.049129 -0.72593
0.0056827 0.014653 0.44 -0.67662 -0.034659 -0.73552
0.0056956 0.015502 0.441 -0.5986 -0.022038 -0.80074
0.0057085 0.016355 0.442 -0.55361 0.038278 -0.83189
0.0057085 0.017173 0.442 -0.62385 0.0094786 -0.78149
0.0057085 0.017991 0.442 -0.54598 0.00040947 -0.8378
0.0057085 0.018809 0.442 -0.35629 0.00063156 -0.93437
0.0057214 0.019671 0.443 -0.42624 0.0019228 -0.90461
0.0058764 0.021045 0.455 -0.25553 0.02662 -0.96643
0.0058764 0.021887 0.455 -0.37441 0.020907 -0.92703
0.0058893 0.022779 0.456 -0.28671 0.034398 -0.9574
0.0058893 0.023623 0.456 -0.38504 0.029324 -0.92243
0.0058893 0.024466 0.456 -0.36851 0.034992 -0.92896
0.0064207 -0.073238 0.435 0.8643 0.10907 -0.49102
0.0063911 -0.0721 0.433 0.79839 0.098336 -0.59405
0.0063616 -0.070172 0.431 0.79229 0.151 -0.59116
0.0063469 -0.069214 0.43 0.77587 0.15813 -0.61076
0.0063321 -0.068259 0.429 0.75974 0.16052 -0.6301
0.0063173 -0.067308 0.428 0.73588 0.16401 -0.65695
0.0063026 -0.066361 0.427 0.71098 0.16231 -0.68422
0.0062878 -0.065417 0.426 0.68859 0.15488 -0.70842
0.0062731 -0.064477 0.425 0.65271 0.15111 -0.74238
0.0062583 -0.063541 0.424 0.60754 0.14767 -0.78044
0.0062583 -0.062757 0.424 0.6035 0.16749 -0.77957
0.0062435 -0.061826 0.423 0.55276 0.15514 -0.81877
0.0062435 -0.061043 0.423 0.5377 0.16418 -0.82699
0.0062288 -0.060118 0.422 0.50833 0.16032 -0.84611
0.0062288 -0.059338 0.422 0.46942 0.15727 -0.86885
0.0062288 -0.058557 0.422 0.44879 0.16097 -0.87902
0.006214 -0.057639 0.421 0.42514 0.16524 -0.88992
0.006214 -0.05686 0.421 0.39499 0.16772 -0.90325
0.0061993 -0.055948 0.42 0.36265 0.16864 -0.91654
0.0061993 -0.055171 0.42 0.32549 0.16823 -0.93046
0.0061993 -0.054394 0.42 0.29266 0.15846 -0.94299
0.0061993 -0.053617 0.42 0.25755 0.15025 -0.95451
0.0061845 -0.052714 0.419 0.22262 0.14492 -0.96407
0.0061845 -0.051939 0.419 0.19517 0.13769 -0.97106
0.0061845 -0.051164 0.419 0.15917 0.12322 -0.97953
0.0061845 -0.050389 0.419 0.11814 0.11151 -0.98672
0.0061845 -0.049613 0.419 0.093248 0.094047 -0.99119
0.0061845 -0.048838 0.419 0.064894 0.074263 -0.99512
0.0061845 -0.048063 0.419 0.046906 0.05847 -0.99719
0.0061845 -0.047288 0.419 0.023491 0.042593 -0.99882
0.0061845 -0.046512 0.419 0.0074798 0.029837 -0.99953
0.0061845 -0.045737 0.419 -0.0053441 0.020251 -0.99978
0.0061845 -0.044962 0.419 -0.013895 0.014922 -0.99979
0.0061845 -0.044187 0.419 -0.010689 0.0095939 -0.9999
0.0061845 -0.043412 0.419 -0.010689 -0.0095939 -0.9999
0.0061845 -0.042636 0.419 -0.029911 -0.024502 -0.99925
0.0061845 -0.041861 0.419 -0.05546 -0.040416 -0.99764
0.0061845 -0.041086 0.419 -0.10096 -0.040272 -0.99408
0.0061845 -0.040311 0.419 -0.14474 -0.049517 -0.98823
0.0061845 -0.039536 0.419 -0.17948 -0.061756 -0.98182
0.0061845 -0.03876 0.419 -0.22439 -0.073552 -0.97172
0.0061993 -0.038076 0.42 -0.26364 -0.072634 -0.96188
0.0061993 -0.037299 0.42 -0.28164 -0.07225 -0.9568
0.0061993 -0.036522 0.42 -0.31156 -0.0575 -0.94848
0.0061993 -0.035745 0.42 -0.31452 -0.043367 -0.94826
0.006214 -0.035051 0.421 -0.30125 -0.02023 -0.95333
0.006214 -0.034272 0.421 -0.27884 0.026483 -0.95997
0.006214 -0.033493 0.421 -0.23696 0.079109 -0.96829
0.0062288 -0.032792 0.422 -0.19031 0.11965 -0.97441
0.0062288 -0.032011 0.422 -0.13377 0.16649 -0.97693
0.0062288 -0.03123 0.422 -0.064139 0.21458 -0.9746
0.0062288 -0.03045 0.422 0.0010267 0.25391 -0.96723
0.0062288 -0.029669 0.422 0.049862 0.28008 -0.95868
0.006214 -0.02882 0.421 0.1028 0.30353 -0.94726
0.006214 -0.028041 0.421 0.12763 0.30265 -0.94452
0.006214 -0.027262 0.421 0.14143 0.30208 -0.94273
0.006214 -0.026483 0.421 0.14438 0.30195 -0.94233
0.006214 -0.025704 0.421 0.16641 0.27156 -0.94792
0.006214 -0.024925 0.421 0.17586 0.23721 -0.95541
0.006214 -0.024146 0.421 0.17938 0.19932 -0.96338
0.006214 -0.023367 0.421 0.17258 0.16386 -0.97127
0.006214 -0.022588 0.421 0.15629 0.12884 -0.97927
0.0061993 -0.021758 0.42 0.14384 0.10052 -0.98448
0.0061993 -0.020981 0.42 0.11934 0.071618 -0.99027
0.0061993 -0.020204 0.42 0.089141 0.044447 -0.99503
0.0061993 -0.019426 0.42 0.067009 0.0297 -0.99731
0.0061993 -0.018649 0.42 0.037298 0.014878 -0.99919
0.0061993 -0.016318 0.42 -0.021323 -0.014885 -0.99966
0.0061993 -0.015541 0.42 -0.054299 -0.021235 -0.9983
0.0061993 -0.014764 0.42 -0.10078 -0.021158 -0.99468
0.0061993 -0.013987 0.42 -0.13523 -0.021071 -0.99059
0.0061993 -0.01321 0.42 -0.15793 -0.020999 -0.98723
0.0061993 -0.012433 0.42 -0.18438 -0.033431 -0.98229
0.0061993 -0.011656 0.42 -0.21632 -0.047708 -0.97516
0.006214 -0.010905 0.421 -0.25856 -0.056277 -0.96435
0.006214 -0.010126 0.421 -0.28668 -0.069951 -0.95547
0.006214 -0.0093469 0.421 -0.32206 -0.084045 -0.94298
0.006214 -0.008568 0.421 -0.34904 -0.097897 -0.93198
0.0062288 -0.0078076 0.422 -0.40452 -0.095314 -0.90955
0.0062288 -0.0070268 0.422 -0.45949 -0.091644 -0.88344
0.0062288 -0.0062461 0.422 -0.52704 -0.095642 -0.84444
0.0062435 -0.0054783 0.423 -0.56038 -0.092993 -0.823
0.0062435 -0.0046957 0.423 -0.58108 -0.085468 -0.80935
0.0062583 -0.0039223 0.424 -0.58685 -0.074746 -0.80624
0.0062731 -0.0031452 0.425 -0.57645 -0.0574 -0.81511
0.0062878 -0.0023645 0.426 -0.57694 -0.049583 -0.81528
0.0062878 -0.0015763 0.426 -0.54768 -0.032437 -0.83606
0.0063026 -0.00079001 0.427 -0.5282 -0.0044413 -0.84911
0.0063026 0 0.427 -0.51312 0.017057 -0.85815
0.0063026 0.00079001 0.427 -0.51686 0.034004 -0.85539
0.0063173 0.0015837 0.428 -0.53457 0.037889 -0.84427
0.0063173 0.0023756 0.428 -0.58039 0.04413 -0.81314
0.0063321 0.0031748 0.429 -0.60698 0.051198 -0.79307
0.0063321 0.0039685 0.429 -0.63038 0.044384 -0.77501
0.0063469 0.0047734 0.43 -0.65523 0.043091 -0.7542
0.0063616 0.0055819 0.431 -0.65235 0.033744 -0.75716
0.0063764 0.0063941 0.432 -0.64261 0.017958 -0.76598
0.0063764 0.0071933 0.432 -0.62881 0.010451 -0.77749
0.0063911 0.0080111 0.433 -0.62153 -0.010505 -0.78332
0.0064059 0.0088326 0.434 -0.6202 -0.031994 -0.78379
0.0064059 0.0096355 0.434 -0.60883 -0.030856 -0.7927
0.0064059 0.010438 0.434 -0.553 -0.018028 -0.83298
0.0064207 0.011267 0.435 -0.60194 -0.056901 -0.79651
0.0064354 0.0121 0.436 -0.66331 -0.088399 -0.7431
0.0064354 0.012907 0.436 -0.56834 -0.10914 -0.81552
0.0064649 0.013776 0.438 -0.7494 -0.064517 -0.65897
0.0064797 0.01462 0.439 -0.73117 -0.060902 -0.67947
0.0065092 0.015502 0.441 -0.59412 -0.03426 -0.80364
0.0065092 0.016318 0.441 -0.65327 -0.047661 -0.75562
0.006524 0.017173 0.442 -0.62509 -0.021006 -0.78027
0.006524 0.017991 0.442 -0.54577 -0.02206 -0.83765
0.006524 0.018809 0.442 -0.36124 -0.0041526 -0.93247
0.0065387 0.019671 0.443 -0.4322 -0.0056519 -0.90176
0.0067159 0.021045 0.455 -0.26347 0.048428 -0.96345
0.0067159 0.021887 0.455 -0.38248 0.033831 -0.92334
0.0067159 0.022729 0.455 -0.45385 0.034554 -0.89041
0.0067306 0.023623 0.456 -0.39405 0.042393 -0.91811
0.0067306 0.024466 0.456 -0.37657 0.044657 -0.92531
0.0072232 -0.073238 0.435 0.88134 0.10055 -0.46167
0.00719 -0.0721 0.433 0.81705 0.09001 -0.56949
0.0071734 -0.071134 0.432 0.81551 0.11427 -0.56735
0.0071402 -0.070009 0.43 0.72905 0.11844 -0.67414
0.0071236 -0.069053 0.429 0.70966 0.15222 -0.6879
0.007107 -0.0681 0.428 0.69148 0.16299 -0.70377
0.007107 -0.067308 0.428 0.7374 0.13718 -0.66137
0.0070904 -0.066361 0.427 0.71196 0.14223 -0.68766
0.0070738 -0.065417 0.426 0.69234 0.13658 -0.70853
0.0070572 -0.064477 0.425 0.65664 0.13831 -0.74142
0.0070406 -0.063541 0.424 0.61437 0.13976 -0.77654
0.0070406 -0.062757 0.424 0.6033 0.15529 -0.78225
0.007024 -0.061826 0.423 0.55415 0.14136 -0.82033
0.007024 -0.061043 0.423 0.54076 0.14269 -0.82899
0.0070074 -0.060118 0.422 0.51269 0.13813 -0.84739
0.0070074 -0.059338 0.422 0.47178 0.13376 -0.87151
0.0069908 -0.058418 0.421 0.4536 0.13552 -0.88084
0.0069908 -0.057639 0.421 0.42973 0.14285 -0.89159
0.0069908 -0.05686 0.421 0.3956 0.14529 -0.90686
0.0069742 -0.055948 0.42 0.36389 0.14769 -0.91966
0.0069742 -0.055171 0.42 0.32314 0.14521 -0.93514
0.0069742 -0.054394 0.42 0.29193 0.13297 -0.94715
0.0069742 -0.053617 0.42 0.25387 0.11944 -0.95984
0.0069576 -0.052714 0.419 0.21547 0.12087 -0.969
0.0069576 -0.051939 0.419 0.19062 0.11946 -0.97437
0.0069576 -0.051164 0.419 0.14719 0.10589 -0.98342
0.0069576 -0.050389 0.419 0.099515 0.097128 -0.99028
0.0069576 -0.049613 0.419 0.075426 0.082633 -0.99372
0.0069576 -0.048838 0.419 0.05007 0.066929 -0.9965
0.0069576 -0.048063 0.419 0.030946 0.052143 -0.99816
0.0069576 -0.047288 0.419 0.007478 0.037286 -0.99928
0.0069576 -0.046512 0.419 -0.0074803 0.027707 -0.99959
0.0069576 -0.045737 0.419 -0.018166 0.022379 -0.99958
0.0069576 -0.044962 0.419 -0.023507 0.022376 -0.99947
0.0069576 -0.044187 0.419 -0.016032 0.01279 -0.99979
0.0069576 -0.043412 0.419 -0.016032 -0.01279 -0.99979
0.0069576 -0.042636 0.419 -0.039508 -0.02875 -0.99881
0.0069576 -0.041861 0.419 -0.068195 -0.043567 -0.99672
0.0069576 -0.041086 0.419 -0.1104 -0.043401 -0.99294
0.0069576 -0.040311 0.419 -0.15603 -0.055722 -0.98618
0.0069576 -0.039536 0.419 -0.19153 -0.069928 -0.97899
0.0069576 -0.03876 0.419 -0.23608 -0.078476 -0.96856
0.0069742 -0.038076 0.42 -0.26925 -0.077592 -0.95994
0.0069742 -0.037299 0.42 -0.28153 -0.077309 -0.95643
0.0069742 -0.036522 0.42 -0.30139 -0.061731 -0.9515
0.0069742 -0.035745 0.42 -0.29056 -0.041685 -0.95595
0.0069908 -0.035051 0.421 -0.27041 -0.0091931 -0.9627
0.0069908 -0.034272 0.421 -0.23848 0.040152 -0.97032
0.0069908 -0.033493 0.421 -0.1903 0.092295 -0.97738
0.0070074 -0.032792 0.422 -0.13552 0.13098 -0.98208
0.0070074 -0.032011 0.422 -0.080166 0.17754 -0.98084
0.0070074 -0.03123 0.422 -0.016554 0.22286 -0.97471
0.0069908 -0.030377 0.421 0.032874 0.25817 -0.96554
0.0069908 -0.029599 0.421 0.069208 0.28317 -0.95657
0.0069908 -0.02882 0.421 0.10775 0.30428 -0.94647
0.0069908 -0.028041 0.421 0.11769 0.30394 -0.94539
0.0069908 -0.027262 0.421 0.12283 0.29919 -0.94625
0.0069908 -0.026483 0.421 0.11804 0.29479 -0.94824
0.0069908 -0.025704 0.421 0.13416 0.26353 -0.95528
0.0069908 -0.024925 0.421 0.14041 0.22894 -0.96326
0.0069908 -0.024146 0.421 0.14356 0.1926 -0.97072
0.0069908 -0.023367 0.421 0.13933 0.15969 -0.97728
0.0069908 -0.022588 0.421 0.12869 0.12833 -0.98335
0.0069742 -0.021758 0.42 0.11904 0.10085 -0.98775
0.0069742 -0.020981 0.42 0.099487 0.072826 -0.99237
0.0069742 -0.020204 0.42 0.076476 0.047665 -0.99593
0.0069742 -0.019426 0.42 0.057467 0.031838 -0.99784
0.0069742 -0.018649 0.42 0.031975 0.015943 -0.99936
0.0069742 -0.016318 0.42 -0.02665 -0.015946 -0.99952
0.0069742 -0.015541 0.42 -0.058537 -0.026534 -0.99793
0.0069742 -0.014764 0.42 -0.10392 -0.026436 -0.99423
0.0069742 -0.013987 0.42 -0.13728 -0.026328 -0.99018
0.0069742 -0.01321 0.42 -0.16404 -0.031459 -0.98595
0.0069742 -0.012433 0.42 -0.19337 -0.045863 -0.98005
0.0069908 -0.011684 0.421 -0.22655 -0.057771 -0.97228
0.0069908 -0.010905 0.421 -0.26977 -0.069295 -0.96043
0.0069908 -0.010126 0.421 -0.30196 -0.088627 -0.94919
0.0069908 -0.0093469 0.421 -0.33469 -0.10728 -0.9362
0.0069908 -0.008568 0.421 -0.36257 -0.12542 -0.92348
0.0070074 -0.0078076 0.422 -0.41765 -0.12199 -0.90038
0.0070074 -0.0070268 0.422 -0.47153 -0.11385 -0.87447
0.0070074 -0.0062461 0.422 -0.53307 -0.1136 -0.83841
0.007024 -0.0054783 0.423 -0.55814 -0.11115 -0.82227
0.0070406 -0.0047068 0.424 -0.57727 -0.097369 -0.81072
0.0070406 -0.0039223 0.424 -0.58018 -0.085336 -0.81
0.0070572 -0.0031452 0.425 -0.56897 -0.072323 -0.81917
0.0070738 -0.0023645 0.426 -0.56612 -0.062058 -0.82198
0.0070738 -0.0015763 0.426 -0.53695 -0.039762 -0.84267
0.0070904 -0.00079001 0.427 -0.51516 -0.0098622 -0.85704
0.0070904 0 0.427 -0.50244 0.010853 -0.86454
0.0070904 0.00079001 0.427 -0.50642 0.01984 -0.86206
0.007107 0.0015837 0.428 -0.52909 0.023903 -0.84823
0.007107 0.0023756 0.428 -0.57734 0.027254 -0.81605
0.0071236 0.0031748 0.429 -0.60328 0.030703 -0.79694
0.0071236 0.0039685 0.429 -0.62889 0.022658 -0.77717
0.0071402 0.0047734 0.43 -0.65343 0.022009 -0.75666
0.0071568 0.0055819 0.431 -0.65493 0.011747 -0.7556
0.0071734 0.0063941 0.432 -0.64676 -0.0038627 -0.76269
0.0071734 0.0071933 0.432 -0.63297 -0.012499 -0.77408
0.00719 0.0080111 0.433 -0.62855 -0.037774 -0.77685
0.0072066 0.0088326 0.434 -0.62946 -0.062943 -0.77448
0.0072066 0.0096355 0.434 -0.61266 -0.054707 -0.78845
0.0072066 0.010438 0.434 -0.54867 -0.040162 -0.83507
0.0072232 0.011267 0.435 -0.60276 -0.081891 -0.79371
0.0072399 0.0121 0.436 -0.66 -0.12522 -0.74076
0.0072565 0.012936 0.437 -0.71639 -0.1108 -0.68885
0.0072731 0.013776 0.438 -0.74173 -0.088816 -0.66479
0.0073063 0.014653 0.44 -0.66815 -0.081931 -0.7395
0.0073229 0.015502 0.441 -0.59848 -0.047261 -0.79974
0.0073229 0.016318 0.441 -0.64404 -0.066657 -0.76208
0.0073395 0.017173 0.442 -0.6189 -0.035481 -0.78467
0.0073395 0.017991 0.442 -0.53307 -0.022205 -0.84578
0.0073395 0.018809 0.442 -0.36103 0.007558 -0.93252
0.0075554 0.020204 0.455 -0.16724 0.0864 -0.98212
0.0075554 0.021045 0.455 -0.24906 0.069069 -0.96602
0.0075554 0.021887 0.455 -0.37411 0.046583 -0.92621
0.0075554 0.022729 0.455 -0.43652 0.040373 -0.89879
0.007572 0.023623 0.456 -0.39832 0.053689 -0.91568
0.007572 0.024466 0.456 -0.38535 0.053618 -0.92121
0.0080074 -0.073069 0.434 0.83176 0.021102 -0.55473
0.0079889 -0.0721 0.433 0.83313 0.088273 -0.54599
0.007952 -0.070969 0.431 0.74739 0.10901 -0.65538
0.0079336 -0.070009 0.43 0.74702 0.11789 -0.65426
0.0079151 -0.069053 0.429 0.72289 0.13412 -0.67782
0.0078967 -0.0681 0.428 0.7032 0.13631 -0.6978
0.0078782 -0.067151 0.427 0.69124 0.13147 -0.71056
0.0078598 -0.066205 0.426 0.6705 0.11797 -0.73248
0.0078598 -0.065417 0.426 0.69284 0.1142 -0.71199
0.0078413 -0.064477 0.425 0.65878 0.12004 -0.7427
0.0078229 -0.063541 0.424 0.62202 0.12263 -0.77334
0.0078229 -0.062757 0.424 0.6059 0.135 -0.78401
0.0078044 -0.061826 0.423 0.55619 0.12485 -0.82162
0.0078044 -0.061043 0.423 0.54153 0.12381 -0.83152
0.007786 -0.060118 0.422 0.51659 0.11937 -0.84787
0.007786 -0.059338 0.422 0.47584 0.11355 -0.87217
0.0077675 -0.058418 0.421 0.4576 0.11782 -0.88132
0.0077675 -0.057639 0.421 0.42906 0.12808 -0.89415
0.0077675 -0.05686 0.421 0.39399 0.13032 -0.90983
0.0077491 -0.055948 0.42 0.36141 0.12963 -0.92335
0.0077491 -0.055171 0.42 0.31957 0.12487 -0.9393
0.0077491 -0.054394 0.42 0.29272 0.11111 -0.94972
0.0077306 -0.053489 0.419 0.25021 0.098575 -0.96316
0.0077306 -0.052714 0.419 0.21186 0.10667 -0.97146
0.0077306 -0.051939 0.419 0.18789 0.10618 -0.97643
0.0077306 -0.051164 0.419 0.14522 0.099695 -0.98436
0.0077306 -0.050389 0.419 0.093239 0.095094 -0.99109
0.0077306 -0.049613 0.419 0.065927 0.079529 -0.99465
0.0077306 -0.048838 0.419 0.038379 0.063788 -0.99723
0.0077306 -0.048063 0.419 0.018147 0.051097 -0.99853
0.0077306 -0.047288 0.419 -0.0053413 0.038351 -0.99925
0.0077306 -0.046512 0.419 -0.019229 0.033025 -0.99927
0.0077306 -0.045737 0.419 -0.02777 0.033018 -0.99907
0.0077306 -0.044962 0.419 -0.036304 0.033009 -0.9988
0.0077306 -0.044187 0.419 -0.025644 0.020245 -0.99947
0.0077306 -0.043412 0.419 -0.026716 -0.009591 -0.9996
0.0077306 -0.042636 0.419 -0.049094 -0.030865 -0.99832
0.0077306 -0.041861 0.419 -0.080905 -0.043525 -0.99577
0.0077306 -0.041086 0.419 -0.11982 -0.043354 -0.99185
0.0077306 -0.040311 0.419 -0.16222 -0.052524 -0.98536
0.0077306 -0.039536 0.419 -0.1996 -0.067739 -0.97753
0.0077491 -0.038853 0.42 -0.24442 -0.071992 -0.96699
0.0077491 -0.038076 0.42 -0.27317 -0.07142 -0.95931
