-0.018017 -0.1084 0.465 -0.33404 0.426 -0.8408
-0.018055 -0.10777 0.466 -0.36557 0.43099 -0.82499
-0.018055 -0.10691 0.466 -0.38567 0.42999 -0.81631
-0.018094 -0.10627 0.467 -0.3866 0.43304 -0.81426
-0.018094 -0.10541 0.467 -0.38051 0.44088 -0.81292
-0.018133 -0.10477 0.468 -0.37139 0.43995 -0.81763
-0.018133 -0.1039 0.468 -0.3576 0.44811 -0.81934
-0.018133 -0.10304 0.468 -0.33292 0.4615 -0.8223
-0.018133 -0.10217 0.468 -0.29085 0.47548 -0.83026
-0.018172 -0.10152 0.469 -0.24911 0.4841 -0.83881
-0.018172 -0.10065 0.469 -0.20849 0.49611 -0.84285
-0.018172 -0.099787 0.469 -0.16912 0.50354 -0.84726
-0.01821 -0.09913 0.47 -0.11784 0.50894 -0.8527
-0.01821 -0.098261 0.47 -0.084592 0.51426 -0.85345
-0.01821 -0.097391 0.47 -0.045474 0.5215 -0.85204
-0.01821 -0.096522 0.47 -0.016214 0.5255 -0.85064
-0.018172 -0.095449 0.469 -0.0048661 0.52812 -0.84915
-0.018172 -0.094581 0.469 -0.0040429 0.53219 -0.84661
-0.018172 -0.093713 0.469 -0.013739 0.53272 -0.84618
-0.018172 -0.092846 0.469 -0.025037 0.53318 -0.84563
-0.018172 -0.091978 0.469 -0.041848 0.5369 -0.84261
-0.018172 -0.09111 0.469 -0.051082 0.54682 -0.83569
-0.018172 -0.090242 0.469 -0.045733 0.55951 -0.82756
-0.018172 -0.089375 0.469 0.0031513 0.56581 -0.82453
-0.01821 -0.088696 0.47 -0.064294 0.5749 -0.81569
-0.01821 -0.087826 0.47 -0.075708 0.57878 -0.81196
-0.01821 -0.086957 0.47 -0.073953 0.58401 -0.80837
-0.01821 -0.086087 0.47 -0.058139 0.5969 -0.80021
-0.016157 -0.05632 0.417 0.54891 0.075418 -0.83247
-0.016118 -0.055415 0.416 0.46249 0.059515 -0.88462
-0.016118 -0.054646 0.416 0.53788 0.097889 -0.83732
-0.016118 -0.053876 0.416 0.56621 0.11781 -0.8158
-0.016079 -0.052979 0.415 0.52056 0.10271 -0.84762
-0.016041 -0.052085 0.414 0.51944 0.11511 -0.84672
-0.016041 -0.051319 0.414 0.50998 0.11588 -0.85234
-0.016041 -0.050553 0.414 0.49149 0.098959 -0.86524
-0.016002 -0.049667 0.413 0.47422 0.10215 -0.87446
-0.016002 -0.048903 0.413 0.46276 0.09344 -0.88155
-0.015963 -0.048022 0.412 0.43161 0.083747 -0.89816
-0.015963 -0.04726 0.412 0.41179 0.073858 -0.90828
-0.015963 -0.046498 0.412 0.40614 0.070137 -0.91112
-0.015924 -0.045624 0.411 0.39304 0.058843 -0.91764
-0.015924 -0.044864 0.411 0.36921 0.047411 -0.92813
-0.015924 -0.044104 0.411 0.3459 0.062069 -0.93622
-0.015924 -0.043343 0.411 0.35413 0.052769 -0.93371
-0.015886 -0.042479 0.41 0.3514 0.047878 -0.935
-0.015886 -0.041721 0.41 0.32226 0.048411 -0.94541
-0.015886 -0.040962 0.41 0.3287 0.049323 -0.94315
-0.015886 -0.040204 0.41 0.33133 0.056437 -0.94183
-0.015847 -0.039349 0.409 0.31613 0.066152 -0.94641
-0.015847 -0.038592 0.409 0.28676 0.067838 -0.9556
-0.015847 -0.037835 0.409 0.27914 0.06279 -0.95819
-0.015808 -0.036988 0.408 0.26012 0.068541 -0.96314
-0.015808 -0.036233 0.408 0.21693 0.074595 -0.97333
-0.015808 -0.035478 0.408 0.17886 0.06984 -0.98139
-0.015808 -0.034723 0.408 0.162 0.077547 -0.98374
-0.015808 -0.033969 0.408 0.1354 0.090737 -0.98663
-0.015808 -0.033214 0.408 0.09885 0.10616 -0.98942
-0.015808 -0.032459 0.408 0.084848 0.10522 -0.99082
-0.015808 -0.031704 0.408 0.074017 0.10746 -0.99145
-0.015808 -0.030949 0.408 0.062057 0.11291 -0.99166
-0.015808 -0.030194 0.408 0.050057 0.12263 -0.99119
-0.015808 -0.029439 0.408 0.039117 0.13761 -0.98971
-0.015808 -0.028685 0.408 0.024976 0.14511 -0.9891
-0.015808 -0.02793 0.408 0.0032567 0.14939 -0.98877
-0.015808 -0.027175 0.408 -0.013026 0.14938 -0.98869
-0.015808 -0.02642 0.408 -0.033696 0.13658 -0.99006
-0.015808 -0.025665 0.408 -0.051136 0.12369 -0.991
-0.015808 -0.02491 0.408 -0.058831 0.10865 -0.99234
-0.015808 -0.024155 0.408 -0.062183 0.09356 -0.99367
-0.015808 -0.023401 0.408 -0.061176 0.078437 -0.99504
-0.015808 -0.022646 0.408 -0.06122 0.068682 -0.99576
-0.015808 -0.021891 0.408 -0.055807 0.058926 -0.9967
-0.015808 -0.021136 0.408 -0.044913 0.049158 -0.99778
-0.015808 -0.020381 0.408 -0.046006 0.049156 -0.99773
-0.015808 -0.019626 0.408 -0.052547 0.054585 -0.99713
-0.015808 -0.018871 0.408 -0.06343 0.061073 -0.99612
-0.015808 -0.018117 0.408 -0.094859 0.068501 -0.99313
-0.015808 -0.017362 0.408 -0.1324 0.07359 -0.98846
-0.015808 -0.016607 0.408 -0.15673 0.078685 -0.9845
-0.015808 -0.015852 0.408 -0.17855 0.091172 -0.9797
-0.015847 -0.015134 0.409 -0.20052 0.10637 -0.9739
-0.015847 -0.014377 0.409 -0.23706 0.10026 -0.96631
-0.015847 -0.013621 0.409 -0.25688 0.099738 -0.96128
-0.015847 -0.012864 0.409 -0.25972 0.10381 -0.96009
-0.015847 -0.012107 0.409 -0.27134 0.10656 -0.95657
-0.015886 -0.011378 0.41 -0.28844 0.091382 -0.95313
-0.015886 -0.01062 0.41 -0.29442 0.080923 -0.95224
-0.015886 -0.0098612 0.41 -0.31396 0.088571 -0.9453
-0.015886 -0.0091027 0.41 -0.34028 0.096809 -0.93533
-0.015924 -0.0083645 0.411 -0.35973 0.1048 -0.92715
-0.015924 -0.0076041 0.411 -0.38036 0.1088 -0.91842
-0.015924 -0.0068437 0.411 -0.40004 0.10196 -0.91081
-0.015963 -0.0060981 0.412 -0.43359 0.11149 -0.89419
-0.015963 -0.0053358 0.412 -0.46252 0.11626 -0.87895
-0.015963 -0.0045735 0.412 -0.47188 0.12119 -0.87329
-0.016002 -0.0038205 0.413 -0.48874 0.11413 -0.86493
-0.016002 -0.0030564 0.413 -0.51479 0.11847 -0.84909
-0.016041 -0.0022979 0.414 -0.51484 0.11369 -0.84971
-0.016041 -0.0015319 0.414 -0.50956 0.11139 -0.85319
-0.016079 -0.00076781 0.415 -0.51208 0.098276 -0.8533
-0.016079 0 0.415 -0.50408 0.094254 -0.8585
-0.016118 0.00076966 0.416 -0.50014 0.085131 -0.86175
-0.016118 0.0015393 0.416 -0.49313 0.085525 -0.86574
-0.016118 0.002309 0.416 -0.48682 0.084024 -0.86945
-0.016157 0.003086 0.417 -0.49244 0.080762 -0.86659
-0.016157 0.0038575 0.417 -0.48782 0.071759 -0.86999
-0.016196 0.0046401 0.418 -0.49076 0.063149 -0.869
-0.016196 0.0054135 0.418 -0.49399 0.048242 -0.86813
-0.016196 0.0061869 0.418 -0.46028 0.024657 -0.88743
-0.016234 0.0069769 0.419 -0.39059 -0.021585 -0.92031
-0.016234 0.0077521 0.419 -0.28711 -0.064192 -0.95574
-0.016273 0.0085476 0.42 -0.12687 -0.13175 -0.98313
-0.016273 0.0093247 0.42 0.041796 -0.1959 -0.97973
-0.016273 0.010102 0.42 0.21374 -0.24632 -0.94533
-0.016273 0.010879 0.42 0.3541 -0.28685 -0.89013
-0.016234 0.011628 0.419 0.44429 -0.31711 -0.83788
-0.016157 0.012344 0.417 0.50449 -0.34078 -0.79332
-0.016157 0.013116 0.417 0.51524 -0.36879 -0.77364
-0.016157 0.013887 0.417 0.50277 -0.3907 -0.77109
-0.016118 0.014623 0.416 0.47291 -0.40699 -0.78149
-0.016118 0.015393 0.416 0.41784 -0.42101 -0.80509
-0.016079 0.016124 0.415 0.3349 -0.40456 -0.85098
-0.016079 0.016892 0.415 0.29544 -0.41329 -0.86134
-0.016079 0.01766 0.415 0.239 -0.4133 -0.87867
-0.016079 0.018427 0.415 0.17714 -0.40542 -0.8968
-0.016079 0.019195 0.415 0.094744 -0.39367 -0.91435
-0.016079 0.019963 0.415 0.005985 -0.38198 -0.92415
-0.016079 0.020731 0.415 -0.056959 -0.37369 -0.9258
-0.016079 0.021499 0.415 -0.13057 -0.36081 -0.92345
-0.016079 0.022266 0.415 -0.20052 -0.34969 -0.91515
-0.016079 0.023034 0.415 -0.26513 -0.32879 -0.90642
-0.016118 0.023859 0.416 -0.32696 -0.31649 -0.89047
-0.016118 0.024629 0.416 -0.38373 -0.29674 -0.87447
-0.016118 0.025399 0.416 -0.44584 -0.27921 -0.85045
-0.016118 0.026168 0.416 -0.51107 -0.24727 -0.8232
-0.016157 0.027003 0.417 -0.54253 -0.22282 -0.80994
-0.016157 0.027774 0.417 -0.55269 -0.17716 -0.81434
-0.016196 0.028614 0.418 -0.61285 -0.21484 -0.76044
-0.016234 0.029458 0.419 -0.62097 -0.20486 -0.75659
-0.017159 -0.11614 0.465 0.31538 0.33526 -0.88777
-0.017122 -0.11503 0.464 0.10097 0.30077 -0.94834
-0.017122 -0.11418 0.464 0.11042 0.32041 -0.94082
-0.017122 -0.11332 0.464 0.087856 0.33944 -0.93651
-0.017122 -0.11246 0.464 0.027877 0.36479 -0.93067
-0.017122 -0.1116 0.464 -0.058575 0.38376 -0.92157
-0.017122 -0.11074 0.464 -0.1286 0.40121 -0.90691
-0.017122 -0.10988 0.464 -0.21303 0.40609 -0.88865
-0.017122 -0.10902 0.464 -0.26954 0.41207 -0.87037
-0.017159 -0.1084 0.465 -0.33169 0.42158 -0.84395
-0.017159 -0.10754 0.465 -0.36224 0.42115 -0.83151
-0.017159 -0.10668 0.465 -0.37899 0.41686 -0.8262
-0.017196 -0.10605 0.466 -0.38725 0.42691 -0.81718
-0.017232 -0.10541 0.467 -0.37909 0.43356 -0.81751
-0.017232 -0.10455 0.467 -0.37538 0.43765 -0.81704
-0.017232 -0.10368 0.467 -0.35336 0.44599 -0.82233
-0.017269 -0.10304 0.468 -0.32356 0.45854 -0.82768
-0.017269 -0.10217 0.468 -0.28313 0.47483 -0.83329
-0.017269 -0.10131 0.468 -0.24923 0.48669 -0.83727
-0.017306 -0.10065 0.469 -0.20321 0.48803 -0.84884
-0.017306 -0.099787 0.469 -0.16843 0.49579 -0.85195
-0.017306 -0.09892 0.469 -0.12046 0.49931 -0.85801
-0.017306 -0.098052 0.469 -0.090133 0.5058 -0.85793
-0.017306 -0.097184 0.469 -0.053973 0.51377 -0.85623
-0.017306 -0.096316 0.469 -0.027799 0.51612 -0.85607
-0.017306 -0.095449 0.469 -0.014715 0.51686 -0.85594
-0.017306 -0.094581 0.469 -0.0073581 0.5169 -0.85601
-0.017306 -0.093713 0.469 -0.010659 0.51269 -0.85851
-0.017306 -0.092846 0.469 -0.015617 0.50902 -0.86061
-0.017306 -0.091978 0.469 -0.027005 0.51493 -0.85681
-0.017306 -0.09111 0.469 -0.032451 0.52669 -0.84944
-0.017306 -0.090242 0.469 -0.02399 0.54626 -0.83727
-0.017306 -0.089375 0.469 0.0022855 0.55395 -0.83255
-0.017306 -0.088507 0.469 0.012136 0.55749 -0.83009
-0.017306 -0.087639 0.469 0.024938 0.56182 -0.82688
-0.017306 -0.086772 0.469 0.038711 0.56729 -0.82261
-0.017306 -0.085904 0.469 0.051291 0.58017 -0.81288
-0.015387 -0.05632 0.417 0.57325 0.032621 -0.81873
-0.015351 -0.055415 0.416 0.50107 0.0046728 -0.86539
-0.015351 -0.054646 0.416 0.55726 0.063071 -0.82794
-0.015314 -0.053747 0.415 0.51308 0.057859 -0.85639
-0.015314 -0.052979 0.415 0.52434 0.073398 -0.84834
-0.015277 -0.052085 0.414 0.5182 0.088117 -0.85071
-0.015277 -0.051319 0.414 0.50937 0.088662 -0.85597
-0.015277 -0.050553 0.414 0.48728 0.081613 -0.86943
-0.01524 -0.049667 0.413 0.47128 0.085451 -0.87783
-0.01524 -0.048903 0.413 0.46134 0.071735 -0.88432
-0.015203 -0.048022 0.412 0.42745 0.064526 -0.90173
-0.015203 -0.04726 0.412 0.40975 0.058233 -0.91034
-0.015203 -0.046498 0.412 0.40656 0.053399 -0.91206
-0.015166 -0.045624 0.411 0.39171 0.039962 -0.91922
-0.015166 -0.044864 0.411 0.36682 0.031326 -0.92976
-0.015166 -0.044104 0.411 0.34258 0.046911 -0.93832
-0.015129 -0.043238 0.41 0.35517 0.034604 -0.93416
-0.015129 -0.042479 0.41 0.35069 0.034667 -0.93585
-0.015129 -0.041721 0.41 0.31594 0.035122 -0.94813
-0.015129 -0.040962 0.41 0.32703 0.037037 -0.94429
-0.015129 -0.040204 0.41 0.33425 0.046152 -0.94136
-0.015092 -0.039349 0.409 0.31827 0.051692 -0.94659
-0.015092 -0.038592 0.409 0.29288 0.044854 -0.9551
-0.015092 -0.037835 0.409 0.28424 0.044976 -0.9577
-0.015055 -0.036988 0.408 0.26428 0.054819 -0.96289
-0.015055 -0.036233 0.408 0.21911 0.065017 -0.97353
-0.015055 -0.035478 0.408 0.18416 0.062289 -0.98092
-0.015055 -0.034723 0.408 0.1704 0.077435 -0.98233
-0.015055 -0.033969 0.408 0.14068 0.092809 -0.9857
-0.015055 -0.033214 0.408 0.099891 0.10936 -0.98897
-0.015055 -0.032459 0.408 0.086957 0.11056 -0.99006
-0.015055 -0.031704 0.408 0.077179 0.11707 -0.99012
-0.015055 -0.030949 0.408 0.066273 0.12784 -0.98958
-0.015055 -0.030194 0.408 0.055323 0.14387 -0.98805
-0.015055 -0.029439 0.408 0.038985 0.15983 -0.98637
-0.015055 -0.028685 0.408 0.024896 0.16516 -0.98595
-0.015055 -0.02793 0.408 -0.0021663 0.16311 -0.98661
-0.015055 -0.027175 0.408 -0.022761 0.1578 -0.98721
-0.015055 -0.02642 0.408 -0.046672 0.14288 -0.98864
-0.015055 -0.025665 0.408 -0.066273 0.12784 -0.98958
-0.015055 -0.02491 0.408 -0.075064 0.11174 -0.9909
-0.015055 -0.024155 0.408 -0.07844 0.095606 -0.99232
-0.015055 -0.023401 0.408 -0.076383 0.079436 -0.99391
-0.015055 -0.022646 0.408 -0.068863 0.063223 -0.99562
-0.015055 -0.021891 0.408 -0.055843 0.046953 -0.99733
-0.015055 -0.021136 0.408 -0.037284 0.03062 -0.99884
-0.015055 -0.020381 0.408 -0.030716 0.025161 -0.99921
-0.015055 -0.019626 0.408 -0.036189 0.030621 -0.99888
-0.015055 -0.018871 0.408 -0.04712 0.03934 -0.99811
-0.015055 -0.018117 0.408 -0.085237 0.04468 -0.99536
-0.015055 -0.017362 0.408 -0.12407 0.044497 -0.99128
-0.015055 -0.016607 0.408 -0.15071 0.044331 -0.98758
-0.015055 -0.015852 0.408 -0.1759 0.053808 -0.98294
-0.015055 -0.015097 0.408 -0.20789 0.064117 -0.97605
-0.015092 -0.014377 0.409 -0.24676 0.063367 -0.967
-0.015092 -0.013621 0.409 -0.26355 0.063078 -0.96258
-0.015092 -0.012864 0.409 -0.26346 0.068311 -0.96225
-0.015092 -0.012107 0.409 -0.27213 0.074394 -0.95938
-0.015092 -0.011351 0.409 -0.29167 0.061508 -0.95454
-0.015129 -0.01062 0.41 -0.29317 0.045779 -0.95496
-0.015129 -0.0098612 0.41 -0.31471 0.055747 -0.94755
-0.015129 -0.0091027 0.41 -0.33384 0.067607 -0.9402
-0.015129 -0.0083441 0.41 -0.35248 0.079241 -0.93246
-0.015166 -0.0076041 0.411 -0.36659 0.083589 -0.92662
-0.015166 -0.0068437 0.411 -0.39084 0.077752 -0.91717
-0.015166 -0.0060833 0.411 -0.43065 0.089795 -0.89804
-0.015203 -0.0053358 0.412 -0.45973 0.096669 -0.88278
-0.015203 -0.0045735 0.412 -0.46978 0.10548 -0.87646
-0.01524 -0.0038205 0.413 -0.4876 0.09481 -0.8679
-0.01524 -0.0030564 0.413 -0.52202 0.09715 -0.84738
-0.015277 -0.0022979 0.414 -0.52577 0.096657 -0.84512
-0.015277 -0.0015319 0.414 -0.52072 0.091583 -0.8488
-0.015277 -0.00076596 0.414 -0.52322 0.080554 -0.84838
-0.015314 0 0.415 -0.51314 0.074549 -0.85506
-0.015351 0.00076966 0.416 -0.5071 0.065519 -0.85939
-0.015351 0.0015393 0.416 -0.49738 0.065948 -0.86502
-0.015351 0.002309 0.416 -0.492 0.057832 -0.86867
-0.015387 0.003086 0.417 -0.49404 0.053915 -0.86777
-0.015387 0.0038575 0.417 -0.4894 0.040126 -0.87114
-0.015387 0.004629 0.417 -0.49593 0.030677 -0.86782
-0.015424 0.0054135 0.418 -0.50357 0.01477 -0.86383
-0.015424 0.0061869 0.418 -0.47883 -0.0093812 -0.87786
-0.015461 0.0069769 0.419 -0.42183 -0.054995 -0.90501
-0.015461 0.0077521 0.419 -0.33984 -0.10167 -0.93497
-0.015498 0.0085476 0.42 -0.19965 -0.17036 -0.96494
-0.015498 0.0093247 0.42 -0.047542 -0.2422 -0.96906
-0.015498 0.010102 0.42 0.12618 -0.29697 -0.94651
-0.015498 0.010879 0.42 0.27883 -0.33922 -0.89843
-0.015461 0.011628 0.419 0.38754 -0.37298 -0.84303
-0.015424 0.012374 0.418 0.46176 -0.39336 -0.79502
-0.015424 0.013147 0.418 0.48621 -0.41501 -0.76901
-0.015387 0.013887 0.417 0.48429 -0.41484 -0.77031
-0.015387 0.014659 0.417 0.46351 -0.43969 -0.76931
-0.015351 0.015393 0.416 0.40889 -0.45248 -0.79251
-0.015351 0.016163 0.416 0.35801 -0.47015 -0.80671
-0.015351 0.016932 0.416 0.3058 -0.47506 -0.82511
-0.015314 0.01766 0.415 0.23607 -0.46822 -0.85149
-0.015314 0.018427 0.415 0.18144 -0.47322 -0.86205
-0.015314 0.019195 0.415 0.099876 -0.46195 -0.88126
-0.015314 0.019963 0.415 0.015442 -0.44753 -0.89414
-0.015314 0.020731 0.415 -0.046498 -0.43858 -0.89749
-0.015314 0.021499 0.415 -0.11025 -0.43014 -0.89601
-0.015314 0.022266 0.415 -0.17781 -0.41886 -0.89047
-0.015314 0.023034 0.415 -0.24211 -0.39413 -0.88659
-0.015351 0.023859 0.416 -0.30568 -0.37258 -0.87621
-0.015351 0.024629 0.416 -0.36743 -0.34311 -0.86445
-0.015351 0.025399 0.416 -0.43298 -0.31818 -0.84338
-0.015387 0.026231 0.417 -0.49824 -0.28318 -0.81949
-0.015387 0.027003 0.417 -0.51864 -0.24501 -0.81914
-0.015424 0.027841 0.418 -0.59358 -0.25193 -0.76433
-0.015424 0.028614 0.418 -0.59599 -0.23845 -0.76677
-0.015461 0.029458 0.419 -0.59788 -0.23087 -0.76761
-0.016301 -0.11614 0.465 0.39937 0.32117 -0.85869
-0.016266 -0.11503 0.464 0.19743 0.31298 -0.92901
-0.016266 -0.11418 0.464 0.19174 0.32837 -0.92488
-0.016266 -0.11332 0.464 0.15008 0.33994 -0.9284
-0.016231 -0.11222 0.463 0.019422 0.36257 -0.93175
-0.016231 -0.11136 0.463 -0.05951 0.40968 -0.91028
-0.016231 -0.1105 0.463 -0.11553 0.43631 -0.89235
-0.016266 -0.10988 0.464 -0.2047 0.40649 -0.89043
-0.016266 -0.10902 0.464 -0.26895 0.42023 -0.86665
-0.016266 -0.10817 0.464 -0.31547 0.42634 -0.84777
-0.016301 -0.10754 0.465 -0.36475 0.41684 -0.83258
-0.016301 -0.10668 0.465 -0.38546 0.4283 -0.8173
-0.016336 -0.10605 0.466 -0.38817 0.41601 -0.82235
-0.016336 -0.10518 0.466 -0.38535 0.42907 -0.81695
-0.016371 -0.10455 0.467 -0.37163 0.42103 -0.82742
-0.016371 -0.10368 0.467 -0.35159 0.43658 -0.82812
-0.016371 -0.10282 0.467 -0.32581 0.45232 -0.83021
-0.016371 -0.10195 0.467 -0.27955 0.46699 -0.83891
-0.016406 -0.10131 0.468 -0.24034 0.47273 -0.8478
-0.016406 -0.10044 0.468 -0.19791 0.48036 -0.85445
-0.016406 -0.099574 0.468 -0.15613 0.48028 -0.86311
-0.016406 -0.098709 0.468 -0.11073 0.48072 -0.86986
-0.016406 -0.097843 0.468 -0.083512 0.48136 -0.87253
-0.016406 -0.096977 0.468 -0.055093 0.48614 -0.87214
-0.016406 -0.096111 0.468 -0.032587 0.48662 -0.873
-0.016406 -0.095245 0.468 -0.023459 0.48292 -0.87535
-0.016406 -0.094379 0.468 -0.020166 0.47845 -0.87788
-0.016406 -0.093513 0.468 -0.022767 0.47258 -0.88099
-0.016406 -0.092648 0.468 -0.021942 0.47128 -0.88171
-0.016406 -0.091782 0.468 -0.027712 0.47901 -0.87737
-0.016406 -0.090916 0.468 -0.019162 0.49186 -0.87047
-0.016406 -0.09005 0.468 0.0057416 0.51532 -0.85698
-0.016441 -0.089375 0.469 0.0018749 0.51573 -0.85675
-0.016441 -0.088507 0.469 -0.022916 0.52094 -0.85328
-0.016441 -0.087639 0.469 -0.048327 0.52727 -0.84833
-0.016406 -0.086586 0.468 0.16684 0.53885 -0.82572
-0.016406 -0.085721 0.468 0.17727 0.55595 -0.8121
-0.016371 -0.084673 0.467 0.38753 0.51576 -0.76408
-0.014618 -0.05632 0.417 0.59423 0.00355 -0.80429
-0.014583 -0.055415 0.416 0.53162 -0.029499 -0.84647
-0.014583 -0.054646 0.416 0.57472 0.038382 -0.81745
-0.014548 -0.053747 0.415 0.5353 0.027211 -0.84422
-0.014548 -0.052979 0.415 0.53227 0.048413 -0.84519
-0.014513 -0.052085 0.414 0.52257 0.062388 -0.85031
-0.014513 -0.051319 0.414 0.50831 0.063015 -0.85887
-0.014513 -0.050553 0.414 0.48004 0.061373 -0.8751
-0.014478 -0.049667 0.413 0.46603 0.065846 -0.88231
-0.014478 -0.048903 0.413 0.45428 0.052901 -0.88929
-0.014443 -0.048022 0.412 0.41895 0.049152 -0.90668
-0.014443 -0.04726 0.412 0.40504 0.04653 -0.91311
-0.014443 -0.046498 0.412 0.40172 0.046605 -0.91458
-0.014408 -0.045624 0.411 0.38757 0.032041 -0.92128
-0.014408 -0.044864 0.411 0.36423 0.027317 -0.93091
-0.014408 -0.044104 0.411 0.34174 0.042855 -0.93882
-0.014408 -0.043343 0.411 0.35531 0.033504 -0.93415
-0.014373 -0.042479 0.41 0.34891 0.033672 -0.93655
-0.014373 -0.041721 0.41 0.31127 0.034145 -0.94971
-0.014373 -0.040962 0.41 0.32525 0.03192 -0.94509
-0.014338 -0.040105 0.409 0.33601 0.037003 -0.94113
-0.014338 -0.039349 0.409 0.32126 0.037205 -0.94626
-0.014338 -0.038592 0.409 0.29784 0.028138 -0.9542
-0.014338 -0.037835 0.409 0.28634 0.028241 -0.95771
-0.014303 -0.036988 0.408 0.26353 0.035884 -0.96398
-0.014303 -0.036233 0.408 0.22033 0.049063 -0.97419
-0.014303 -0.035478 0.408 0.19261 0.048287 -0.98009
-0.014303 -0.034723 0.408 0.17996 0.064479 -0.98156
-0.014303 -0.033969 0.408 0.15036 0.080907 -0.98531
-0.014303 -0.033214 0.408 0.10861 0.09748 -0.98929
-0.014303 -0.032459 0.408 0.093468 0.10621 -0.98994
-0.014303 -0.031704 0.408 0.086893 0.11698 -0.98933
-0.014303 -0.030949 0.408 0.079179 0.13304 -0.98794
-0.014303 -0.030194 0.408 0.064996 0.14908 -0.98669
-0.014268 -0.029367 0.407 0.044457 0.16544 -0.98522
-0.014268 -0.028614 0.407 0.019522 0.16873 -0.98547
-0.014268 -0.027861 0.407 -0.011947 0.16138 -0.98682
-0.014268 -0.027108 0.407 -0.035875 0.15177 -0.98776
-0.014268 -0.026355 0.407 -0.062031 0.13566 -0.98881
-0.014268 -0.025602 0.407 -0.082756 0.11945 -0.98939
-0.014303 -0.02491 0.408 -0.091343 0.10302 -0.99048
-0.014303 -0.024155 0.408 -0.093644 0.08687 -0.99181
-0.014303 -0.023401 0.408 -0.089439 0.070701 -0.99348
-0.014303 -0.022646 0.408 -0.078684 0.054491 -0.99541
-0.014303 -0.021891 0.408 -0.06132 0.038219 -0.99739
-0.014303 -0.021136 0.408 -0.037293 0.021876 -0.99906
-0.014303 -0.020381 0.408 -0.02524 0.016415 -0.99955
-0.014303 -0.019626 0.408 -0.026334 0.02079 -0.99944
-0.014303 -0.018871 0.408 -0.03948 0.025154 -0.9989
-0.014303 -0.018117 0.408 -0.079857 0.028363 -0.9964
-0.014303 -0.017362 0.408 -0.12092 0.028245 -0.99226
-0.014303 -0.016607 0.408 -0.14974 0.028133 -0.98833
-0.014303 -0.015852 0.408 -0.17187 0.033416 -0.98455
-0.014303 -0.015097 0.408 -0.20713 0.038529 -0.97755
-0.014338 -0.014377 0.409 -0.24907 0.038049 -0.96774
-0.014338 -0.013621 0.409 -0.26879 0.037842 -0.96246
-0.014338 -0.012864 0.409 -0.26683 0.037863 -0.963
-0.014338 -0.012107 0.409 -0.26868 0.047283 -0.96207
-0.014338 -0.011351 0.409 -0.28625 0.037643 -0.95741
-0.014373 -0.01062 0.41 -0.2905 0.028136 -0.95646
-0.014373 -0.0098612 0.41 -0.31028 0.039324 -0.94983
-0.014373 -0.0091027 0.41 -0.32863 0.053422 -0.94295
-0.014373 -0.0083441 0.41 -0.34754 0.06218 -0.9356
-0.014408 -0.0076041 0.411 -0.35725 0.07186 -0.93124
-0.014408 -0.0068437 0.411 -0.38265 0.066103 -0.92152
-0.014408 -0.0060833 0.411 -0.42462 0.079397 -0.90188
-0.014443 -0.0053358 0.412 -0.45652 0.0826 -0.88587
-0.014443 -0.0045735 0.412 -0.46899 0.090491 -0.87855
-0.014478 -0.0038205 0.413 -0.48478 0.076333 -0.8713
-0.014478 -0.0030564 0.413 -0.52495 0.077011 -0.84764
-0.014513 -0.0022979 0.414 -0.53391 0.076322 -0.84209
-0.014513 -0.0015319 0.414 -0.527 0.068549 -0.84709
-0.014513 -0.00076596 0.414 -0.53072 0.055663 -0.84572
-0.014548 0 0.415 -0.51805 0.0478 -0.85402
-0.014583 0.00076966 0.416 -0.51267 0.035004 -0.85787
-0.014583 0.0015393 0.416 -0.49956 0.035318 -0.86556
-0.014583 0.002309 0.416 -0.49413 0.021465 -0.86913
-0.014618 0.003086 0.417 -0.49186 0.016785 -0.87051
-0.014618 0.0038575 0.417 -0.4905 0.0037339 -0.87143
-0.014618 0.004629 0.417 -0.49966 -0.0046395 -0.86621
-0.014653 0.0054135 0.418 -0.51243 -0.020183 -0.85849
-0.014653 0.0061869 0.418 -0.49961 -0.047142 -0.86497
-0.014688 0.0069769 0.419 -0.45407 -0.08697 -0.88671
-0.014688 0.0077521 0.419 -0.38695 -0.13802 -0.91171
-0.014723 0.0085476 0.42 -0.26145 -0.20657 -0.94285
-0.014723 0.0093247 0.42 -0.12788 -0.27935 -0.95164
-0.014723 0.010102 0.42 0.043043 -0.34239 -0.93857
-0.014723 0.010879 0.42 0.19964 -0.38764 -0.89993
-0.014688 0.011628 0.419 0.3235 -0.42533 -0.84525
-0.014688 0.012403 0.419 0.41056 -0.4434 -0.79677
-0.014688 0.013179 0.419 0.44804 -0.46069 -0.76618
-0.014653 0.01392 0.418 0.46199 -0.47984 -0.74587
-0.014618 0.014659 0.417 0.43743 -0.46824 -0.76773
-0.014618 0.01543 0.417 0.39753 -0.49759 -0.77096
-0.014583 0.016163 0.416 0.34363 -0.50129 -0.79412
-0.014583 0.016932 0.416 0.30289 -0.51197 -0.80383
-0.014583 0.017702 0.416 0.25238 -0.51984 -0.81613
-0.014583 0.018472 0.416 0.19858 -0.52005 -0.83073
-0.014583 0.019241 0.416 0.12278 -0.51076 -0.85091
-0.014548 0.019963 0.415 0.041254 -0.49368 -0.86866
-0.014548 0.020731 0.415 -0.027341 -0.48608 -0.87349
-0.014548 0.021499 0.415 -0.094239 -0.47835 -0.8731
-0.014548 0.022266 0.415 -0.16169 -0.46404 -0.87093
-0.014583 0.02309 0.416 -0.2233 -0.43694 -0.87133
-0.014583 0.023859 0.416 -0.28687 -0.41754 -0.86219
-0.014583 0.024629 0.416 -0.34791 -0.39192 -0.85168
-0.014618 0.02546 0.417 -0.41285 -0.36579 -0.83412
-0.014653 0.026294 0.418 -0.48959 -0.34065 -0.80266
-0.014653 0.027068 0.418 -0.53727 -0.31695 -0.78159
-0.014653 0.027841 0.418 -0.57532 -0.28813 -0.7655
-0.014688 0.028683 0.419 -0.5891 -0.2857 -0.75587
-0.014723 0.029528 0.42 -0.62562 -0.27233 -0.73105
-0.015443 -0.117 0.465 0.41785 0.31463 -0.8523
-0.01541 -0.11589 0.464 0.23852 0.32051 -0.91672
-0.01541 -0.11503 0.464 0.27163 0.33436 -0.90245
-0.01541 -0.11418 0.464 0.25142 0.32913 -0.9102
-0.015376 -0.11307 0.463 0.1113 0.38601 -0.91576
-0.015376 -0.11222 0.463 0.063291 0.40153 -0.91365
-0.015376 -0.11136 0.463 -0.032855 0.43574 -0.89947
-0.015376 -0.1105 0.463 -0.10391 0.45686 -0.88345
-0.015376 -0.10965 0.463 -0.18497 0.47418 -0.86078
-0.01541 -0.10902 0.464 -0.26473 0.40144 -0.87679
-0.01541 -0.10817 0.464 -0.31494 0.42677 -0.84775
-0.01541 -0.10731 0.464 -0.35305 0.45085 -0.81981
-0.015443 -0.10668 0.465 -0.3851 0.40741 -0.82808
-0.015443 -0.10582 0.465 -0.39234 0.42778 -0.81429
-0.015443 -0.10496 0.465 -0.38993 0.44969 -0.80358
-0.015476 -0.10432 0.466 -0.37681 0.42895 -0.82098
-0.015476 -0.10346 0.466 -0.35804 0.44847 -0.81895
-0.015509 -0.10282 0.467 -0.31591 0.43687 -0.84223
-0.015509 -0.10195 0.467 -0.27524 0.45448 -0.84717
-0.015509 -0.10109 0.467 -0.24339 0.46673 -0.85025
-0.015542 -0.10044 0.468 -0.19427 0.46434 -0.86409
-0.015542 -0.099574 0.468 -0.15381 0.46537 -0.87165
-0.015542 -0.098709 0.468 -0.11174 0.46583 -0.87779
-0.015542 -0.097843 0.468 -0.084211 0.46776 -0.87984
-0.015542 -0.096977 0.468 -0.055559 0.47262 -0.87951
-0.015542 -0.096111 0.468 -0.037189 0.46779 -0.88306
-0.015542 -0.095245 0.468 -0.031499 0.4559 -0.88947
-0.015542 -0.094379 0.468 -0.026426 0.45395 -0.89064
-0.015542 -0.093513 0.468 -0.02733 0.45055 -0.89233
-0.015542 -0.092648 0.468 -0.024751 0.45194 -0.89171
-0.015542 -0.091782 0.468 -0.020382 0.46072 -0.88731
-0.015542 -0.090916 0.468 -0.0033737 0.4727 -0.88122
-0.015542 -0.09005 0.468 0.032362 0.49732 -0.86696
-0.015542 -0.089184 0.468 0.064352 0.50365 -0.86151
-0.015542 -0.088318 0.468 0.076646 0.50891 -0.8574
-0.015542 -0.087452 0.468 0.083855 0.51561 -0.85271
-0.015542 -0.086586 0.468 0.073857 0.52938 -0.84516
-0.015509 -0.085537 0.467 0.30257 0.52523 -0.79535
-0.015476 -0.084492 0.466 0.47937 0.48735 -0.72985
-0.013849 -0.05632 0.417 0.60209 -0.023135 -0.79809
-0.013815 -0.055415 0.416 0.54465 -0.056474 -0.83676
-0.013815 -0.054646 0.416 0.58421 0.010549 -0.81154
-0.013782 -0.053747 0.415 0.55094 -0.0056901 -0.83453
-0.013782 -0.052979 0.415 0.5381 0.018691 -0.84267
-0.013749 -0.052085 0.414 0.52408 0.025718 -0.85128
-0.013749 -0.051319 0.414 0.50638 0.02604 -0.86192
-0.013716 -0.050431 0.413 0.47503 0.029488 -0.87948
-0.013716 -0.049667 0.413 0.46452 0.034455 -0.88489
-0.013716 -0.048903 0.413 0.44858 0.028019 -0.8933
-0.013683 -0.048022 0.412 0.41357 0.028613 -0.91002
-0.013683 -0.04726 0.412 0.40119 0.024819 -0.91566
-0.013683 -0.046498 0.412 0.39532 0.024888 -0.91821
-0.013649 -0.045624 0.411 0.38347 0.010037 -0.9235
-0.013649 -0.044864 0.411 0.36347 0.010125 -0.93155
-0.013649 -0.044104 0.411 0.34018 0.019414 -0.94016
-0.013616 -0.043238 0.41 0.35353 0.01936 -0.93522
-0.013616 -0.042479 0.41 0.34544 0.019422 -0.93824
-0.013616 -0.041721 0.41 0.3067 0.019699 -0.9516
-0.013616 -0.040962 0.41 0.32996 0.019537 -0.94379
-0.013583 -0.040105 0.409 0.34437 0.019478 -0.93863
-0.013583 -0.039349 0.409 0.32791 0.0196 -0.94451
-0.013583 -0.038592 0.409 0.30267 0.014571 -0.95298
-0.013583 -0.037835 0.409 0.28931 0.014635 -0.95712
-0.01355 -0.036988 0.408 0.26463 0.020056 -0.96414
-0.01355 -0.036233 0.408 0.21947 0.029894 -0.97516
-0.01355 -0.035478 0.408 0.19478 0.036486 -0.98017
-0.01355 -0.034723 0.408 0.18426 0.052653 -0.98147
-0.01355 -0.033969 0.408 0.15578 0.069045 -0.98538
-0.01355 -0.033214 0.408 0.11411 0.084532 -0.98987
-0.01355 -0.032459 0.408 0.10435 0.094304 -0.99006
-0.01355 -0.031704 0.408 0.10311 0.10932 -0.98864
-0.013517 -0.030873 0.407 0.094571 0.12466 -0.98768
-0.013517 -0.03012 0.407 0.078219 0.13975 -0.98709
-0.013517 -0.029367 0.407 0.048909 0.14957 -0.98754
-0.013517 -0.028614 0.407 0.02065 0.15607 -0.98753
-0.013517 -0.027861 0.407 -0.020671 0.14972 -0.98851
-0.013517 -0.027108 0.407 -0.047914 0.13683 -0.98944
-0.013517 -0.026355 0.407 -0.076252 0.12058 -0.98977
-0.013517 -0.025602 0.407 -0.098032 0.10428 -0.9897
-0.013517 -0.024849 0.407 -0.10681 0.089122 -0.99028
-0.01355 -0.024155 0.408 -0.10776 0.073811 -0.99143
-0.01355 -0.023401 0.408 -0.1014 0.058714 -0.99311
-0.01355 -0.022646 0.408 -0.08741 0.043584 -0.99522
-0.01355 -0.021891 0.408 -0.065704 0.028393 -0.99744
-0.01355 -0.021136 0.408 -0.042771 0.018592 -0.99891
-0.01355 -0.020381 0.408 -0.019758 0.0065676 -0.99978
-0.01355 -0.019626 0.408 -0.016465 0.0087572 -0.99983
-0.01355 -0.018871 0.408 -0.031821 0.0087539 -0.99946
-0.01355 -0.018117 0.408 -0.074445 0.0098257 -0.99718
-0.01355 -0.017362 0.408 -0.11774 0.0097845 -0.993
-0.01355 -0.016607 0.408 -0.14873 0.0097435 -0.98883
-0.01355 -0.015852 0.408 -0.16775 0.0097134 -0.98578
-0.01355 -0.015097 0.408 -0.20625 0.0096412 -0.97845
-0.01355 -0.014342 0.408 -0.2518 0.0095356 -0.96773
-0.013583 -0.013621 0.409 -0.27385 0.0094532 -0.96173
-0.013583 -0.012864 0.409 -0.27483 0.0094505 -0.96145
-0.013583 -0.012107 0.409 -0.27383 0.016804 -0.96163
-0.013583 -0.011351 0.409 -0.2874 0.011506 -0.95774
-0.013616 -0.01062 0.41 -0.29251 0.0083344 -0.95622
-0.013616 -0.0098612 0.41 -0.30858 0.019686 -0.951
-0.013616 -0.0091027 0.41 -0.32895 0.029822 -0.94387
-0.013616 -0.0083441 0.41 -0.3453 0.034741 -0.93785
-0.013649 -0.0076041 0.411 -0.34793 0.049857 -0.93619
-0.013649 -0.0068437 0.411 -0.37613 0.049275 -0.92525
-0.013649 -0.0060833 0.411 -0.41702 0.063069 -0.90671
-0.013683 -0.0053358 0.412 -0.44877 0.061861 -0.8915
-0.013683 -0.0045735 0.412 -0.46155 0.069041 -0.88442
-0.013683 -0.0038113 0.412 -0.48255 0.061573 -0.8737
-0.013716 -0.0030564 0.413 -0.52272 0.065274 -0.85
-0.013716 -0.0022923 0.413 -0.53722 0.06458 -0.84096
-0.013749 -0.0015319 0.414 -0.52681 0.054 -0.84826
-0.013749 -0.00076596 0.414 -0.53494 0.044607 -0.84371
-0.013782 0 0.415 -0.52291 0.040324 -0.85143
-0.013782 0.00076781 0.415 -0.51848 0.02484 -0.85473
-0.013815 0.0015393 0.416 -0.50803 0.024962 -0.86098
-0.013815 0.002309 0.416 -0.50195 0.0065008 -0.86487
-0.013849 0.003086 0.417 -0.49826 0.0065012 -0.86701
-0.013849 0.0038575 0.417 -0.49473 -0.01024 -0.86899
-0.013882 0.0046401 0.418 -0.50764 -0.02117 -0.86131
-0.013882 0.0054135 0.418 -0.52085 -0.040095 -0.85271
-0.013882 0.0061869 0.418 -0.51745 -0.066553 -0.85312
-0.013915 0.0069769 0.419 -0.47694 -0.10145 -0.87306
-0.013915 0.0077521 0.419 -0.42506 -0.15682 -0.89148
-0.013948 0.0085476 0.42 -0.31969 -0.22883 -0.91948
-0.013948 0.0093247 0.42 -0.20653 -0.30101 -0.93099
-0.013982 0.010126 0.421 -0.047278 -0.37521 -0.92573
-0.013982 0.010905 0.421 0.10997 -0.42437 -0.89879
-0.013948 0.011656 0.42 0.24881 -0.46736 -0.84833
-0.013948 0.012433 0.42 0.35325 -0.48808 -0.79812
-0.013915 0.013179 0.419 0.40487 -0.50306 -0.76355
-0.013882 0.01392 0.418 0.43293 -0.50249 -0.74838
-0.013882 0.014694 0.418 0.42959 -0.52624 -0.73385
-0.013849 0.01543 0.417 0.3703 -0.50965 -0.77662
-0.013849 0.016202 0.417 0.34187 -0.53407 -0.77324
-0.013849 0.016973 0.417 0.30572 -0.54642 -0.77972
-0.013815 0.017702 0.416 0.24411 -0.55057 -0.7983
-0.013815 0.018472 0.416 0.1998 -0.55614 -0.80671
-0.013815 0.019241 0.416 0.13507 -0.55639 -0.81987
-0.013815 0.020011 0.416 0.058734 -0.54066 -0.83919
-0.013815 0.020781 0.416 -0.0073118 -0.52864 -0.84882
-0.013815 0.02155 0.416 -0.074256 -0.51927 -0.85138
-0.013815 0.02232 0.416 -0.1398 -0.5008 -0.8542
-0.013815 0.02309 0.416 -0.19706 -0.47936 -0.85521
-0.013849 0.023917 0.417 -0.26223 -0.46126 -0.84763
-0.013849 0.024688 0.417 -0.32471 -0.43739 -0.83861
-0.013849 0.02546 0.417 -0.38756 -0.40271 -0.82923
-0.013882 0.026294 0.418 -0.4702 -0.37638 -0.79828
-0.013882 0.027068 0.418 -0.51998 -0.34433 -0.7817
-0.013915 0.027907 0.419 -0.56754 -0.32569 -0.75619
-0.013915 0.028683 0.419 -0.56944 -0.30908 -0.76171
-0.013948 0.029528 0.42 -0.59853 -0.3028 -0.74167
-0.014585 -0.117 0.465 0.48368 0.30925 -0.81879
-0.014554 -0.11589 0.464 0.32579 0.33298 -0.88487
-0.014554 -0.11503 0.464 0.34091 0.3175 -0.88486
-0.014522 -0.11393 0.463 0.18151 0.40401 -0.89657
-0.014522 -0.11307 0.463 0.16435 0.4006 -0.90139
-0.014522 -0.11222 0.463 0.09572 0.39691 -0.91285
-0.014522 -0.11136 0.463 -0.015969 0.41985 -0.90745
-0.014522 -0.1105 0.463 -0.095416 0.43388 -0.8959
-0.014522 -0.10965 0.463 -0.1831 0.45879 -0.86947
-0.014522 -0.10879 0.463 -0.24103 0.47954 -0.84377
-0.014522 -0.10793 0.463 -0.28648 0.50341 -0.81517
-0.014554 -0.10731 0.464 -0.35559 0.42123 -0.83434
-0.014554 -0.10645 0.464 -0.37736 0.46273 -0.80217
-0.014585 -0.10582 0.465 -0.38807 0.38496 -0.83738
-0.014585 -0.10496 0.465 -0.38799 0.42714 -0.81671
-0.014585 -0.1041 0.465 -0.38631 0.45875 -0.80019
-0.014616 -0.10346 0.466 -0.34493 0.42552 -0.83663
-0.014616 -0.1026 0.466 -0.32994 0.45153 -0.82901
-0.014648 -0.10195 0.467 -0.25769 0.43397 -0.86329
-0.014648 -0.10109 0.467 -0.23494 0.44777 -0.86273
-0.014648 -0.10023 0.467 -0.19852 0.45385 -0.86868
-0.014648 -0.099362 0.467 -0.15412 0.45152 -0.87885
-0.014648 -0.098498 0.467 -0.11273 0.45114 -0.88531
-0.014648 -0.097634 0.467 -0.084523 0.44784 -0.89011
-0.014648 -0.09677 0.467 -0.059019 0.44866 -0.89175
-0.014648 -0.095906 0.467 -0.039534 0.44224 -0.89602
-0.014648 -0.095042 0.467 -0.03721 0.42975 -0.90218
-0.014648 -0.094178 0.467 -0.030406 0.42278 -0.90572
-0.014648 -0.093314 0.467 -0.029667 0.41419 -0.90971
-0.014648 -0.09245 0.467 -0.020946 0.41428 -0.90991
-0.014648 -0.091586 0.467 -0.011273 0.4272 -0.90409
-0.014679 -0.090916 0.468 0.014579 0.44385 -0.89598
-0.014679 -0.09005 0.468 0.055615 0.46322 -0.8845
-0.014679 -0.089184 0.468 0.062233 0.46555 -0.88283
-0.014679 -0.088318 0.468 0.041136 0.47276 -0.88023
-0.014648 -0.087265 0.467 0.20992 0.49135 -0.84529
-0.014648 -0.086401 0.467 0.21584 0.5074 -0.83424
-0.014616 -0.085354 0.466 0.4171 0.48356 -0.76954
-0.013142 -0.058916 0.419 0.63721 -0.079131 -0.76661
-0.013111 -0.058002 0.418 0.5734 -0.10766 -0.81217
-0.013111 -0.057228 0.418 0.64288 -0.027512 -0.76548
-0.013079 -0.05632 0.417 0.60833 -0.053851 -0.79186
-0.013048 -0.055415 0.416 0.56139 -0.085148 -0.82316
-0.013048 -0.054646 0.416 0.59103 -0.022792 -0.80633
-0.013017 -0.053747 0.415 0.5602 -0.033358 -0.82769
-0.013017 -0.052979 0.415 0.54247 -0.0074982 -0.84004
-0.012985 -0.052085 0.414 0.52756 -0.008249 -0.84947
-0.012985 -0.051319 0.414 0.50586 -0.0037229 -0.86261
-0.012954 -0.050431 0.413 0.47375 0.0047625 -0.88065
-0.012954 -0.049667 0.413 0.46253 0 -0.8866
-0.012954 -0.048903 0.413 0.44566 0 -0.8952
-0.012923 -0.048022 0.412 0.40962 0 -0.91226
-0.012923 -0.04726 0.412 0.40131 -0.0039722 -0.91593
-0.012923 -0.046498 0.412 0.39544 -0.0039833 -0.91848
-0.012891 -0.045624 0.411 0.38346 -0.013048 -0.92347
-0.012891 -0.044864 0.411 0.36345 -0.013161 -0.93152
-0.012891 -0.044104 0.411 0.34023 -0.010219 -0.94029
-0.012891 -0.043343 0.411 0.35284 -0.0010169 -0.93568
-0.01286 -0.042479 0.41 0.34551 -0.0010224 -0.93842
-0.01286 -0.041721 0.41 0.30676 -0.001037 -0.95179
-0.01286 -0.040962 0.41 0.33002 0.0010285 -0.94397
-0.012828 -0.040105 0.409 0.34444 0.0010253 -0.93881
-0.012828 -0.039349 0.409 0.32797 0.0010318 -0.94469
-0.012828 -0.038592 0.409 0.30271 0 -0.95308
-0.012828 -0.037835 0.409 0.28934 0 -0.95723
-0.012797 -0.036988 0.408 0.26468 0.0031674 -0.96433
-0.012797 -0.036233 0.408 0.21956 0.0096126 -0.97555
-0.012797 -0.035478 0.408 0.19488 0.017179 -0.98068
-0.012797 -0.034723 0.408 0.18445 0.026891 -0.98247
-0.012797 -0.033969 0.408 0.16129 0.042101 -0.98601
-0.012797 -0.033214 0.408 0.124 0.05532 -0.99074
-0.012797 -0.032459 0.408 0.11744 0.071573 -0.9905
-0.012766 -0.031626 0.407 0.11868 0.084692 -0.98931
-0.012766 -0.030873 0.407 0.1057 0.092366 -0.9901
-0.012766 -0.03012 0.407 0.085101 0.1001 -0.99133
-0.012766 -0.029367 0.407 0.05138 0.10357 -0.99329
-0.012766 -0.028614 0.407 0.018599 0.10692 -0.99409
-0.012766 -0.027861 0.407 -0.027362 0.1015 -0.99446
-0.012766 -0.027108 0.407 -0.059077 0.091643 -0.99404
-0.012766 -0.026355 0.407 -0.091748 0.081691 -0.99243
-0.012766 -0.025602 0.407 -0.11131 0.066385 -0.99157
-0.012766 -0.024849 0.407 -0.11679 0.053334 -0.99172
-0.012766 -0.024096 0.407 -0.11362 0.040312 -0.99271
-0.012766 -0.023343 0.407 -0.10178 0.027285 -0.99443
-0.012797 -0.022646 0.408 -0.087476 0.019628 -0.99597
-0.012797 -0.021891 0.408 -0.065725 0.012016 -0.99777
-0.012797 -0.021136 0.408 -0.042776 0.0087504 -0.99905
-0.012797 -0.020381 0.408 -0.019758 0.0021892 -0.9998
-0.012797 -0.019626 0.408 -0.016466 -0.0043787 -0.99985
-0.012797 -0.018871 0.408 -0.031821 -0.0087539 -0.99946
-0.012797 -0.018117 0.408 -0.074445 -0.0098257 -0.99718
-0.012797 -0.017362 0.408 -0.11774 -0.0097845 -0.993
-0.012797 -0.016607 0.408 -0.14873 -0.0097435 -0.98883
-0.012797 -0.015852 0.408 -0.17299 -0.015095 -0.98481
-0.012797 -0.015097 0.408 -0.21033 -0.020332 -0.97742
-0.012797 -0.014342 0.408 -0.25474 -0.020111 -0.9668
-0.012828 -0.013621 0.409 -0.27576 -0.019942 -0.96102
-0.012828 -0.012864 0.409 -0.27576 -0.019942 -0.96102
-0.012828 -0.012107 0.409 -0.26895 -0.014725 -0.96304
-0.012828 -0.011351 0.409 -0.28259 -0.0094284 -0.9592
-0.01286 -0.01062 0.41 -0.28773 -0.0062604 -0.95769
-0.01286 -0.0098612 0.41 -0.29919 0.0041583 -0.95419
-0.01286 -0.0091027 0.41 -0.32077 0.010319 -0.9471
-0.01286 -0.0083441 0.41 -0.33367 0.01027 -0.94263
-0.012891 -0.0076041 0.411 -0.33919 0.029635 -0.94025
-0.012891 -0.0068437 0.411 -0.37116 0.03429 -0.92794
-0.012891 -0.0060833 0.411 -0.41164 0.047479 -0.91011
-0.012891 -0.0053228 0.411 -0.44846 0.046565 -0.89259
-0.012923 -0.0045735 0.412 -0.46052 0.051881 -0.88613
-0.012923 -0.0038113 0.412 -0.48149 0.046497 -0.87522
-0.012954 -0.0030564 0.413 -0.52177 0.052493 -0.85147
-0.012954 -0.0022923 0.413 -0.54021 0.051782 -0.83993
-0.012985 -0.0015319 0.414 -0.52972 0.043869 -0.84704
-0.012985 -0.00076596 0.414 -0.54091 0.038076 -0.84022
-0.013017 0 0.415 -0.52826 0.038346 -0.84822
-0.013017 0.00076781 0.415 -0.52255 0.021101 -0.85235
-0.013048 0.0015393 0.416 -0.51423 0.021175 -0.85739
-0.013048 0.002309 0.416 -0.50612 -0.0009261 -0.86246
-0.013079 0.003086 0.417 -0.50384 -0.00092531 -0.8638
-0.013079 0.0038575 0.417 -0.49746 -0.020438 -0.86724
-0.013079 0.004629 0.417 -0.51519 -0.033027 -0.85644
-0.013111 0.0054135 0.418 -0.52961 -0.057879 -0.84626
-0.013111 0.0061869 0.418 -0.53393 -0.080948 -0.84164
-0.013142 0.0069769 0.419 -0.50407 -0.11677 -0.85573
-0.013173 0.0077706 0.42 -0.46433 -0.17098 -0.869
-0.013173 0.0085476 0.42 -0.37763 -0.2406 -0.89415
-0.013205 0.0093469 0.421 -0.2776 -0.3106 -0.9091
-0.013205 0.010126 0.421 -0.13088 -0.3906 -0.91121
-0.013205 0.010905 0.421 0.025678 -0.44764 -0.89384
-0.013205 0.011684 0.421 0.16228 -0.48692 -0.85824
-0.013205 0.012463 0.421 0.27534 -0.49886 -0.82178
-0.013173 0.01321 0.42 0.36593 -0.5336 -0.76247
-0.013142 0.013954 0.419 0.40631 -0.54649 -0.7323
-0.013142 0.014729 0.419 0.41398 -0.56239 -0.71578
-0.013111 0.015467 0.418 0.39207 -0.55845 -0.73104
-0.013079 0.016202 0.417 0.31151 -0.5278 -0.79018
-0.013079 0.016973 0.417 0.28703 -0.55065 -0.78383
-0.013079 0.017745 0.417 0.24895 -0.56675 -0.78538
-0.013079 0.018516 0.417 0.20504 -0.57095 -0.79496
-0.013079 0.019288 0.417 0.1476 -0.57106 -0.80753
-0.013079 0.020059 0.417 0.078038 -0.5589 -0.82555
-0.013048 0.020781 0.416 0.014446 -0.54472 -0.83849
-0.013048 0.02155 0.416 -0.057349 -0.53105 -0.8454
-0.013048 0.02232 0.416 -0.12435 -0.51333 -0.84913
-0.013079 0.023145 0.417 -0.18418 -0.49555 -0.84883
-0.013079 0.023917 0.417 -0.24923 -0.48086 -0.84063
-0.013079 0.024688 0.417 -0.30459 -0.45845 -0.8349
-0.013111 0.025521 0.418 -0.38295 -0.43602 -0.81439
-0.013111 0.026294 0.418 -0.4506 -0.40106 -0.79757
-0.013111 0.027068 0.418 -0.49888 -0.36282 -0.78707
-0.013142 0.027907 0.419 -0.54756 -0.34234 -0.76353
-0.013173 0.029528 0.42 -0.55894 -0.32313 -0.76366
-0.013727 -0.11786 0.465 0.49054 0.30207 -0.81739
-0.013727 -0.117 0.465 0.5387 0.24785 -0.80521
-0.013697 -0.11589 0.464 0.3927 0.29791 -0.87008
-0.013668 -0.11479 0.463 0.25517 0.40784 -0.87667
-0.013668 -0.11393 0.463 0.23988 0.37417 -0.8958
-0.013668 -0.11307 0.463 0.19363 0.35075 -0.91623
-0.013638 -0.11197 0.462 0.099444 0.53584 -0.83844
-0.013638 -0.11112 0.462 -0.011985 0.54949 -0.83541
-0.013638 -0.11026 0.462 -0.089309 0.55634 -0.82614
-0.013668 -0.10965 0.463 -0.19114 0.39453 -0.89878
-0.013668 -0.10879 0.463 -0.25355 0.42771 -0.86763
-0.013668 -0.10793 0.463 -0.29629 0.47076 -0.83102
-0.013697 -0.10731 0.464 -0.35698 0.34132 -0.86952
-0.013697 -0.10645 0.464 -0.37825 0.40732 -0.83127
-0.013697 -0.10559 0.464 -0.3886 0.45627 -0.80051
-0.013697 -0.10473 0.464 -0.39565 0.4951 -0.77352
-0.013727 -0.1041 0.465 -0.37278 0.42889 -0.82285
-0.013727 -0.10324 0.465 -0.36721 0.45999 -0.80843
-0.013756 -0.1026 0.466 -0.30548 0.4121 -0.8584
-0.013756 -0.10174 0.466 -0.27648 0.44047 -0.85413
-0.013756 -0.10087 0.466 -0.25489 0.44995 -0.85591
-0.013786 -0.10023 0.467 -0.18107 0.42748 -0.88571
-0.013786 -0.099362 0.467 -0.1471 0.42694 -0.89223
-0.013786 -0.098498 0.467 -0.11797 0.42703 -0.89651
-0.013786 -0.097634 0.467 -0.09589 0.42385 -0.90064
-0.013786 -0.09677 0.467 -0.072005 0.42045 -0.90445
-0.013786 -0.095906 0.467 -0.053308 0.40873 -0.9111
-0.013786 -0.095042 0.467 -0.050997 0.39633 -0.91669
-0.013786 -0.094178 0.467 -0.043264 0.3883 -0.92052
-0.013786 -0.093314 0.467 -0.040799 0.37855 -0.92468
-0.013786 -0.09245 0.467 -0.024822 0.38102 -0.92423
-0.013786 -0.091586 0.467 0.00088194 0.39314 -0.91948
-0.013786 -0.090722 0.467 0.041141 0.40678 -0.9126
-0.013786 -0.089858 0.467 0.10386 0.43399 -0.89491
-0.013786 -0.088994 0.467 0.14899 0.44048 -0.88532
-0.013786 -0.08813 0.467 0.1658 0.44902 -0.87801
-0.013786 -0.087265 0.467 0.16659 0.46063 -0.87182
-0.013756 -0.086216 0.466 0.37039 0.4732 -0.79931
-0.013756 -0.085354 0.466 0.33777 0.50625 -0.79349
-0.012487 -0.062609 0.423 0.77331 -0.11408 -0.62368
-0.012428 -0.060755 0.421 0.70939 -0.08143 -0.7001
-0.012399 -0.059833 0.42 0.6777 -0.113 -0.72661
-0.012369 -0.058916 0.419 0.62814 -0.13462 -0.76637
-0.012339 -0.058002 0.418 0.56972 -0.1694 -0.80419
-0.012339 -0.057228 0.418 0.63632 -0.088931 -0.76629
-0.01231 -0.05632 0.417 0.60524 -0.11175 -0.78816
-0.01228 -0.055415 0.416 0.5654 -0.14129 -0.81263
-0.01228 -0.054646 0.416 0.5892 -0.080245 -0.804
-0.012251 -0.053747 0.415 0.56075 -0.08881 -0.82321
-0.012251 -0.052979 0.415 0.54439 -0.061381 -0.83659
-0.012221 -0.052085 0.414 0.52665 -0.059473 -0.848
-0.012221 -0.051319 0.414 0.50156 -0.056817 -0.86325
-0.012192 -0.050431 0.413 0.47404 -0.043753 -0.87942
-0.012192 -0.049667 0.413 0.45897 -0.047977 -0.88716
-0.012192 -0.048903 0.413 0.44682 -0.041562 -0.89366
-0.012162 -0.048022 0.412 0.41098 -0.037528 -0.91087
-0.012162 -0.04726 0.412 0.40688 -0.035627 -0.91279
-0.012162 -0.046498 0.412 0.39603 -0.035813 -0.91754
-0.012133 -0.045624 0.411 0.38833 -0.039026 -0.92069
-0.012133 -0.044864 0.411 0.36766 -0.034341 -0.92933
-0.012133 -0.044104 0.411 0.34812 -0.037668 -0.93669
-0.012133 -0.043343 0.411 0.35895 -0.025351 -0.93301
-0.012103 -0.042479 0.41 0.34904 -0.020415 -0.93689
-0.012103 -0.041721 0.41 0.31232 -0.020695 -0.94975
-0.012103 -0.040962 0.41 0.33177 -0.022605 -0.94309
-0.012074 -0.040105 0.409 0.34249 -0.027693 -0.93911
-0.012074 -0.039349 0.409 0.32785 -0.027846 -0.94432
-0.012074 -0.038592 0.409 0.3045 -0.024959 -0.95218
-0.012074 -0.037835 0.409 0.28736 -0.019872 -0.95762
-0.012044 -0.036988 0.408 0.26365 -0.019006 -0.96443
-0.012044 -0.036233 0.408 0.21954 -0.01602 -0.97547
-0.012044 -0.035478 0.408 0.19593 -0.0075151 -0.98059
-0.012044 -0.034723 0.408 0.1866 -0.0043024 -0.98243
-0.012044 -0.033969 0.408 0.1646 0.0032397 -0.98636
-0.012015 -0.033132 0.407 0.12878 0.0076185 -0.99164
-0.012015 -0.032379 0.407 0.12338 0.023954 -0.99207
-0.012015 -0.031626 0.407 0.11904 0.033762 -0.99232
-0.012015 -0.030873 0.407 0.10609 0.033812 -0.99378
-0.012015 -0.03012 0.407 0.085481 0.033879 -0.99576
-0.012015 -0.029367 0.407 0.051634 0.030675 -0.99819
-0.012015 -0.028614 0.407 0.018698 0.030711 -0.99935
-0.012015 -0.027861 0.407 -0.027494 0.026322 -0.99928
-0.012015 -0.027108 0.407 -0.059315 0.019717 -0.99804
-0.012015 -0.026355 0.407 -0.092043 0.016391 -0.99562
-0.012015 -0.025602 0.407 -0.11155 0.0087251 -0.99372
-0.012015 -0.024849 0.407 -0.11695 0.0043599 -0.99313
-0.012015 -0.024096 0.407 -0.11372 0 -0.99351
-0.012015 -0.023343 0.407 -0.10182 -0.0043673 -0.99479
-0.012044 -0.022646 0.408 -0.087493 -0.0043625 -0.99616
-0.012044 -0.021891 0.408 -0.06573 -0.0043698 -0.99783
-0.012044 -0.021136 0.408 -0.042778 -0.0010938 -0.99908
-0.012044 -0.020381 0.408 -0.019758 -0.0021892 -0.9998
-0.012044 -0.019626 0.408 -0.021951 -0.010945 -0.9997
-0.012044 -0.018871 0.408 -0.036199 -0.01969 -0.99915
-0.012044 -0.018117 0.408 -0.077693 -0.022916 -0.99671
-0.012044 -0.017362 0.408 -0.11986 -0.02282 -0.99253
-0.012044 -0.016607 0.408 -0.15504 -0.02811 -0.98751
-0.012044 -0.015852 0.408 -0.1823 -0.03765 -0.98252
-0.012044 -0.015097 0.408 -0.21626 -0.048044 -0.97515
-0.012074 -0.014377 0.409 -0.25689 -0.047441 -0.96528
-0.012074 -0.013621 0.409 -0.2755 -0.047188 -0.96014
-0.012074 -0.012864 0.409 -0.27258 -0.047229 -0.96097
-0.012074 -0.012107 0.409 -0.26276 -0.050512 -0.96354
-0.012074 -0.011351 0.409 -0.27946 -0.04086 -0.95929
-0.012103 -0.01062 0.41 -0.28279 -0.031334 -0.95867
-0.012103 -0.0098612 0.41 -0.29241 -0.028119 -0.95588
-0.012103 -0.0091027 0.41 -0.31229 -0.025866 -0.94964
-0.012103 -0.0083441 0.41 -0.32903 -0.020572 -0.9441
-0.012133 -0.0076041 0.411 -0.33479 0.0010241 -0.94229
-0.012133 -0.0068437 0.411 -0.36785 0.011116 -0.92982
-0.012133 -0.0060833 0.411 -0.40537 0.022844 -0.91387
-0.012133 -0.0053228 0.411 -0.44415 0.02239 -0.89567
-0.012162 -0.0045735 0.412 -0.458 0.020235 -0.88872
-0.012162 -0.0038113 0.412 -0.48042 0.022814 -0.87674
-0.012192 -0.0030564 0.413 -0.52232 0.025813 -0.85236
-0.012192 -0.0022923 0.413 -0.54205 0.025438 -0.83996
-0.012221 -0.0015319 0.414 -0.53268 0.025557 -0.84593
-0.012221 -0.00076596 0.414 -0.54499 0.023512 -0.83811
-0.012251 0 0.415 -0.53375 0.023657 -0.84531
-0.01228 0.00076966 0.416 -0.52441 0.0054856 -0.85145
-0.01228 0.0015393 0.416 -0.51772 0.0055119 -0.85553
-0.01228 0.002309 0.416 -0.50603 -0.019444 -0.8623
-0.01231 0.003086 0.417 -0.50374 -0.019428 -0.86364
-0.01231 0.0038575 0.417 -0.50083 -0.030578 -0.86501
-0.012339 0.0046401 0.418 -0.5201 -0.043754 -0.85298
-0.012339 0.0054135 0.418 -0.5372 -0.062919 -0.84111
-0.012369 0.0062017 0.419 -0.54487 -0.085373 -0.83416
-0.012369 0.0069769 0.419 -0.52651 -0.11847 -0.84188
-0.012399 0.0077706 0.42 -0.49951 -0.16725 -0.85001
-0.012399 0.0085476 0.42 -0.42927 -0.23813 -0.87122
-0.012428 0.0093469 0.421 -0.34357 -0.30109 -0.88956
-0.012428 0.010126 0.421 -0.21497 -0.38397 -0.89797
-0.012428 0.010905 0.421 -0.06085 -0.44469 -0.89362
-0.012428 0.011684 0.421 0.09423 -0.50178 -0.85985
-0.012428 0.012463 0.421 0.22437 -0.52441 -0.82137
-0.012428 0.013241 0.421 0.30399 -0.54171 -0.78367
-0.012399 0.013987 0.42 0.3735 -0.56496 -0.73574
-0.012369 0.014729 0.419 0.3939 -0.57472 -0.71731
-0.012369 0.015504 0.419 0.38974 -0.58693 -0.70965
-0.012339 0.016241 0.418 0.34809 -0.56842 -0.74548
-0.012339 0.017014 0.418 0.32075 -0.58032 -0.74857
-0.01231 0.017745 0.417 0.22108 -0.55357 -0.80292
-0.01231 0.018516 0.417 0.19205 -0.57125 -0.79799
-0.01231 0.019288 0.417 0.14656 -0.57839 -0.80248
-0.01231 0.020059 0.417 0.081969 -0.57215 -0.81604
-0.01231 0.020831 0.417 0.023651 -0.55959 -0.82843
-0.01231 0.021602 0.417 -0.034945 -0.55043 -0.83415
-0.01231 0.022374 0.417 -0.10118 -0.53151 -0.84099
-0.01231 0.023145 0.417 -0.1673 -0.51312 -0.84185
-0.01231 0.023917 0.417 -0.22819 -0.49667 -0.8374
-0.012339 0.024747 0.418 -0.29523 -0.48483 -0.82328
-0.012339 0.025521 0.418 -0.3627 -0.45902 -0.81102
-0.012339 0.026294 0.418 -0.42534 -0.42004 -0.80166
-0.012339 0.027068 0.418 -0.46595 -0.36679 -0.80521
-0.012369 0.027907 0.419 -0.51858 -0.347 -0.78145
-0.012369 0.028683 0.419 -0.49961 -0.307 -0.81003
-0.012399 0.029528 0.42 -0.50992 -0.32037 -0.79834
-0.012869 -0.11786 0.465 0.53791 0.25085 -0.80482
-0.012841 -0.11675 0.464 0.41508 0.30017 -0.85884
-0.012814 -0.11564 0.463 0.30036 0.41831 -0.8572
-0.012814 -0.11479 0.463 0.30908 0.36547 -0.87801
-0.012786 -0.11368 0.462 0.21909 0.53388 -0.81668
-0.012786 -0.11283 0.462 0.1945 0.5117 -0.83686
-0.012786 -0.11197 0.462 0.1135 0.4971 -0.86024
-0.012786 -0.11112 0.462 -0.0022132 0.49806 -0.86714
-0.012786 -0.11026 0.462 -0.086363 0.50004 -0.86169
-0.012786 -0.10941 0.462 -0.16675 0.52322 -0.83572
-0.012786 -0.10856 0.462 -0.21231 0.54685 -0.80986
-0.012814 -0.10793 0.463 -0.29986 0.39097 -0.87019
-0.012814 -0.10708 0.463 -0.33391 0.44974 -0.8284
-0.012814 -0.10622 0.463 -0.36093 0.5053 -0.78384
-0.012841 -0.10559 0.464 -0.38259 0.38234 -0.8411
-0.012841 -0.10473 0.464 -0.38792 0.44312 -0.80818
-0.012841 -0.10387 0.464 -0.39837 0.48668 -0.77746
-0.012869 -0.10324 0.465 -0.34509 0.4158 -0.84144
-0.012897 -0.1026 0.466 -0.26005 0.34662 -0.90124
-0.012897 -0.10174 0.466 -0.24024 0.38764 -0.88996
-0.012897 -0.10087 0.466 -0.22784 0.40802 -0.88409
-0.012897 -0.10001 0.466 -0.19609 0.41837 -0.88686
-0.012897 -0.099149 0.466 -0.16053 0.41708 -0.89458
-0.012897 -0.098287 0.466 -0.13259 0.41115 -0.90187
-0.012897 -0.097425 0.466 -0.1129 0.40026 -0.90942
-0.012924 -0.09677 0.467 -0.095723 0.39059 -0.91557
-0.012924 -0.095906 0.467 -0.07961 0.37842 -0.9222
