-0.020103 -0.11004 0.454 -0.21969 0.76827 -0.60124
-0.020148 -0.10944 0.455 -0.16055 0.70587 -0.68991
-0.020148 -0.10859 0.455 -0.19531 0.70867 -0.67796
-0.020148 -0.10775 0.455 -0.21857 0.72598 -0.65206
-0.020192 -0.10715 0.456 -0.29035 0.62537 -0.7243
-0.020236 -0.10653 0.457 -0.3775 0.48762 -0.78722
-0.020236 -0.10569 0.457 -0.4095 0.5078 -0.75792
-0.02028 -0.10507 0.458 -0.46242 0.36467 -0.80819
-0.020325 -0.10445 0.459 -0.4999 0.22538 -0.83624
-0.020325 -0.1036 0.459 -0.52725 0.26299 -0.80799
-0.020369 -0.10298 0.46 -0.50197 0.12926 -0.85517
-0.020369 -0.10213 0.46 -0.51501 0.16816 -0.84053
-0.020413 -0.1015 0.461 -0.45233 0.067356 -0.8893
-0.020458 -0.10086 0.462 -0.37921 -0.0069295 -0.92529
-0.020458 -0.10001 0.462 -0.36355 0.021703 -0.93132
-0.020458 -0.099153 0.462 -0.32864 0.03585 -0.94377
-0.020458 -0.098298 0.462 -0.28883 0.024853 -0.95706
-0.020458 -0.097443 0.462 -0.2449 0.0057471 -0.96953
-0.020502 -0.096797 0.463 -0.20103 -0.015758 -0.97946
-0.020502 -0.095941 0.463 -0.19904 -0.024575 -0.97968
-0.020502 -0.095084 0.463 -0.18898 -0.02841 -0.98157
-0.020502 -0.094228 0.463 -0.17977 -0.032251 -0.98318
-0.020502 -0.093371 0.463 -0.16404 -0.035191 -0.98583
-0.020546 -0.092714 0.464 -0.14881 -0.038051 -0.98813
-0.020546 -0.091856 0.464 -0.11882 -0.024845 -0.9926
-0.020546 -0.090997 0.464 -0.067418 -0.011525 -0.99766
-0.020546 -0.090139 0.464 0.017373 0.010588 -0.99979
-0.020546 -0.08928 0.464 0.11211 0.046823 -0.99259
-0.020546 -0.088422 0.464 0.2159 0.088929 -0.97236
-0.020546 -0.087563 0.464 0.29311 0.11435 -0.94921
-0.020502 -0.086518 0.463 0.41231 0.16844 -0.89534
-0.020502 -0.085661 0.463 0.46323 0.16808 -0.87016
-0.020458 -0.084622 0.462 0.55158 0.19763 -0.81037
-0.020458 -0.083767 0.462 0.56657 0.19838 -0.79978
-0.020413 -0.082733 0.461 0.61093 0.23002 -0.75753
-0.020369 -0.081702 0.46 0.64749 0.24286 -0.72234
-0.020325 -0.080675 0.459 0.68288 0.25651 -0.68402
-0.02028 -0.079652 0.458 0.71604 0.25651 -0.64922
-0.020236 -0.078633 0.457 0.72395 0.23163 -0.6498
-0.018421 -0.055415 0.416 0.46602 0.29113 -0.83551
-0.018376 -0.054514 0.415 0.35342 0.31179 -0.88198
-0.018376 -0.053747 0.415 0.47702 0.28542 -0.83125
-0.018376 -0.052979 0.415 0.54222 0.27567 -0.79373
-0.018332 -0.052085 0.414 0.50251 0.28138 -0.8175
-0.018332 -0.051319 0.414 0.51817 0.27757 -0.80898
-0.018288 -0.050431 0.413 0.51524 0.27403 -0.81206
-0.018288 -0.049667 0.413 0.50938 0.27515 -0.81537
-0.018244 -0.048784 0.412 0.50494 0.26779 -0.82056
-0.018244 -0.048022 0.412 0.49105 0.26375 -0.83025
-0.018199 -0.047145 0.411 0.47923 0.25719 -0.83916
-0.018199 -0.046385 0.411 0.46096 0.25158 -0.85101
-0.018155 -0.045513 0.41 0.44641 0.24648 -0.86021
-0.018155 -0.044755 0.41 0.4186 0.25104 -0.87278
-0.018155 -0.043996 0.41 0.39581 0.24224 -0.88581
-0.018111 -0.043132 0.409 0.36605 0.23319 -0.9009
-0.018111 -0.042376 0.409 0.35283 0.22796 -0.90749
-0.018111 -0.041619 0.409 0.34102 0.22339 -0.91313
-0.018111 -0.040862 0.409 0.31712 0.22157 -0.92214
-0.018066 -0.040007 0.408 0.30451 0.21632 -0.92762
-0.018066 -0.039253 0.408 0.28465 0.20701 -0.93601
-0.018066 -0.038498 0.408 0.25903 0.20561 -0.94373
-0.018066 -0.037743 0.408 0.2354 0.21086 -0.94875
-0.018022 -0.036897 0.407 0.2183 0.20723 -0.95362
-0.018022 -0.036144 0.407 0.18622 0.20259 -0.96139
-0.018022 -0.035391 0.407 0.15733 0.20566 -0.96589
-0.018022 -0.034638 0.407 0.12261 0.21583 -0.9687
-0.018022 -0.033885 0.407 0.10791 0.21417 -0.97082
-0.018022 -0.033132 0.407 0.093159 0.21143 -0.97294
-0.018022 -0.032379 0.407 0.080418 0.21065 -0.97425
-0.018022 -0.031626 0.407 0.065342 0.22005 -0.9733
-0.018022 -0.030873 0.407 0.044943 0.22943 -0.97229
-0.018022 -0.03012 0.407 0.03207 0.2356 -0.97132
-0.018022 -0.029367 0.407 0.021376 0.23768 -0.97111
-0.018022 -0.028614 0.407 0.0085453 0.24074 -0.97055
-0.018022 -0.027108 0.407 -0.014922 0.24872 -0.96846
-0.018022 -0.026355 0.407 -0.028747 0.25163 -0.9674
-0.018022 -0.025602 0.407 -0.034046 0.25358 -0.96672
-0.018022 -0.024849 0.407 -0.051936 0.26425 -0.96306
-0.018022 -0.024096 0.407 -0.068824 0.26398 -0.96207
-0.018022 -0.023343 0.407 -0.088875 0.26061 -0.96134
-0.018022 -0.02259 0.407 -0.117 0.26279 -0.95773
-0.018022 -0.021837 0.407 -0.12941 0.26335 -0.95598
-0.018022 -0.021084 0.407 -0.14689 0.26368 -0.95336
-0.018022 -0.020331 0.407 -0.17207 0.26935 -0.94755
-0.018022 -0.019578 0.407 -0.19614 0.26907 -0.94294
-0.018066 -0.018871 0.408 -0.21157 0.26758 -0.94002
-0.018066 -0.018117 0.408 -0.21925 0.26997 -0.93758
-0.018066 -0.017362 0.408 -0.22254 0.27919 -0.93409
-0.018066 -0.016607 0.408 -0.22721 0.28169 -0.93222
-0.018066 -0.015852 0.408 -0.22758 0.29005 -0.92956
-0.018066 -0.015097 0.408 -0.2289 0.29827 -0.92663
-0.018111 -0.014377 0.409 -0.23977 0.29863 -0.92376
-0.018111 -0.013621 0.409 -0.23772 0.30061 -0.92365
-0.018111 -0.012864 0.409 -0.24211 0.30482 -0.92112
-0.018111 -0.012107 0.409 -0.25338 0.30482 -0.91809
-0.018111 -0.011351 0.409 -0.27651 0.30461 -0.91146
-0.018155 -0.01062 0.41 -0.30239 0.30941 -0.90157
-0.018155 -0.0098612 0.41 -0.32974 0.30645 -0.89295
-0.018155 -0.0091027 0.41 -0.35544 0.30341 -0.88408
-0.018199 -0.0083645 0.411 -0.3815 0.2977 -0.87512
-0.018199 -0.0076041 0.411 -0.40104 0.29924 -0.86581
-0.018199 -0.0068437 0.411 -0.41359 0.29741 -0.86052
-0.018244 -0.0060981 0.412 -0.43035 0.29505 -0.85308
-0.018244 -0.0053358 0.412 -0.43479 0.3001 -0.84906
-0.018288 -0.0045846 0.413 -0.43019 0.3059 -0.84933
-0.018288 -0.0038205 0.413 -0.43716 0.308 -0.845
-0.018288 -0.0030564 0.413 -0.43555 0.3139 -0.84366
-0.018332 -0.0022979 0.414 -0.44606 0.30984 -0.83966
-0.018332 -0.0015319 0.414 -0.4554 0.31295 -0.83347
-0.018332 -0.00076596 0.414 -0.47065 0.31171 -0.82542
-0.018376 0 0.415 -0.47791 0.31508 -0.81995
-0.018376 0.00076781 0.415 -0.4947 0.31552 -0.80976
-0.018421 0.0015393 0.416 -0.49951 0.31912 -0.80539
-0.018421 0.002309 0.416 -0.52065 0.32036 -0.79138
-0.018465 0.003086 0.417 -0.53102 0.31668 -0.78596
-0.018465 0.0038575 0.417 -0.53434 0.30179 -0.78956
-0.018509 0.0046401 0.418 -0.56464 0.31034 -0.76477
-0.018509 0.0054135 0.418 -0.56405 0.29403 -0.77162
-0.018554 0.0062017 0.419 -0.58291 0.31801 -0.74772
-0.018598 0.0069935 0.42 -0.59155 0.32833 -0.73639
-0.018642 0.0077891 0.421 -0.59761 0.331 -0.73028
-0.018642 0.008568 0.421 -0.58841 0.3421 -0.73262
-0.018686 0.0093691 0.422 -0.56915 0.36659 -0.73599
-0.018686 0.01015 0.422 -0.50576 0.40886 -0.75963
-0.018775 0.010982 0.424 -0.53072 0.40484 -0.74461
-0.018775 0.011767 0.424 -0.50393 0.45151 -0.73634
-0.018819 0.012581 0.425 -0.59584 0.40462 -0.69373
-0.018819 0.013367 0.425 -0.55422 0.44117 -0.70584
-0.018908 0.01422 0.427 -0.74747 0.22984 -0.62327
-0.019223 -0.11231 0.453 -0.070425 0.82378 -0.56252
-0.019223 -0.11147 0.453 -0.089818 0.82286 -0.5611
-0.019223 -0.11063 0.453 -0.13811 0.81951 -0.55618
-0.019223 -0.10979 0.453 -0.20028 0.81773 -0.53964
-0.019223 -0.10895 0.453 -0.21828 0.83426 -0.50632
-0.019266 -0.10836 0.454 -0.23597 0.74764 -0.62076
-0.019266 -0.10752 0.454 -0.24311 0.77271 -0.58637
-0.019308 -0.10691 0.455 -0.30739 0.68449 -0.66104
-0.019308 -0.10607 0.455 -0.33707 0.70134 -0.6281
-0.019351 -0.10546 0.456 -0.41883 0.60313 -0.67883
-0.019393 -0.10484 0.457 -0.47001 0.48083 -0.74019
-0.019435 -0.10423 0.458 -0.52003 0.35952 -0.77479
-0.019478 -0.1036 0.459 -0.54892 0.21591 -0.80751
-0.01952 -0.10298 0.46 -0.50932 0.074585 -0.85734
-0.01952 -0.10213 0.46 -0.52821 0.13066 -0.839
-0.019563 -0.1015 0.461 -0.45104 0.0192 -0.8923
-0.019563 -0.10064 0.461 -0.45198 0.061813 -0.88988
-0.019605 -0.10001 0.462 -0.35542 -0.019647 -0.9345
-0.019605 -0.099153 0.462 -0.33252 -0.0003267 -0.9431
-0.019605 -0.098298 0.462 -0.29808 -0.005177 -0.95453
-0.019605 -0.097443 0.462 -0.25806 -0.020565 -0.96591
-0.019648 -0.096797 0.463 -0.21219 -0.043092 -0.97628
-0.019648 -0.095941 0.463 -0.2125 -0.043324 -0.9762
-0.019648 -0.095084 0.463 -0.19798 -0.046287 -0.97911
-0.019648 -0.094228 0.463 -0.1843 -0.042631 -0.98195
-0.019648 -0.093371 0.463 -0.16402 -0.039939 -0.98565
-0.01969 -0.092714 0.464 -0.14413 -0.039979 -0.98875
-0.01969 -0.091856 0.464 -0.10461 -0.025842 -0.99418
-0.01969 -0.090997 0.464 -0.039548 -0.0096191 -0.99917
-0.01969 -0.090139 0.464 0.051093 0.01442 -0.99859
-0.01969 -0.08928 0.464 0.15246 0.050361 -0.98703
-0.01969 -0.088422 0.464 0.2572 0.093521 -0.96182
-0.01969 -0.087563 0.464 0.32395 0.10639 -0.94007
-0.019648 -0.086518 0.463 0.44592 0.15645 -0.88129
-0.019648 -0.085661 0.463 0.48972 0.14723 -0.85936
-0.019605 -0.084622 0.462 0.5726 0.17169 -0.80166
-0.019563 -0.083586 0.461 0.62418 0.18915 -0.75803
-0.01952 -0.082553 0.46 0.65931 0.20719 -0.72276
-0.019478 -0.081525 0.459 0.70751 0.21469 -0.67331
-0.019435 -0.0805 0.458 0.7509 0.20935 -0.62635
-0.019435 -0.079652 0.458 0.6853 0.22109 -0.69389
-0.019351 -0.078461 0.456 0.79816 0.20286 -0.56726
-0.017653 -0.055415 0.416 0.53378 0.25202 -0.8072
-0.017611 -0.054514 0.415 0.43747 0.26071 -0.86061
-0.017611 -0.053747 0.415 0.53211 0.25306 -0.80797
-0.017611 -0.052979 0.415 0.57209 0.25329 -0.7801
-0.017568 -0.052085 0.414 0.51716 0.26031 -0.81534
-0.017526 -0.051195 0.413 0.519 0.26142 -0.81382
-0.017526 -0.050431 0.413 0.51233 0.25944 -0.81867
-0.017526 -0.049667 0.413 0.50498 0.2567 -0.82407
-0.017483 -0.048784 0.412 0.49856 0.25263 -0.82923
-0.017483 -0.048022 0.412 0.48416 0.24414 -0.84023
-0.017441 -0.047145 0.411 0.47207 0.2363 -0.8493
-0.017441 -0.046385 0.411 0.45414 0.22925 -0.86093
-0.017399 -0.045513 0.41 0.44062 0.22443 -0.86919
-0.017399 -0.044755 0.41 0.41529 0.22293 -0.88195
-0.017399 -0.043996 0.41 0.39557 0.21039 -0.89401
-0.017356 -0.043132 0.409 0.36421 0.20442 -0.90861
-0.017356 -0.042376 0.409 0.35501 0.20045 -0.91312
-0.017356 -0.041619 0.409 0.3433 0.19276 -0.91923
-0.017314 -0.040762 0.408 0.31997 0.19003 -0.92817
-0.017314 -0.040007 0.408 0.30202 0.18235 -0.9357
-0.017314 -0.039253 0.408 0.27802 0.17277 -0.94491
-0.017314 -0.038498 0.408 0.25365 0.178 -0.95078
-0.017271 -0.03765 0.407 0.23237 0.18245 -0.95536
-0.017271 -0.036897 0.407 0.21649 0.18008 -0.95953
-0.017271 -0.036144 0.407 0.1861 0.17816 -0.96624
-0.017271 -0.035391 0.407 0.15899 0.18622 -0.96956
-0.017271 -0.034638 0.407 0.12638 0.19226 -0.97317
-0.017271 -0.033885 0.407 0.1138 0.18843 -0.97547
-0.017271 -0.033132 0.407 0.10108 0.18765 -0.97702
-0.017271 -0.032379 0.407 0.090399 0.18888 -0.97783
-0.017271 -0.031626 0.407 0.071021 0.19745 -0.97774
-0.017271 -0.030873 0.407 0.045165 0.20804 -0.97708
-0.017271 -0.03012 0.407 0.032262 0.2102 -0.97713
-0.017271 -0.029367 0.407 0.021519 0.20923 -0.97763
-0.017271 -0.028614 0.407 0.0086054 0.21132 -0.97738
-0.017271 -0.027108 0.407 -0.015034 0.21846 -0.97573
-0.017271 -0.026355 0.407 -0.028958 0.22247 -0.97451
-0.017271 -0.025602 0.407 -0.034265 0.22851 -0.97294
-0.017271 -0.024849 0.407 -0.046973 0.23847 -0.97001
-0.017271 -0.024096 0.407 -0.065105 0.23522 -0.96976
-0.017271 -0.023343 0.407 -0.086439 0.2288 -0.96963
-0.017271 -0.02259 0.407 -0.11594 0.22912 -0.96647
-0.017271 -0.021837 0.407 -0.12955 0.22873 -0.96483
-0.017271 -0.021084 0.407 -0.14816 0.23112 -0.96158
-0.017271 -0.020331 0.407 -0.16958 0.23528 -0.95702
-0.017271 -0.019578 0.407 -0.19603 0.23312 -0.95249
-0.017271 -0.018825 0.407 -0.21427 0.22827 -0.94972
-0.017271 -0.018072 0.407 -0.22416 0.22874 -0.94733
-0.017314 -0.017362 0.408 -0.22449 0.23113 -0.94667
-0.017314 -0.016607 0.408 -0.22142 0.23325 -0.94687
-0.017314 -0.015852 0.408 -0.21978 0.24502 -0.94428
-0.017314 -0.015097 0.408 -0.22517 0.25338 -0.9408
-0.017314 -0.014342 0.408 -0.24052 0.25625 -0.93621
-0.017356 -0.013621 0.409 -0.24155 0.26129 -0.93455
-0.017356 -0.012864 0.409 -0.2452 0.26388 -0.93287
-0.017356 -0.012107 0.409 -0.25061 0.2682 -0.93019
-0.017356 -0.011351 0.409 -0.27854 0.27072 -0.92148
-0.017399 -0.01062 0.41 -0.30449 0.27884 -0.91079
-0.017399 -0.0098612 0.41 -0.3325 0.28056 -0.90041
-0.017399 -0.0091027 0.41 -0.35476 0.27991 -0.89207
-0.017399 -0.0083441 0.41 -0.37796 0.2798 -0.88253
-0.017441 -0.0076041 0.411 -0.39406 0.27974 -0.87548
-0.017441 -0.0068437 0.411 -0.4081 0.28044 -0.8688
-0.017441 -0.0060833 0.411 -0.42775 0.28189 -0.85882
-0.017483 -0.0053358 0.412 -0.43522 0.281 -0.85535
-0.017483 -0.0045735 0.412 -0.43064 0.28754 -0.85549
-0.017526 -0.0038205 0.413 -0.43255 0.28911 -0.854
-0.017526 -0.0030564 0.413 -0.43549 0.29443 -0.85068
-0.017526 -0.0022923 0.413 -0.44389 0.29144 -0.84736
-0.017568 -0.0015319 0.414 -0.45457 0.2907 -0.84194
-0.017568 -0.00076596 0.414 -0.4674 0.29334 -0.83396
-0.017611 0 0.415 -0.47728 0.29413 -0.82807
-0.017611 0.00076781 0.415 -0.49244 0.29834 -0.81762
-0.017653 0.0015393 0.416 -0.49605 0.30623 -0.8125
-0.017653 0.002309 0.416 -0.51767 0.307 -0.79861
-0.017696 0.003086 0.417 -0.53113 0.30815 -0.78927
-0.017696 0.0038575 0.417 -0.543 0.29924 -0.78461
-0.017738 0.0046401 0.418 -0.56907 0.3009 -0.76526
-0.017738 0.0054135 0.418 -0.57733 0.29322 -0.76205
-0.01778 0.0062017 0.419 -0.58629 0.30993 -0.74847
-0.01778 0.0069769 0.419 -0.57853 0.31058 -0.75422
-0.017823 0.0077706 0.42 -0.59378 0.325 -0.73607
-0.017865 0.008568 0.421 -0.59357 0.33477 -0.73185
-0.017865 0.0093469 0.421 -0.55282 0.36383 -0.74968
-0.017908 0.01015 0.422 -0.49248 0.4249 -0.75956
-0.01795 0.010957 0.423 -0.49012 0.44056 -0.75212
-0.018035 0.014154 0.425 -0.53844 0.47106 -0.6987
-0.018035 0.01494 0.425 -0.43869 0.53586 -0.7214
-0.018347 -0.10955 0.452 -0.18826 0.81985 -0.54074
-0.018347 -0.10871 0.452 -0.21188 0.84204 -0.49606
-0.018387 -0.10812 0.453 -0.24049 0.77384 -0.58594
-0.018469 -0.10607 0.455 -0.40527 0.61822 -0.67346
-0.018469 -0.10523 0.455 -0.37929 0.67315 -0.63483
-0.018509 -0.10461 0.456 -0.45265 0.58357 -0.6742
-0.018631 -0.10275 0.459 -0.59272 0.1974 -0.78084
-0.018672 -0.10213 0.46 -0.53842 0.075583 -0.83928
-0.018712 -0.1015 0.461 -0.44602 -0.036169 -0.89429
-0.018712 -0.10064 0.461 -0.45862 0.021038 -0.88838
-0.018753 -0.10001 0.462 -0.34815 -0.067671 -0.935
-0.018753 -0.099153 0.462 -0.33766 -0.042551 -0.9403
-0.018753 -0.098298 0.462 -0.30917 -0.039225 -0.9502
-0.018753 -0.097443 0.462 -0.27296 -0.049285 -0.96076
-0.018793 -0.096797 0.463 -0.22411 -0.070881 -0.97198
-0.018793 -0.095941 0.463 -0.22119 -0.067581 -0.97289
-0.018793 -0.095084 0.463 -0.20224 -0.069741 -0.97685
-0.018793 -0.094228 0.463 -0.18415 -0.058689 -0.98114
-0.018834 -0.093573 0.464 -0.15896 -0.050309 -0.986
-0.018834 -0.092714 0.464 -0.13472 -0.047641 -0.98974
-0.018834 -0.091856 0.464 -0.085555 -0.033552 -0.99577
-0.018834 -0.090997 0.464 -0.017372 -0.016361 -0.99972
-0.018834 -0.090139 0.464 0.078912 0.0067178 -0.99686
-0.018834 -0.08928 0.464 0.18207 0.044445 -0.98228
-0.018834 -0.088422 0.464 0.28903 0.085369 -0.9535
-0.018793 -0.087375 0.463 0.39404 0.12043 -0.91117
-0.018793 -0.086518 0.463 0.4743 0.1267 -0.8712
-0.018753 -0.085476 0.462 0.55379 0.14127 -0.82059
-0.018753 -0.084622 0.462 0.58956 0.13922 -0.79563
-0.018712 -0.083586 0.461 0.64 0.15938 -0.75166
-0.018672 -0.082553 0.46 0.66625 0.1756 -0.72476
-0.018631 -0.081525 0.459 0.70346 0.18208 -0.68702
-0.01859 -0.0805 0.458 0.7382 0.18876 -0.64763
-0.01859 -0.079652 0.458 0.65531 0.19265 -0.73038
-0.01855 -0.078633 0.457 0.66229 0.1791 -0.72752
-0.016886 -0.055415 0.416 0.58341 0.22606 -0.78008
-0.016845 -0.054514 0.415 0.49512 0.22973 -0.8379
-0.016845 -0.053747 0.415 0.57103 0.23236 -0.78735
-0.016804 -0.052851 0.414 0.52388 0.23117 -0.81982
-0.016804 -0.052085 0.414 0.53223 0.24701 -0.80976
-0.016764 -0.051195 0.413 0.52041 0.25154 -0.81603
-0.016764 -0.050431 0.413 0.51077 0.24755 -0.82331
-0.016723 -0.049547 0.412 0.50808 0.24528 -0.82565
-0.016723 -0.048784 0.412 0.4975 0.24038 -0.83349
-0.016683 -0.047906 0.411 0.48488 0.22846 -0.84421
-0.016683 -0.047145 0.411 0.46525 0.2208 -0.8572
-0.016642 -0.046272 0.41 0.45 0.21351 -0.86713
-0.016642 -0.045513 0.41 0.43418 0.20454 -0.87729
-0.016642 -0.044755 0.41 0.41203 0.19769 -0.88947
-0.016601 -0.043889 0.409 0.3878 0.1835 -0.90329
-0.016601 -0.043132 0.409 0.36025 0.17512 -0.91627
-0.016601 -0.042376 0.409 0.35196 0.16795 -0.92082
-0.016561 -0.041517 0.408 0.33695 0.16344 -0.92723
-0.016561 -0.040762 0.408 0.31529 0.15977 -0.93545
-0.016561 -0.040007 0.408 0.29615 0.15076 -0.94317
-0.016561 -0.039253 0.408 0.27634 0.14662 -0.94981
-0.016561 -0.038498 0.408 0.25082 0.1528 -0.9559
-0.01652 -0.03765 0.407 0.23345 0.1559 -0.95979
-0.01652 -0.036897 0.407 0.22145 0.15532 -0.96272
-0.01652 -0.036144 0.407 0.19502 0.15622 -0.96828
-0.01652 -0.035391 0.407 0.1659 0.16331 -0.97253
-0.01652 -0.034638 0.407 0.13653 0.1651 -0.97678
-0.01652 -0.033885 0.407 0.12171 0.16542 -0.97868
-0.01652 -0.033132 0.407 0.10146 0.16684 -0.98075
-0.01652 -0.032379 0.407 0.083209 0.17027 -0.98188
-0.01652 -0.031626 0.407 0.061623 0.17681 -0.98231
-0.01652 -0.030873 0.407 0.038927 0.18223 -0.98248
-0.01648 -0.030046 0.406 0.029286 0.18064 -0.98311
-0.01652 -0.029367 0.407 0.021662 0.17606 -0.98414
-0.01648 -0.028544 0.406 0.011942 0.17756 -0.98404
-0.01648 -0.027793 0.406 0.0065131 0.17862 -0.9839
-0.01652 -0.027108 0.407 -0.0054094 0.18341 -0.98302
-0.01648 -0.02629 0.406 -0.016249 0.18904 -0.98183
-0.01648 -0.025539 0.406 -0.02489 0.19317 -0.98085
-0.01652 -0.024849 0.407 -0.042009 0.20087 -0.97872
-0.01648 -0.024037 0.406 -0.071233 0.19481 -0.97825
-0.01652 -0.023343 0.407 -0.096758 0.19084 -0.97684
-0.01652 -0.02259 0.407 -0.12435 0.18922 -0.97403
-0.01652 -0.021837 0.407 -0.13596 0.1879 -0.97273
-0.01652 -0.021084 0.407 -0.15256 0.19256 -0.96935
-0.01652 -0.020331 0.407 -0.17198 0.20008 -0.96457
-0.01652 -0.019578 0.407 -0.19665 0.19611 -0.96066
-0.01652 -0.018825 0.407 -0.21318 0.18733 -0.95889
-0.01652 -0.018072 0.407 -0.22126 0.18597 -0.95732
-0.016561 -0.017362 0.408 -0.21972 0.18661 -0.95755
-0.016561 -0.016607 0.408 -0.21466 0.18783 -0.95846
-0.016561 -0.015852 0.408 -0.21705 0.20181 -0.95507
-0.016561 -0.015097 0.408 -0.22265 0.20953 -0.95212
-0.016561 -0.014342 0.408 -0.23912 0.21461 -0.94697
-0.016561 -0.013587 0.408 -0.24151 0.2243 -0.94412
-0.016601 -0.012864 0.409 -0.2455 0.22939 -0.94186
-0.016601 -0.012107 0.409 -0.24726 0.2322 -0.94072
-0.016601 -0.011351 0.409 -0.2773 0.2379 -0.93087
-0.016601 -0.010594 0.409 -0.30138 0.24928 -0.92034
-0.016642 -0.0098612 0.41 -0.32709 0.2548 -0.90999
-0.016642 -0.0091027 0.41 -0.35298 0.25591 -0.89995
-0.016642 -0.0083441 0.41 -0.3757 0.25527 -0.89089
-0.016642 -0.0075856 0.41 -0.39247 0.25868 -0.88264
-0.016683 -0.0068437 0.411 -0.40564 0.26175 -0.87575
-0.016683 -0.0060833 0.411 -0.42522 0.26608 -0.86509
-0.016723 -0.0053358 0.412 -0.43743 0.26378 -0.8597
-0.016723 -0.0045735 0.412 -0.43429 0.26508 -0.86089
-0.016723 -0.0038113 0.412 -0.43353 0.27114 -0.85938
-0.016764 -0.0030564 0.413 -0.43738 0.27503 -0.85619
-0.016764 -0.0022923 0.413 -0.44302 0.2767 -0.85275
-0.016764 -0.0015282 0.413 -0.45283 0.27352 -0.84861
-0.016804 -0.00076596 0.414 -0.46686 0.27807 -0.83948
-0.016804 0 0.414 -0.4766 0.27724 -0.83426
-0.016845 0.00076781 0.415 -0.49007 0.2799 -0.82552
-0.016845 0.0015356 0.415 -0.49422 0.28705 -0.82058
-0.016886 0.002309 0.416 -0.51246 0.28681 -0.8094
-0.016886 0.0030786 0.416 -0.53106 0.28832 -0.79677
-0.016926 0.0038575 0.417 -0.54297 0.28987 -0.78814
-0.016926 0.004629 0.417 -0.55945 0.2745 -0.78209
-0.016967 0.0054135 0.418 -0.5793 0.2827 -0.76452
-0.017007 0.0062017 0.419 -0.58575 0.29429 -0.75518
-0.017007 0.0069769 0.419 -0.58143 0.30376 -0.75476
-0.017048 0.0077706 0.42 -0.59206 0.3183 -0.74037
-0.017089 0.008568 0.421 -0.58375 0.34132 -0.73671
-0.017089 0.0093469 0.421 -0.53872 0.38404 -0.74986
-0.017129 0.01015 0.422 -0.47805 0.43303 -0.76417
-0.017129 0.010931 0.422 -0.40349 0.47455 -0.7823
-0.01717 0.011739 0.423 -0.43067 0.47256 -0.76891
-0.01721 0.012551 0.424 -0.54337 0.40251 -0.73671
-0.01721 0.013336 0.424 -0.48833 0.46609 -0.73776
-0.01721 0.01412 0.424 -0.41197 0.5345 -0.73797
-0.01717 0.01487 0.423 -0.080227 0.66046 -0.74656
-0.017129 0.015615 0.422 0.19256 0.66609 -0.72058
-0.017862 -0.10064 0.461 -0.46598 -0.0078788 -0.88476
-0.0179 -0.10001 0.462 -0.34298 -0.10817 -0.93309
-0.0179 -0.099153 0.462 -0.34241 -0.076056 -0.93647
-0.0179 -0.098298 0.462 -0.32353 -0.067638 -0.9438
-0.017939 -0.097654 0.463 -0.22904 -0.12229 -0.96571
-0.017939 -0.096797 0.463 -0.2334 -0.11117 -0.96601
-0.017939 -0.095941 0.463 -0.22991 -0.1076 -0.96724
-0.017939 -0.095084 0.463 -0.20958 -0.11153 -0.97141
-0.017939 -0.094228 0.463 -0.18812 -0.098987 -0.97714
-0.017978 -0.093573 0.464 -0.15488 -0.085278 -0.98425
-0.017978 -0.092714 0.464 -0.12224 -0.079999 -0.98927
-0.017978 -0.091856 0.464 -0.065377 -0.06232 -0.99591
-0.017978 -0.090997 0.464 0.0086788 -0.046159 -0.9989
-0.017978 -0.090139 0.464 0.10842 -0.02105 -0.99388
-0.017978 -0.08928 0.464 0.21673 0.015975 -0.9761
-0.017978 -0.088422 0.464 0.32368 0.056374 -0.94448
-0.017939 -0.087375 0.463 0.4279 0.093669 -0.89896
-0.017939 -0.086518 0.463 0.49782 0.095721 -0.86198
-0.0179 -0.085476 0.462 0.57366 0.11535 -0.81093
-0.0179 -0.084622 0.462 0.59981 0.10954 -0.79261
-0.017862 -0.083586 0.461 0.64998 0.13414 -0.74802
-0.017823 -0.082553 0.46 0.66898 0.14725 -0.72854
-0.017784 -0.081525 0.459 0.69793 0.15224 -0.6998
-0.017745 -0.0805 0.458 0.7235 0.16262 -0.67089
-0.017707 -0.079478 0.457 0.73879 0.15691 -0.65542
-0.017668 -0.078461 0.456 0.75189 0.15601 -0.64056
-0.016079 -0.055282 0.415 0.43564 0.18657 -0.88057
-0.016079 -0.054514 0.415 0.53996 0.20109 -0.81731
-0.016041 -0.053617 0.414 0.4842 0.19589 -0.85275
-0.016041 -0.052851 0.414 0.54507 0.20943 -0.81181
-0.016002 -0.051959 0.413 0.51736 0.2172 -0.82774
-0.016002 -0.051195 0.413 0.5247 0.22881 -0.81996
-0.015963 -0.050309 0.412 0.51419 0.22271 -0.82826
-0.015963 -0.049547 0.412 0.50849 0.22106 -0.83221
-0.015924 -0.048666 0.411 0.49663 0.21565 -0.84074
-0.015924 -0.047906 0.411 0.48111 0.20562 -0.8522
-0.015924 -0.047145 0.411 0.4565 0.19887 -0.86721
-0.015886 -0.046272 0.41 0.4453 0.19154 -0.87465
-0.015886 -0.045513 0.41 0.42583 0.18434 -0.88583
-0.015886 -0.044755 0.41 0.40096 0.17346 -0.89952
-0.015847 -0.043889 0.409 0.3743 0.15769 -0.9138
-0.015847 -0.043132 0.409 0.35485 0.1482 -0.9231
-0.015847 -0.042376 0.409 0.34622 0.14378 -0.92707
-0.015808 -0.041517 0.408 0.3317 0.14293 -0.93249
-0.015808 -0.040762 0.408 0.31184 0.13489 -0.94051
-0.015808 -0.040007 0.408 0.29531 0.12547 -0.94713
-0.015808 -0.039253 0.408 0.27827 0.12101 -0.95285
-0.015769 -0.038403 0.407 0.25527 0.12728 -0.95845
-0.015769 -0.03765 0.407 0.24435 0.12869 -0.96111
-0.015769 -0.036897 0.407 0.2283 0.13025 -0.96484
-0.015769 -0.036144 0.407 0.19771 0.13428 -0.97102
-0.015769 -0.035391 0.407 0.16428 0.14562 -0.97561
-0.015769 -0.034638 0.407 0.13687 0.14939 -0.97926
-0.015769 -0.033885 0.407 0.11885 0.14869 -0.98172
-0.015769 -0.033132 0.407 0.095276 0.15224 -0.98374
-0.015769 -0.032379 0.407 0.073695 0.15779 -0.98472
-0.015731 -0.031549 0.406 0.048883 0.16791 -0.98459
-0.015731 -0.030797 0.406 0.029319 0.17435 -0.98425
-0.015731 -0.030046 0.406 0.023893 0.17437 -0.98439
-0.015731 -0.029295 0.406 0.021726 0.17333 -0.98462
-0.015731 -0.028544 0.406 0.011952 0.17336 -0.98479
-0.015731 -0.027793 0.406 0.0065205 0.17232 -0.98502
-0.015731 -0.02629 0.406 -0.0065205 0.17232 -0.98502
-0.015731 -0.025539 0.406 -0.011952 0.17336 -0.98479
-0.015731 -0.024788 0.406 -0.027129 0.17855 -0.98356
-0.015731 -0.024037 0.406 -0.05532 0.17415 -0.98316
-0.015731 -0.023286 0.406 -0.086664 0.16853 -0.98188
-0.015731 -0.022535 0.406 -0.11989 0.1648 -0.97901
-0.015769 -0.021837 0.407 -0.1366 0.16196 -0.9773
-0.015769 -0.021084 0.407 -0.1534 0.1626 -0.97469
-0.015769 -0.020331 0.407 -0.17409 0.16722 -0.97043
-0.015769 -0.019578 0.407 -0.20081 0.16635 -0.9654
-0.015769 -0.018825 0.407 -0.21928 0.15952 -0.96253
-0.015769 -0.018072 0.407 -0.22342 0.15628 -0.96211
-0.015769 -0.017319 0.407 -0.21842 0.15543 -0.9634
-0.015808 -0.016607 0.408 -0.20883 0.15539 -0.96553
-0.015808 -0.015852 0.408 -0.20746 0.16572 -0.9641
-0.015808 -0.015097 0.408 -0.21512 0.17666 -0.96048
-0.015808 -0.014342 0.408 -0.235 0.17786 -0.95558
-0.015808 -0.013587 0.408 -0.24156 0.18562 -0.95247
-0.015808 -0.012833 0.408 -0.24505 0.19446 -0.94981
-0.015847 -0.012107 0.409 -0.24519 0.19996 -0.94863
-0.015847 -0.011351 0.409 -0.27004 0.20351 -0.9411
-0.015847 -0.010594 0.409 -0.30017 0.21613 -0.92908
-0.015847 -0.0098372 0.409 -0.32309 0.22584 -0.91903
-0.015886 -0.0091027 0.41 -0.3503 0.2286 -0.90831
-0.015886 -0.0083441 0.41 -0.37466 0.2318 -0.89772
-0.015886 -0.0075856 0.41 -0.38897 0.23759 -0.89008
-0.015924 -0.0068437 0.411 -0.40496 0.23885 -0.88259
-0.015924 -0.0060833 0.411 -0.42302 0.24552 -0.87222
-0.015924 -0.0053228 0.411 -0.4393 0.24255 -0.86498
-0.015963 -0.0045735 0.412 -0.4385 0.2421 -0.86551
-0.015963 -0.0038113 0.412 -0.43724 0.24662 -0.86487
-0.016002 -0.0030564 0.413 -0.44048 0.24994 -0.86227
-0.016002 -0.0022923 0.413 -0.44553 0.25096 -0.85937
-0.016002 -0.0015282 0.413 -0.45442 0.2497 -0.85507
-0.016002 -0.00076411 0.413 -0.46848 0.25691 -0.84529
-0.016041 0 0.414 -0.47726 0.25746 -0.8402
-0.016079 0.00076781 0.415 -0.48768 0.25932 -0.83362
-0.016079 0.0015356 0.415 -0.49242 0.26826 -0.82798
-0.016118 0.002309 0.416 -0.50795 0.27127 -0.81756
-0.016118 0.0030786 0.416 -0.52441 0.27747 -0.80499
-0.016118 0.0038483 0.416 -0.53892 0.28362 -0.79318
-0.016157 0.004629 0.417 -0.55758 0.274 -0.7836
-0.016157 0.0054006 0.417 -0.56459 0.26548 -0.78151
-0.016196 0.0061869 0.418 -0.57462 0.28026 -0.76894
-0.016234 0.0069769 0.419 -0.57997 0.30186 -0.75664
-0.016273 0.0077706 0.42 -0.58232 0.3198 -0.74742
-0.016273 0.0085476 0.42 -0.55047 0.35557 -0.75535
-0.016312 0.0093469 0.421 -0.50906 0.41028 -0.75666
-0.016312 0.010126 0.421 -0.37971 0.48753 -0.78622
-0.016351 0.010931 0.422 -0.40957 0.46104 -0.78721
-0.016389 0.011739 0.423 -0.45942 0.42193 -0.78161
-0.016389 0.012522 0.423 -0.42313 0.46826 -0.77569
-0.016389 0.013304 0.423 -0.35646 0.52811 -0.77074
-0.016351 0.014054 0.422 -0.034941 0.6218 -0.7824
-0.016312 0.014799 0.421 0.23964 0.66869 -0.70386
-0.016273 0.015541 0.42 0.42165 0.66636 -0.61496
-0.017011 -0.099791 0.461 -0.49709 -0.0035112 -0.86769
-0.017048 -0.099153 0.462 -0.35353 -0.10337 -0.9297
-0.017085 -0.098511 0.463 -0.22605 -0.17946 -0.95744
-0.017085 -0.097654 0.463 -0.23835 -0.15309 -0.95904
-0.017085 -0.096797 0.463 -0.24894 -0.13997 -0.95835
-0.017085 -0.095941 0.463 -0.23915 -0.13674 -0.96131
-0.017085 -0.095084 0.463 -0.21412 -0.14173 -0.96647
-0.017122 -0.094431 0.464 -0.1897 -0.13298 -0.97279
-0.017122 -0.093573 0.464 -0.1497 -0.11999 -0.98142
-0.017122 -0.092714 0.464 -0.11064 -0.10748 -0.98803
-0.017122 -0.091856 0.464 -0.043232 -0.088141 -0.99517
-0.017122 -0.090997 0.464 0.044255 -0.070036 -0.99656
-0.017122 -0.090139 0.464 0.15346 -0.039922 -0.98735
-0.017122 -0.08928 0.464 0.26527 0.0027846 -0.96417
-0.017122 -0.088422 0.464 0.36536 0.042969 -0.92988
-0.017085 -0.087375 0.463 0.46314 0.073284 -0.88325
-0.017085 -0.086518 0.463 0.51935 0.074764 -0.85128
-0.017048 -0.085476 0.462 0.58973 0.10122 -0.80123
-0.017011 -0.084438 0.461 0.63629 0.11819 -0.76234
-0.017011 -0.083586 0.461 0.64968 0.12028 -0.75064
-0.016937 -0.082374 0.459 0.70002 0.13403 -0.70143
-0.016937 -0.081525 0.459 0.68141 0.13506 -0.71933
-0.0169 -0.0805 0.458 0.70093 0.14024 -0.69931
-0.016863 -0.079478 0.457 0.71773 0.13448 -0.68322
-0.015314 -0.055282 0.415 0.48244 0.15497 -0.86211
-0.015314 -0.054514 0.415 0.57171 0.17276 -0.80206
-0.015277 -0.053617 0.414 0.51641 0.1676 -0.83978
-0.015277 -0.052851 0.414 0.56019 0.18322 -0.80785
-0.01524 -0.051959 0.413 0.53047 0.18861 -0.82646
-0.01524 -0.051195 0.413 0.52811 0.19995 -0.8253
-0.015203 -0.050309 0.412 0.51387 0.19647 -0.83507
-0.015203 -0.049547 0.412 0.50868 0.19545 -0.83848
-0.015166 -0.048666 0.411 0.4934 0.19442 -0.84779
-0.015166 -0.047906 0.411 0.47545 0.18329 -0.86044
-0.015129 -0.047031 0.41 0.45288 0.18255 -0.87268
-0.015129 -0.046272 0.41 0.43891 0.17661 -0.881
-0.015129 -0.045513 0.41 0.41807 0.17201 -0.89198
-0.015092 -0.044646 0.409 0.39371 0.15823 -0.90551
-0.015092 -0.043889 0.409 0.36658 0.14161 -0.91955
-0.015092 -0.043132 0.409 0.34855 0.13275 -0.92784
-0.015092 -0.042376 0.409 0.34232 0.13208 -0.93025
-0.015055 -0.041517 0.408 0.32589 0.1302 -0.9364
-0.015055 -0.040762 0.408 0.30968 0.11878 -0.94339
-0.015055 -0.040007 0.408 0.29684 0.10906 -0.94868
-0.015055 -0.039253 0.408 0.27767 0.10971 -0.95439
-0.015018 -0.038403 0.407 0.25859 0.11578 -0.95902
-0.015018 -0.03765 0.407 0.24672 0.11615 -0.9621
-0.015018 -0.036897 0.407 0.22961 0.11979 -0.96588
-0.015018 -0.036144 0.407 0.1979 0.12694 -0.97197
-0.015018 -0.035391 0.407 0.16331 0.1425 -0.97623
-0.015018 -0.034638 0.407 0.13489 0.14312 -0.98047
-0.014982 -0.033802 0.406 0.11605 0.14169 -0.98308
-0.014982 -0.033051 0.406 0.091273 0.14737 -0.98486
-0.014982 -0.0323 0.406 0.068501 0.15506 -0.98553
-0.014982 -0.031549 0.406 0.048927 0.16264 -0.98547
-0.014982 -0.030797 0.406 0.029368 0.16487 -0.98588
-0.014982 -0.030046 0.406 0.023946 0.16173 -0.98654
-0.014982 -0.029295 0.406 0.021781 0.15856 -0.98711
-0.014982 -0.028544 0.406 0.011984 0.15753 -0.98744
-0.014982 -0.027793 0.406 0.0065402 0.15436 -0.98799
-0.014982 -0.02629 0.406 -0.0065402 0.15436 -0.98799
-0.014982 -0.025539 0.406 -0.011984 0.15753 -0.98744
-0.014982 -0.024788 0.406 -0.021781 0.15856 -0.98711
-0.014982 -0.024037 0.406 -0.045727 0.15526 -0.98681
-0.014982 -0.023286 0.406 -0.073934 0.15288 -0.98548
-0.014982 -0.022535 0.406 -0.11061 0.14708 -0.98292
-0.014982 -0.021784 0.406 -0.13095 0.14354 -0.98094
-0.014982 -0.021032 0.406 -0.15103 0.14523 -0.9778
-0.015018 -0.020331 0.407 -0.1695 0.14549 -0.97473
-0.015018 -0.019578 0.407 -0.1953 0.14687 -0.96968
-0.015018 -0.018825 0.407 -0.2138 0.14214 -0.96648
-0.015018 -0.018072 0.407 -0.22408 0.13662 -0.96495
-0.015018 -0.017319 0.407 -0.22519 0.13347 -0.96513
-0.015018 -0.016566 0.407 -0.21103 0.13286 -0.96841
-0.015055 -0.015852 0.408 -0.20426 0.13898 -0.969
-0.015055 -0.015097 0.408 -0.20706 0.14719 -0.96719
-0.015055 -0.014342 0.408 -0.23314 0.14939 -0.9609
-0.015055 -0.013587 0.408 -0.24091 0.15422 -0.95822
-0.015055 -0.012833 0.408 -0.2466 0.16011 -0.9558
-0.015055 -0.012078 0.408 -0.24425 0.16935 -0.95481
-0.015092 -0.011351 0.409 -0.26579 0.17498 -0.94802
-0.015092 -0.010594 0.409 -0.29384 0.1834 -0.9381
-0.015092 -0.0098372 0.409 -0.31984 0.19542 -0.9271
-0.015092 -0.0090805 0.409 -0.35193 0.19497 -0.9155
-0.015129 -0.0083441 0.41 -0.37467 0.2021 -0.90486
-0.015129 -0.0075856 0.41 -0.38411 0.20964 -0.89917
-0.015129 -0.006827 0.41 -0.40132 0.20982 -0.89158
-0.015166 -0.0060833 0.411 -0.42365 0.21697 -0.87946
-0.015166 -0.0053228 0.411 -0.4409 0.21321 -0.87187
-0.015203 -0.0045735 0.412 -0.44094 0.21182 -0.87218
-0.015203 -0.0038113 0.412 -0.43693 0.21407 -0.87365
-0.015203 -0.003049 0.412 -0.44314 0.21246 -0.87091
-0.01524 -0.0022923 0.413 -0.44859 0.21664 -0.86709
-0.01524 -0.0015282 0.413 -0.45928 0.21268 -0.86245
-0.01524 -0.00076411 0.413 -0.47128 0.2216 -0.85369
-0.015277 0 0.414 -0.47863 0.22354 -0.84908
-0.015277 0.00076596 0.414 -0.48537 0.22515 -0.84482
-0.015314 0.0015356 0.415 -0.48877 0.23512 -0.84013
-0.015314 0.0023034 0.415 -0.50587 0.23661 -0.82952
-0.015351 0.0030786 0.416 -0.52164 0.25046 -0.81557
-0.015351 0.0038483 0.416 -0.53719 0.26096 -0.80208
-0.015387 0.004629 0.417 -0.55617 0.25657 -0.79047
-0.015387 0.0054006 0.417 -0.56807 0.25675 -0.7819
-0.015424 0.0061869 0.418 -0.57431 0.26861 -0.77331
-0.015461 0.0069769 0.419 -0.57523 0.28977 -0.76495
-0.015461 0.0077521 0.419 -0.55825 0.31457 -0.76773
-0.015498 0.0085476 0.42 -0.52717 0.36876 -0.76558
-0.015535 0.0093469 0.421 -0.46667 0.43971 -0.76738
-0.015535 0.010126 0.421 -0.34503 0.50476 -0.79131
-0.015535 0.010905 0.421 -0.24693 0.54654 -0.8002
-0.015572 0.011711 0.422 -0.31142 0.47368 -0.8238
-0.015572 0.012492 0.422 -0.25667 0.50687 -0.82292
-0.015535 0.013241 0.421 0.036637 0.63619 -0.77067
-0.015535 0.01402 0.421 0.084984 0.67271 -0.73501
-0.015461 0.014729 0.419 0.48365 0.61282 -0.62493
-0.015424 0.015467 0.418 0.53773 0.55845 -0.63165
-0.016196 -0.10001 0.462 -0.35275 -0.15964 -0.922
-0.016231 -0.099367 0.463 -0.18917 -0.2403 -0.95209
-0.016231 -0.098511 0.463 -0.22557 -0.20325 -0.95279
-0.016231 -0.097654 0.463 -0.25057 -0.1765 -0.95188
-0.016231 -0.096797 0.463 -0.2649 -0.16077 -0.95078
-0.016231 -0.095941 0.463 -0.24612 -0.15765 -0.95633
-0.016231 -0.095084 0.463 -0.21517 -0.16348 -0.9628
-0.016266 -0.094431 0.464 -0.18717 -0.15866 -0.96943
-0.016266 -0.093573 0.464 -0.14463 -0.14234 -0.97919
-0.016266 -0.092714 0.464 -0.099131 -0.12357 -0.98737
-0.016266 -0.091856 0.464 -0.021118 -0.10434 -0.99432
-0.016266 -0.090997 0.464 0.074838 -0.081328 -0.99387
-0.016266 -0.090139 0.464 0.1893 -0.053801 -0.98044
-0.016266 -0.08928 0.464 0.30184 -0.014683 -0.95325
-0.016266 -0.088422 0.464 0.39835 0.022069 -0.91697
-0.016231 -0.087375 0.463 0.48945 0.047045 -0.87076
-0.016231 -0.086518 0.463 0.5356 0.046818 -0.84317
-0.016196 -0.085476 0.462 0.60408 0.077697 -0.79313
-0.016161 -0.084438 0.461 0.64434 0.095575 -0.75874
-0.016125 -0.083404 0.46 0.67316 0.09907 -0.73283
-0.01609 -0.082374 0.459 0.69661 0.10568 -0.70962
-0.01609 -0.081525 0.459 0.67197 0.11112 -0.73219
-0.016055 -0.0805 0.458 0.68793 0.11153 -0.71715
-0.01602 -0.079478 0.457 0.70204 0.10578 -0.70424
-0.014548 -0.055282 0.415 0.52516 0.11405 -0.84333
-0.014548 -0.054514 0.415 0.59476 0.14191 -0.79128
-0.014513 -0.053617 0.414 0.54367 0.13128 -0.82897
-0.014478 -0.052723 0.413 0.52582 0.11946 -0.84217
-0.014478 -0.051959 0.413 0.53825 0.15317 -0.82875
-0.014478 -0.051195 0.413 0.5293 0.16213 -0.8328
-0.014443 -0.050309 0.412 0.51251 0.16183 -0.84329
-0.014443 -0.049547 0.412 0.5092 0.16132 -0.8454
-0.014408 -0.048666 0.411 0.4919 0.16537 -0.8548
-0.014408 -0.047906 0.411 0.47281 0.15371 -0.86765
-0.014373 -0.047031 0.41 0.44909 0.15344 -0.88021
-0.014373 -0.046272 0.41 0.43386 0.15003 -0.8884
-0.014373 -0.045513 0.41 0.4124 0.14884 -0.89876
-0.014338 -0.044646 0.409 0.38849 0.13246 -0.91188
-0.014338 -0.043889 0.409 0.36207 0.12708 -0.92345
-0.014338 -0.043132 0.409 0.34644 0.1199 -0.93038
-0.014303 -0.042272 0.408 0.33914 0.11852 -0.93324
-0.014303 -0.041517 0.408 0.32004 0.11531 -0.94036
-0.014303 -0.040762 0.408 0.30747 0.10151 -0.94613
-0.014303 -0.040007 0.408 0.29341 0.096838 -0.95107
-0.014303 -0.039253 0.408 0.27304 0.10263 -0.95651
-0.014268 -0.038403 0.407 0.25878 0.10954 -0.95971
-0.014268 -0.03765 0.407 0.24692 0.10885 -0.9629
-0.014268 -0.036897 0.407 0.22976 0.11456 -0.96648
-0.014268 -0.036144 0.407 0.19795 0.12484 -0.97223
-0.014268 -0.035391 0.407 0.16353 0.13304 -0.97753
-0.014232 -0.034553 0.406 0.13544 0.13075 -0.98212
-0.014232 -0.033802 0.406 0.11627 0.12787 -0.98495
-0.014232 -0.033051 0.406 0.091427 0.13568 -0.98653
-0.014232 -0.0323 0.406 0.068602 0.14551 -0.98698
-0.014232 -0.031549 0.406 0.049058 0.14568 -0.98811
-0.014232 -0.030797 0.406 0.029467 0.14366 -0.98919
-0.014232 -0.030046 0.406 0.024035 0.13728 -0.99024
-0.014232 -0.029295 0.406 0.021868 0.13193 -0.99102
-0.014232 -0.028544 0.406 0.012033 0.12981 -0.99147
-0.014232 -0.027793 0.406 0.0065681 0.12445 -0.9922
-0.014232 -0.02629 0.406 -0.0065681 0.12445 -0.9922
-0.014232 -0.025539 0.406 -0.012033 0.12981 -0.99147
-0.014232 -0.024788 0.406 -0.021868 0.13193 -0.99102
-0.014232 -0.024037 0.406 -0.045864 0.13503 -0.98978
-0.014232 -0.023286 0.406 -0.068706 0.13486 -0.98848
-0.014232 -0.022535 0.406 -0.10663 0.12695 -0.98616
-0.014232 -0.021784 0.406 -0.12813 0.12236 -0.98418
-0.014232 -0.021032 0.406 -0.14933 0.12518 -0.98083
-0.014268 -0.020331 0.407 -0.1689 0.12659 -0.97747
-0.014268 -0.019578 0.407 -0.19064 0.12923 -0.97312
-0.014268 -0.018825 0.407 -0.20613 0.12568 -0.97042
-0.014268 -0.018072 0.407 -0.21434 0.12336 -0.96894
-0.014268 -0.017319 0.407 -0.21956 0.11798 -0.96844
-0.014268 -0.016566 0.407 -0.20944 0.11615 -0.9709
-0.014303 -0.015852 0.408 -0.20686 0.11803 -0.97123
-0.014303 -0.015097 0.408 -0.20264 0.12338 -0.97145
-0.014303 -0.014342 0.408 -0.22772 0.13203 -0.96473
-0.014303 -0.013587 0.408 -0.24047 0.13884 -0.96068
-0.014303 -0.012833 0.408 -0.24635 0.14068 -0.95892
-0.014303 -0.012078 0.408 -0.24514 0.14689 -0.9583
-0.014303 -0.011323 0.408 -0.26341 0.15532 -0.9521
-0.014338 -0.010594 0.409 -0.28756 0.15886 -0.9445
-0.014338 -0.0098372 0.409 -0.3105 0.16759 -0.93568
-0.014338 -0.0090805 0.409 -0.34456 0.17332 -0.92262
-0.014338 -0.0083238 0.409 -0.3712 0.17912 -0.91111
-0.014373 -0.0075856 0.41 -0.38345 0.18627 -0.90458
-0.014373 -0.006827 0.41 -0.40012 0.18484 -0.89763
-0.014408 -0.0060833 0.411 -0.42233 0.18793 -0.88675
-0.014408 -0.0053228 0.411 -0.44326 0.18767 -0.87653
-0.014408 -0.0045624 0.411 -0.44418 0.18575 -0.87647
-0.014443 -0.0038113 0.412 -0.4392 0.18947 -0.87818
-0.014443 -0.003049 0.412 -0.44588 0.18242 -0.87631
-0.014478 -0.0022923 0.413 -0.45108 0.1905 -0.87191
-0.014478 -0.0015282 0.413 -0.4579 0.18886 -0.86871
-0.014478 -0.00076411 0.413 -0.47129 0.19358 -0.86047
-0.014513 0 0.414 -0.47588 0.19612 -0.85737
-0.014513 0.00076596 0.414 -0.48434 0.19596 -0.85265
-0.014548 0.0015356 0.415 -0.48584 0.2066 -0.84928
-0.014548 0.0023034 0.415 -0.5051 0.20995 -0.83714
-0.014583 0.0030786 0.416 -0.52029 0.22224 -0.82457
-0.014583 0.0038483 0.416 -0.5352 0.23682 -0.81085
-0.014583 0.0046179 0.416 -0.55803 0.23422 -0.79608
-0.014618 0.0054006 0.417 -0.5713 0.24113 -0.78452
-0.014653 0.0061869 0.418 -0.57468 0.25286 -0.77834
-0.014653 0.0069602 0.418 -0.56554 0.26919 -0.77955
-0.014688 0.0077521 0.419 -0.54857 0.30772 -0.77742
-0.014723 0.0085476 0.42 -0.49751 0.37776 -0.78089
-0.014723 0.0093247 0.42 -0.39295 0.45228 -0.80065
-0.014723 0.010102 0.42 -0.21317 0.52762 -0.8223
-0.014758 0.010905 0.421 -0.23069 0.53038 -0.81577
-0.014758 0.011684 0.421 -0.11953 0.55583 -0.82266
-0.014758 0.012463 0.421 -0.060214 0.58556 -0.80839
-0.014723 0.01321 0.42 0.20239 0.63469 -0.74579
-0.014688 0.013954 0.419 0.41425 0.62667 -0.66007
-0.015343 -0.10001 0.462 -0.37651 -0.17396 -0.90993
-0.015376 -0.099367 0.463 -0.19796 -0.2547 -0.94654
-0.015376 -0.098511 0.463 -0.24074 -0.2216 -0.94496
-0.015376 -0.097654 0.463 -0.27138 -0.1958 -0.94235
-0.015376 -0.096797 0.463 -0.27623 -0.18386 -0.94334
-0.015376 -0.095941 0.463 -0.24487 -0.17957 -0.95278
-0.01541 -0.09529 0.464 -0.20505 -0.18505 -0.9611
-0.01541 -0.094431 0.464 -0.17657 -0.17981 -0.96773
-0.01541 -0.093573 0.464 -0.12938 -0.16199 -0.97827
-0.01541 -0.092714 0.464 -0.080937 -0.14338 -0.98635
-0.01541 -0.091856 0.464 0.0086187 -0.12606 -0.99199
-0.01541 -0.090997 0.464 0.10318 -0.10003 -0.98962
-0.01541 -0.090139 0.464 0.21798 -0.072148 -0.97328
-0.01541 -0.08928 0.464 0.32727 -0.034545 -0.9443
-0.01541 -0.088422 0.464 0.42187 -0.0043641 -0.90665
-0.015376 -0.087375 0.463 0.51186 0.017402 -0.85889
-0.015343 -0.086331 0.462 0.57682 0.035508 -0.8161
-0.015343 -0.085476 0.462 0.61616 0.043534 -0.78642
-0.01531 -0.084438 0.461 0.65206 0.060779 -0.75572
-0.015277 -0.083404 0.46 0.67781 0.062407 -0.73258
-0.015244 -0.082374 0.459 0.69693 0.065272 -0.71416
-0.015244 -0.081525 0.459 0.6684 0.072934 -0.74021
-0.01521 -0.0805 0.458 0.67759 0.071107 -0.732
-0.015177 -0.079478 0.457 0.69002 0.066554 -0.72073
-0.013849 -0.057092 0.417 0.68582 0.14761 -0.71265
-0.013815 -0.056185 0.416 0.61882 0.1183 -0.77658
-0.013782 -0.055282 0.415 0.55935 0.088265 -0.82422
-0.013749 -0.054383 0.414 0.50501 0.062976 -0.86081
-0.013749 -0.053617 0.414 0.56743 0.11434 -0.81544
-0.013716 -0.052723 0.413 0.54207 0.10306 -0.83399
-0.013716 -0.051959 0.413 0.54776 0.13189 -0.82617
-0.013683 -0.051071 0.412 0.53552 0.13645 -0.83343
-0.013683 -0.050309 0.412 0.51461 0.13495 -0.84674
-0.013649 -0.049426 0.411 0.50869 0.13583 -0.85017
-0.013649 -0.048666 0.411 0.48674 0.14056 -0.86217
-0.013649 -0.047906 0.411 0.46786 0.12923 -0.8743
-0.013616 -0.047031 0.41 0.44031 0.13444 -0.88772
-0.013616 -0.046272 0.41 0.42614 0.1345 -0.8946
-0.013616 -0.045513 0.41 0.40712 0.12712 -0.90448
-0.013583 -0.044646 0.409 0.38621 0.10904 -0.91594
-0.013583 -0.043889 0.409 0.35839 0.11036 -0.92703
-0.013583 -0.043132 0.409 0.347 0.10585 -0.93187
-0.01355 -0.042272 0.408 0.33971 0.10337 -0.93483
-0.01355 -0.041517 0.408 0.32061 0.099011 -0.94202
-0.01355 -0.040762 0.408 0.30325 0.084176 -0.94919
-0.01355 -0.040007 0.408 0.28991 0.084542 -0.95331
-0.013517 -0.039156 0.407 0.27092 0.095664 -0.95784
-0.013517 -0.038403 0.407 0.25711 0.098129 -0.96139
-0.013517 -0.03765 0.407 0.24625 0.09632 -0.96441
-0.013517 -0.036897 0.407 0.23002 0.10407 -0.9676
-0.013517 -0.036144 0.407 0.19916 0.11746 -0.9729
-0.013517 -0.035391 0.407 0.16593 0.1182 -0.97903
-0.013483 -0.034553 0.406 0.13894 0.11258 -0.98388
-0.013483 -0.033802 0.406 0.12084 0.10856 -0.98672
-0.013483 -0.033051 0.406 0.097034 0.11851 -0.9882
-0.013483 -0.0323 0.406 0.068803 0.12416 -0.98987
-0.013483 -0.031549 0.406 0.049248 0.11678 -0.99194
-0.013483 -0.030797 0.406 0.029594 0.1104 -0.99345
-0.013483 -0.030046 0.406 0.024142 0.10068 -0.99463
-0.013483 -0.029295 0.406 0.021965 0.093091 -0.99542
-0.013483 -0.028544 0.406 0.012086 0.089848 -0.99588
-0.013483 -0.027793 0.406 0.0065971 0.082236 -0.99659
-0.013483 -0.02629 0.406 -0.0065971 0.082236 -0.99659
-0.013483 -0.025539 0.406 -0.012086 0.089848 -0.99588
-0.013483 -0.024788 0.406 -0.021965 0.093091 -0.99542
-0.013483 -0.024037 0.406 -0.046043 0.10276 -0.99364
-0.013483 -0.023286 0.406 -0.068918 0.11018 -0.99152
-0.013483 -0.022535 0.406 -0.1015 0.10557 -0.98922
-0.013483 -0.021784 0.406 -0.12417 0.099927 -0.98722
-0.013483 -0.021032 0.406 -0.14652 0.1039 -0.98374
-0.013517 -0.020331 0.407 -0.1672 0.1065 -0.98015
-0.013517 -0.019578 0.407 -0.18993 0.11557 -0.97497
-0.013517 -0.018825 0.407 -0.20632 0.11833 -0.9713
-0.013517 -0.018072 0.407 -0.2104 0.11822 -0.97044
-0.013517 -0.017319 0.407 -0.21772 0.11069 -0.96972
-0.013517 -0.016566 0.407 -0.20964 0.10773 -0.97183
-0.01355 -0.015852 0.408 -0.2092 0.10537 -0.97218
-0.01355 -0.015097 0.408 -0.20711 0.10753 -0.97239
-0.01355 -0.014342 0.408 -0.22313 0.11655 -0.9678
-0.01355 -0.013587 0.408 -0.23792 0.12548 -0.96315
-0.01355 -0.012833 0.408 -0.24578 0.12833 -0.96079
-0.01355 -0.012078 0.408 -0.24174 0.13054 -0.96152
-0.013583 -0.011351 0.409 -0.25777 0.1348 -0.95676
-0.013583 -0.010594 0.409 -0.28675 0.13365 -0.94864
-0.013583 -0.0098372 0.409 -0.30352 0.13898 -0.94264
-0.013583 -0.0090805 0.409 -0.33694 0.15024 -0.92946
-0.013583 -0.0083238 0.409 -0.36418 0.1535 -0.91859
-0.013616 -0.0075856 0.41 -0.37764 0.15998 -0.91203
-0.013616 -0.006827 0.41 -0.40048 0.1564 -0.90286
-0.013616 -0.0060685 0.41 -0.42081 0.15578 -0.89367
-0.013649 -0.0053228 0.411 -0.44252 0.15829 -0.88268
-0.013649 -0.0045624 0.411 -0.44964 0.15488 -0.87968
-0.013683 -0.0038113 0.412 -0.44225 0.16072 -0.88237
-0.013683 -0.003049 0.412 -0.45039 0.15353 -0.87953
-0.013683 -0.0022868 0.412 -0.45817 0.1602 -0.87431
-0.013716 -0.0015282 0.413 -0.46138 0.165 -0.87172
-0.013716 -0.00076411 0.413 -0.47302 0.16566 -0.86534
-0.013716 0 0.413 -0.47597 0.17345 -0.86219
-0.013749 0.00076596 0.414 -0.48166 0.17155 -0.8594
-0.013749 0.0015319 0.414 -0.48639 0.18166 -0.85465
-0.013782 0.0023034 0.415 -0.49964 0.19185 -0.84472
-0.013782 0.0030712 0.415 -0.51254 0.20211 -0.83454
-0.013815 0.0038483 0.416 -0.52817 0.21439 -0.82163
-0.013815 0.0046179 0.416 -0.54903 0.21831 -0.80679
-0.013815 0.0053876 0.416 -0.56861 0.22749 -0.79053
-0.013849 0.0061721 0.417 -0.56006 0.2355 -0.79428
-0.013882 0.0069602 0.418 -0.55375 0.26257 -0.7902
-0.013915 0.0077521 0.419 -0.53911 0.29633 -0.78838
-0.013948 0.0085476 0.42 -0.48979 0.34761 -0.79954
-0.013948 0.0093247 0.42 -0.38313 0.42197 -0.82168
-0.013948 0.010102 0.42 -0.19649 0.50218 -0.84215
-0.013948 0.010879 0.42 -0.067208 0.53754 -0.84055
-0.013882 0.01392 0.418 0.47562 0.58555 -0.65644
-0.014491 -0.10001 0.462 -0.417 -0.18817 -0.88921
-0.014522 -0.099367 0.463 -0.22236 -0.25785 -0.94025
-0.014522 -0.098511 0.463 -0.26593 -0.22941 -0.9363
-0.014522 -0.097654 0.463 -0.29614 -0.20482 -0.93293
-0.014522 -0.096797 0.463 -0.29019 -0.20036 -0.93576
-0.014554 -0.096148 0.464 -0.2187 -0.21525 -0.95175
-0.014554 -0.09529 0.464 -0.19361 -0.20416 -0.9596
-0.014554 -0.094431 0.464 -0.16143 -0.19913 -0.96658
-0.014554 -0.093573 0.464 -0.11121 -0.18608 -0.97622
-0.014554 -0.092714 0.464 -0.061769 -0.16489 -0.98438
-0.014554 -0.091856 0.464 0.036264 -0.14656 -0.98854
-0.014554 -0.090997 0.464 0.13111 -0.11938 -0.98415
-0.014554 -0.090139 0.464 0.24762 -0.093763 -0.96431
-0.014554 -0.08928 0.464 0.35487 -0.060178 -0.93298
-0.014554 -0.088422 0.464 0.44492 -0.034461 -0.89491
-0.014522 -0.087375 0.463 0.52878 -0.009007 -0.84871
-0.014522 -0.086518 0.463 0.56191 -0.006666 -0.82717
-0.014491 -0.085476 0.462 0.62459 0.022216 -0.78064
-0.014459 -0.084438 0.461 0.6577 0.03617 -0.75241
-0.014428 -0.083404 0.46 0.67899 0.045664 -0.73273
-0.014397 -0.082374 0.459 0.69698 0.050764 -0.71529
-0.014365 -0.081347 0.458 0.72414 0.060363 -0.68701
-0.014334 -0.080324 0.457 0.7548 0.058624 -0.65333
-0.014334 -0.079478 0.457 0.68144 0.05775 -0.72959
-0.013079 -0.057092 0.417 0.69835 0.14822 -0.70025
-0.013048 -0.056185 0.416 0.63581 0.12046 -0.76239
-0.013017 -0.055282 0.415 0.57756 0.088745 -0.81151
-0.012985 -0.054383 0.414 0.52784 0.054846 -0.84757
-0.012985 -0.053617 0.414 0.57563 0.10127 -0.81142
-0.012954 -0.052723 0.413 0.5494 0.084362 -0.83129
-0.012954 -0.051959 0.413 0.55433 0.10174 -0.82606
-0.012923 -0.051071 0.412 0.53971 0.10148 -0.83571
-0.012923 -0.050309 0.412 0.51615 0.098701 -0.85079
-0.012891 -0.049426 0.411 0.50741 0.10046 -0.85583
-0.012891 -0.048666 0.411 0.48237 0.10585 -0.86955
-0.01286 -0.047789 0.41 0.4653 0.09587 -0.87995
-0.01286 -0.047031 0.41 0.43893 0.10116 -0.89281
-0.01286 -0.046272 0.41 0.42307 0.10008 -0.90055
-0.012828 -0.045402 0.409 0.40289 0.092487 -0.91056
-0.012828 -0.044646 0.409 0.38372 0.084365 -0.91959
-0.012828 -0.043889 0.409 0.35461 0.092472 -0.93043
-0.012828 -0.043132 0.409 0.34749 0.091727 -0.93319
-0.012797 -0.042272 0.408 0.34022 0.08815 -0.93621
-0.012797 -0.041517 0.408 0.31627 0.08893 -0.94449
-0.012797 -0.040762 0.408 0.29494 0.074052 -0.95264
-0.012797 -0.040007 0.408 0.2833 0.079524 -0.95573
-0.012766 -0.039156 0.407 0.26603 0.0958 -0.95919
-0.012766 -0.038403 0.407 0.25425 0.094023 -0.96256
-0.012766 -0.03765 0.407 0.24537 0.091097 -0.96514
-0.012766 -0.036897 0.407 0.23111 0.1009 -0.96768
-0.012766 -0.036144 0.407 0.20251 0.10578 -0.97355
-0.012734 -0.035304 0.406 0.17193 0.099207 -0.9801
-0.012734 -0.034553 0.406 0.14672 0.089957 -0.98508
-0.012734 -0.033802 0.406 0.13078 0.08477 -0.98778
-0.012734 -0.033051 0.406 0.10273 0.09046 -0.99059
-0.012734 -0.0323 0.406 0.069054 0.090724 -0.99348
-0.012734 -0.031549 0.406 0.049445 0.075606 -0.99591
-0.012734 -0.030797 0.406 0.029713 0.064749 -0.99746
-0.012734 -0.030046 0.406 0.024233 0.051627 -0.99837
-0.012734 -0.029295 0.406 0.022041 0.041762 -0.99888
-0.012734 -0.028544 0.406 0.012127 0.037379 -0.99923
-0.012734 -0.027793 0.406 0.0066171 0.027495 -0.9996
-0.012734 -0.02629 0.406 -0.0066171 0.027495 -0.9996
-0.012734 -0.025539 0.406 -0.012127 0.037379 -0.99923
-0.012734 -0.024788 0.406 -0.022041 0.041762 -0.99888
-0.012734 -0.024037 0.406 -0.04621 0.058151 -0.99724
-0.012734 -0.023286 0.406 -0.069153 0.07334 -0.99491
-0.012734 -0.022535 0.406 -0.10176 0.077475 -0.99179
-0.012734 -0.021784 0.406 -0.12979 0.077221 -0.98853
-0.012734 -0.021032 0.406 -0.15107 0.082371 -0.98509
-0.012766 -0.020331 0.407 -0.17068 0.086182 -0.98155
-0.012766 -0.019578 0.407 -0.19228 0.10177 -0.97605
-0.012766 -0.018825 0.407 -0.20752 0.11094 -0.97192
-0.012766 -0.018072 0.407 -0.2104 0.11822 -0.97044
-0.012766 -0.017319 0.407 -0.21153 0.11399 -0.9707
-0.012766 -0.016566 0.407 -0.20344 0.10998 -0.97289
-0.012797 -0.015852 0.408 -0.20311 0.1034 -0.97368
-0.012797 -0.015097 0.408 -0.20108 0.10239 -0.97421
-0.012797 -0.014342 0.408 -0.21226 0.1053 -0.97152
-0.012797 -0.013587 0.408 -0.23436 0.10998 -0.96591
-0.012797 -0.012833 0.408 -0.24423 0.11387 -0.96301
-0.012797 -0.012078 0.408 -0.24215 0.11705 -0.96315
-0.012797 -0.011323 0.408 -0.25601 0.11662 -0.95961
-0.012828 -0.010594 0.409 -0.28758 0.11014 -0.9514
-0.012828 -0.0098372 0.409 -0.30739 0.11147 -0.94503
-0.012828 -0.0090805 0.409 -0.33371 0.1225 -0.93468
