-0.020923 -0.045069 0.42 0.13367 -0.090268 -0.98691
-0.020923 -0.044292 0.42 0.093133 -0.081266 -0.99233
-0.020923 -0.043515 0.42 0.063731 -0.063554 -0.99594
-0.020923 -0.042738 0.42 0.044686 -0.05305 -0.99759
-0.020923 -0.041961 0.42 0.022365 -0.047793 -0.99861
-0.020923 -0.041184 0.42 -0.012782 -0.047801 -0.99878
-0.020923 -0.040407 0.42 -0.046814 -0.050928 -0.9976
-0.020923 -0.03963 0.42 -0.081707 -0.058201 -0.99496
-0.020923 -0.038853 0.42 -0.11308 -0.072719 -0.99092
-0.020923 -0.038076 0.42 -0.14913 -0.090067 -0.98471
-0.020923 -0.037299 0.42 -0.18147 -0.104 -0.97788
-0.020923 -0.036522 0.42 -0.20316 -0.11887 -0.9719
-0.020972 -0.03583 0.421 -0.21316 -0.1335 -0.96785
-0.020972 -0.035051 0.421 -0.21649 -0.15245 -0.96431
-0.020972 -0.034272 0.421 -0.20718 -0.16672 -0.96399
-0.020972 -0.033493 0.421 -0.19092 -0.18118 -0.96474
-0.020972 -0.032714 0.421 -0.1686 -0.19479 -0.96625
-0.021022 -0.032011 0.422 -0.13575 -0.20716 -0.96884
-0.021022 -0.03123 0.422 -0.10596 -0.22261 -0.96913
-0.021022 -0.03045 0.422 -0.076097 -0.23586 -0.9688
-0.021022 -0.029669 0.422 -0.054444 -0.24586 -0.96778
-0.021022 -0.028888 0.422 -0.048122 -0.25934 -0.96459
-0.021022 -0.028107 0.422 -0.045942 -0.2698 -0.96182
-0.021022 -0.027327 0.422 -0.047872 -0.2773 -0.95959
-0.021022 -0.026546 0.422 -0.05997 -0.28179 -0.9576
-0.021022 -0.025765 0.422 -0.081286 -0.27763 -0.95724
-0.021022 -0.024984 0.422 -0.099631 -0.26968 -0.95778
-0.021022 -0.024204 0.422 -0.1102 -0.25236 -0.96134
-0.021022 -0.023423 0.422 -0.11304 -0.22341 -0.96815
-0.021022 -0.022642 0.422 -0.11284 -0.18995 -0.97529
-0.021072 -0.021913 0.423 -0.10311 -0.14852 -0.98352
-0.021072 -0.02113 0.423 -0.083931 -0.10672 -0.99074
-0.021072 -0.020348 0.423 -0.072718 -0.06516 -0.99522
-0.021072 -0.019565 0.423 -0.059178 -0.025292 -0.99793
-0.021072 -0.018783 0.423 -0.044429 0.011604 -0.99895
-0.021072 -0.018 0.423 -0.029601 0.04955 -0.99833
-0.021072 -0.017217 0.423 -0.03375 0.083089 -0.99597
-0.021072 -0.016435 0.423 -0.055708 0.10796 -0.99259
-0.021072 -0.015652 0.423 -0.080564 0.13147 -0.98804
-0.021072 -0.01487 0.423 -0.10628 0.14339 -0.98394
-0.021072 -0.014087 0.423 -0.13691 0.14791 -0.97948
-0.021072 -0.013304 0.423 -0.17548 0.13794 -0.97477
-0.021072 -0.012522 0.423 -0.20726 0.13506 -0.96892
-0.021072 -0.011739 0.423 -0.25078 0.13365 -0.95877
-0.021122 -0.010982 0.424 -0.28621 0.12018 -0.9506
-0.021122 -0.010198 0.424 -0.31623 0.11801 -0.94131
-0.021122 -0.0094135 0.424 -0.35094 0.10489 -0.9305
-0.021122 -0.008629 0.424 -0.38833 0.09464 -0.91665
-0.021172 -0.0078631 0.425 -0.42467 0.084321 -0.90141
-0.021172 -0.0070768 0.425 -0.4597 0.07718 -0.88471
-0.021172 -0.0062905 0.425 -0.48673 0.062275 -0.87133
-0.021221 -0.0055171 0.426 -0.49962 0.063412 -0.86392
-0.021221 -0.004729 0.426 -0.51848 0.058146 -0.85311
-0.021271 -0.00395 0.427 -0.51184 0.052029 -0.8575
-0.021271 -0.00316 0.427 -0.51724 0.047379 -0.85453
-0.021321 -0.0023756 0.428 -0.50304 0.047734 -0.86294
-0.021321 -0.0015837 0.428 -0.48169 0.048401 -0.875
-0.021371 -0.00079371 0.429 -0.4671 0.056963 -0.88237
-0.021371 0 0.429 -0.45269 0.050057 -0.89026
-0.021421 0.00079556 0.43 -0.43378 0.05419 -0.89939
-0.021421 0.0015911 0.43 -0.43319 0.046752 -0.90009
-0.02147 0.0023922 0.431 -0.43981 0.052037 -0.89658
-0.02147 0.0031896 0.431 -0.45763 0.049684 -0.88776
-0.02147 0.003987 0.431 -0.49759 0.052942 -0.86579
-0.02147 0.0047845 0.431 -0.53085 0.041625 -0.84644
-0.02152 0.0055948 0.432 -0.59176 0.043281 -0.80495
-0.02152 0.0063941 0.432 -0.60725 0.041314 -0.79343
-0.02157 0.00721 0.433 -0.64001 0.034842 -0.76758
-0.02162 0.0080296 0.434 -0.66439 0.029976 -0.74678
-0.02167 0.0088529 0.435 -0.66138 0.030014 -0.74945
-0.02172 0.0096799 0.436 -0.65703 0.030098 -0.75327
-0.02172 0.010487 0.436 -0.63698 0.032353 -0.7702
-0.021769 0.011319 0.437 -0.6067 0.026799 -0.79448
-0.021819 0.012155 0.438 -0.56636 0.0092451 -0.82411
-0.021819 0.012966 0.438 -0.53923 0.0073281 -0.84212
-0.021869 0.013808 0.439 -0.53337 0.023185 -0.84556
-0.021869 0.01462 0.439 -0.54406 0.015748 -0.8389
-0.021919 0.015467 0.44 -0.5676 0.020686 -0.82304
-0.021919 0.016281 0.44 -0.51433 0.011618 -0.85752
-0.021919 0.017095 0.44 -0.43464 -0.0036744 -0.9006
-0.021969 0.01795 0.441 -0.53327 -0.028428 -0.84547
-0.022168 0.018936 0.445 -0.84239 0.082815 -0.53247
-0.022268 0.019848 0.447 -0.70568 0.10305 -0.70099
-0.022317 0.020722 0.448 -0.66042 0.18119 -0.7287
-0.022367 0.021599 0.449 -0.62223 0.22968 -0.74838
-0.022367 0.022429 0.449 -0.62899 0.07684 -0.77361
-0.020579 -0.06429 0.429 0.55596 -0.19 -0.8092
-0.020579 -0.063497 0.429 0.65235 -0.17267 -0.73798
-0.020531 -0.062557 0.428 0.58827 -0.18097 -0.78816
-0.020483 -0.061621 0.427 0.55182 -0.18704 -0.81272
-0.020483 -0.060831 0.427 0.58045 -0.17742 -0.79473
-0.020435 -0.0599 0.426 0.56365 -0.18567 -0.80488
-0.020435 -0.059112 0.426 0.53452 -0.19407 -0.82257
-0.020387 -0.058187 0.425 0.51321 -0.19752 -0.83522
-0.020339 -0.057265 0.424 0.4946 -0.20299 -0.84508
-0.020339 -0.056481 0.424 0.47467 -0.20557 -0.85582
-0.020339 -0.055697 0.424 0.45312 -0.20215 -0.86823
-0.020292 -0.054783 0.423 0.42978 -0.20873 -0.87848
-0.020292 -0.054 0.423 0.41879 -0.20461 -0.88473
-0.020292 -0.053217 0.423 0.39798 -0.20222 -0.89483
-0.020244 -0.052311 0.422 0.38843 -0.20177 -0.89912
-0.020244 -0.05153 0.422 0.3716 -0.20875 -0.90462
-0.020244 -0.050749 0.422 0.3548 -0.20011 -0.91328
-0.020196 -0.04985 0.421 0.32559 -0.19815 -0.92451
-0.020196 -0.049071 0.421 0.30122 -0.19035 -0.93436
-0.020196 -0.048292 0.421 0.27544 -0.17744 -0.9448
-0.020196 -0.047513 0.421 0.24401 -0.16527 -0.95559
-0.020148 -0.046623 0.42 0.20411 -0.15523 -0.96656
-0.020148 -0.045846 0.42 0.17483 -0.13179 -0.97574
-0.020148 -0.045069 0.42 0.1445 -0.12322 -0.9818
-0.020148 -0.044292 0.42 0.1106 -0.11134 -0.98761
-0.020148 -0.043515 0.42 0.08044 -0.092884 -0.99242
-0.020148 -0.042738 0.42 0.053073 -0.081506 -0.99526
-0.020148 -0.041961 0.42 0.027633 -0.078431 -0.99654
-0.020148 -0.041184 0.42 -0.010632 -0.078456 -0.99686
-0.020148 -0.040407 0.42 -0.047786 -0.079423 -0.99569
-0.020148 -0.03963 0.42 -0.09101 -0.084426 -0.99226
-0.020148 -0.038853 0.42 -0.1295 -0.093442 -0.98717
-0.020148 -0.038076 0.42 -0.17139 -0.10213 -0.97989
-0.020148 -0.037299 0.42 -0.19724 -0.11698 -0.97335
-0.020196 -0.036609 0.421 -0.21729 -0.12632 -0.9679
-0.020196 -0.03583 0.421 -0.2255 -0.14515 -0.96337
-0.020196 -0.035051 0.421 -0.22475 -0.16606 -0.96016
-0.020196 -0.034272 0.421 -0.21554 -0.17827 -0.96009
-0.020196 -0.033493 0.421 -0.19844 -0.19075 -0.96137
-0.020244 -0.032792 0.422 -0.17385 -0.20396 -0.96342
-0.020244 -0.032011 0.422 -0.1433 -0.22253 -0.96434
-0.020244 -0.03123 0.422 -0.11959 -0.24158 -0.96298
-0.020244 -0.03045 0.422 -0.09485 -0.26037 -0.96084
-0.020244 -0.029669 0.422 -0.077224 -0.27866 -0.95728
-0.020244 -0.028888 0.422 -0.062844 -0.2901 -0.95493
-0.020244 -0.028107 0.422 -0.051589 -0.29859 -0.95299
-0.020244 -0.027327 0.422 -0.049556 -0.29954 -0.9528
-0.020244 -0.026546 0.422 -0.057639 -0.29849 -0.95267
-0.020244 -0.025765 0.422 -0.069865 -0.29181 -0.95392
-0.020244 -0.024984 0.422 -0.080162 -0.28232 -0.95596
-0.020244 -0.024204 0.422 -0.078684 -0.25884 -0.96271
-0.020244 -0.023423 0.422 -0.077444 -0.2183 -0.9728
-0.020292 -0.022696 0.423 -0.075936 -0.17116 -0.98231
-0.020292 -0.021913 0.423 -0.062932 -0.12238 -0.99049
-0.020292 -0.02113 0.423 -0.044315 -0.072601 -0.99638
-0.020292 -0.020348 0.423 -0.031738 -0.029541 -0.99906
-0.020292 -0.019565 0.423 -0.020115 0.010557 -0.99974
-0.020292 -0.018783 0.423 -0.010577 0.046412 -0.99887
-0.020292 -0.018 0.423 -0.0042214 0.08209 -0.99662
-0.020292 -0.017217 0.423 -0.0084187 0.11124 -0.99376
-0.020292 -0.016435 0.423 -0.038815 0.13077 -0.99065
-0.020292 -0.015652 0.423 -0.067934 0.14591 -0.98696
-0.020292 -0.01487 0.423 -0.098937 0.15163 -0.98347
-0.020292 -0.014087 0.423 -0.13583 0.15097 -0.97916
-0.020292 -0.013304 0.423 -0.17555 0.1349 -0.97518
-0.020292 -0.012522 0.423 -0.20844 0.12799 -0.96962
-0.020292 -0.011739 0.423 -0.25291 0.12661 -0.95917
-0.020292 -0.010957 0.423 -0.2945 0.11126 -0.94915
-0.020339 -0.010198 0.424 -0.32383 0.105 -0.94027
-0.020339 -0.0094135 0.424 -0.36259 0.089907 -0.9276
-0.020339 -0.008629 0.424 -0.39361 0.083906 -0.91544
-0.020387 -0.0078631 0.425 -0.43187 0.077447 -0.8986
-0.020387 -0.0070768 0.425 -0.46426 0.072368 -0.88274
-0.020435 -0.0063053 0.426 -0.49156 0.057403 -0.86895
-0.020435 -0.0055171 0.426 -0.50258 0.055185 -0.86277
-0.020483 -0.0047401 0.427 -0.52097 0.054359 -0.85184
-0.020483 -0.00395 0.427 -0.51198 0.046659 -0.85773
-0.020531 -0.0031674 0.428 -0.51655 0.038389 -0.8554
-0.020531 -0.0023756 0.428 -0.5066 0.038654 -0.86131
-0.020531 -0.0015837 0.428 -0.48118 0.039302 -0.87574
-0.020579 -0.00079371 0.429 -0.47024 0.045885 -0.88134
-0.020579 0 0.429 -0.45515 0.037978 -0.88961
-0.020627 0.00079556 0.43 -0.43945 0.035432 -0.89757
-0.020627 0.0015911 0.43 -0.43729 0.028014 -0.89889
-0.020627 0.0023867 0.43 -0.44704 0.028792 -0.89405
-0.020675 0.0031896 0.431 -0.45804 0.025786 -0.88856
-0.020675 0.003987 0.431 -0.49678 0.025175 -0.86751
-0.020675 0.0047845 0.431 -0.53276 0.024548 -0.84591
-0.020723 0.0055948 0.432 -0.58949 0.019205 -0.80755
-0.020723 0.0063941 0.432 -0.60926 0.019637 -0.79273
-0.020771 0.00721 0.433 -0.63706 0.010337 -0.77074
-0.020819 0.0080296 0.434 -0.66338 0.0069312 -0.74825
-0.020867 0.0088529 0.435 -0.66209 0.0069258 -0.74939
-0.020915 0.0096799 0.436 -0.65947 0.011551 -0.75164
-0.020915 0.010487 0.436 -0.63917 0.0086667 -0.76902
-0.020963 0.011319 0.437 -0.61152 0.0016176 -0.79123
-0.021011 0.012155 0.438 -0.57086 -0.016743 -0.82088
-0.021011 0.012966 0.438 -0.54375 -0.017654 -0.83906
-0.021059 0.013808 0.439 -0.53088 -0.012529 -0.84735
-0.021059 0.01462 0.439 -0.5399 -0.025449 -0.84134
-0.021059 0.015432 0.439 -0.47565 -0.052958 -0.87804
-0.021107 0.016281 0.44 -0.51302 -0.038592 -0.85751
-0.021107 0.017095 0.44 -0.43783 -0.070299 -0.8963
-0.021107 0.017909 0.44 -0.28317 -0.10564 -0.95324
-0.021299 0.018894 0.444 -0.86189 0.037063 -0.50574
-0.021491 0.019893 0.448 -0.52439 0.18591 -0.83094
-0.021491 0.020722 0.448 -0.63936 0.15339 -0.75345
-0.021539 0.021599 0.449 -0.61354 0.2006 -0.76376
-0.021539 0.022429 0.449 -0.64362 0.078875 -0.76127
-0.019834 -0.06444 0.43 0.68538 -0.16608 -0.70899
-0.019788 -0.063497 0.429 0.62656 -0.18109 -0.75804
-0.019742 -0.062557 0.428 0.56376 -0.18483 -0.80499
-0.019696 -0.061621 0.427 0.53402 -0.19362 -0.823
-0.019696 -0.060831 0.427 0.57638 -0.18241 -0.79656
-0.019696 -0.060041 0.427 0.56465 -0.1891 -0.80338
-0.019649 -0.059112 0.426 0.53601 -0.19711 -0.82088
-0.019603 -0.058187 0.425 0.51072 -0.20285 -0.83547
-0.019603 -0.057401 0.425 0.49102 -0.20973 -0.84552
-0.019557 -0.056481 0.424 0.47102 -0.22046 -0.85413
-0.019557 -0.055697 0.424 0.44579 -0.21771 -0.86826
-0.019557 -0.054912 0.424 0.42161 -0.23009 -0.8771
-0.019511 -0.054 0.423 0.41187 -0.22912 -0.88197
-0.019511 -0.053217 0.423 0.39098 -0.23582 -0.88968
-0.019465 -0.052311 0.422 0.38265 -0.23104 -0.89454
-0.019465 -0.05153 0.422 0.37138 -0.2393 -0.89711
-0.019465 -0.050749 0.422 0.35611 -0.23547 -0.90429
-0.019419 -0.04985 0.421 0.33364 -0.2299 -0.91424
-0.019419 -0.049071 0.421 0.31001 -0.21984 -0.92497
-0.019419 -0.048292 0.421 0.28837 -0.20824 -0.9346
-0.019419 -0.047513 0.421 0.26053 -0.19561 -0.94544
-0.019419 -0.046735 0.421 0.21708 -0.18802 -0.95787
-0.019419 -0.045956 0.421 0.18839 -0.16836 -0.96756
-0.019373 -0.045069 0.42 0.158 -0.15859 -0.97462
-0.019373 -0.044292 0.42 0.12251 -0.14514 -0.9818
-0.019373 -0.043515 0.42 0.089477 -0.13332 -0.98703
-0.019373 -0.042738 0.42 0.058118 -0.12224 -0.9908
-0.019373 -0.041961 0.42 0.027531 -0.11615 -0.99285
-0.019373 -0.041184 0.42 -0.010592 -0.11619 -0.99317
-0.019373 -0.040407 0.42 -0.052864 -0.1202 -0.99134
-0.019373 -0.03963 0.42 -0.10005 -0.12183 -0.9875
-0.019373 -0.038853 0.42 -0.1414 -0.1243 -0.98212
-0.019373 -0.038076 0.42 -0.17991 -0.12963 -0.9751
-0.019419 -0.037388 0.421 -0.20696 -0.14375 -0.96773
-0.019419 -0.036609 0.421 -0.22814 -0.15303 -0.96153
-0.019419 -0.03583 0.421 -0.23622 -0.16855 -0.95697
-0.019419 -0.035051 0.421 -0.23459 -0.18431 -0.95446
-0.019419 -0.034272 0.421 -0.2236 -0.19359 -0.95526
-0.019465 -0.033573 0.422 -0.20335 -0.20279 -0.95788
-0.019465 -0.032792 0.422 -0.18011 -0.22021 -0.95868
-0.019465 -0.032011 0.422 -0.15472 -0.23753 -0.95898
-0.019465 -0.03123 0.422 -0.13501 -0.25915 -0.95635
-0.019465 -0.03045 0.422 -0.11325 -0.28234 -0.95261
-0.019465 -0.029669 0.422 -0.091647 -0.3023 -0.9488
-0.019465 -0.028888 0.422 -0.077425 -0.31085 -0.9473
-0.019465 -0.028107 0.422 -0.060383 -0.31212 -0.94812
-0.019465 -0.027327 0.422 -0.052454 -0.30681 -0.95032
-0.019465 -0.026546 0.422 -0.054582 -0.30038 -0.95226
-0.019465 -0.025765 0.422 -0.055739 -0.29207 -0.95477
-0.019511 -0.025043 0.423 -0.055797 -0.28125 -0.95801
-0.019511 -0.024261 0.423 -0.046108 -0.24829 -0.96759
-0.019511 -0.023478 0.423 -0.039407 -0.19856 -0.9793
-0.019511 -0.022696 0.423 -0.030361 -0.14721 -0.98864
-0.019511 -0.021913 0.423 -0.013703 -0.094606 -0.99542
-0.019511 -0.02113 0.423 0.0042322 -0.041149 -0.99914
-0.019511 -0.020348 0.423 0.011647 0.0052796 -0.99992
-0.019511 -0.019565 0.423 0.020098 0.042194 -0.99891
-0.019511 -0.018783 0.423 0.023227 0.0737 -0.99701
-0.019465 -0.017957 0.422 0.020054 0.1042 -0.99435
-0.019465 -0.017177 0.422 0.0094688 0.1322 -0.99118
-0.019511 -0.016435 0.423 -0.029328 0.14414 -0.98912
-0.019511 -0.015652 0.423 -0.062691 0.15004 -0.98669
-0.019511 -0.01487 0.423 -0.098984 0.14858 -0.98393
-0.019511 -0.014087 0.423 -0.13589 0.14793 -0.97962
-0.019511 -0.013304 0.423 -0.18062 0.13175 -0.97469
-0.019511 -0.012522 0.423 -0.21255 0.12083 -0.96965
-0.019511 -0.011739 0.423 -0.25598 0.11953 -0.95926
-0.019511 -0.010957 0.423 -0.30116 0.10311 -0.94798
-0.019557 -0.010198 0.424 -0.32865 0.093075 -0.93985
-0.019557 -0.0094135 0.424 -0.36976 0.077063 -0.92593
-0.019557 -0.008629 0.424 -0.3981 0.070342 -0.91464
-0.019603 -0.0078631 0.425 -0.43752 0.068791 -0.89658
-0.019603 -0.0070768 0.425 -0.4701 0.071198 -0.87974
-0.019603 -0.0062905 0.425 -0.49795 0.057297 -0.86531
-0.019649 -0.0055171 0.426 -0.50403 0.05153 -0.86215
-0.019696 -0.0047401 0.427 -0.5256 0.050638 -0.84922
-0.019696 -0.00395 0.427 -0.51594 0.04653 -0.85536
-0.019742 -0.0031674 0.428 -0.51586 0.04019 -0.85573
-0.019742 -0.0023756 0.428 -0.50857 0.040394 -0.86007
-0.019742 -0.0015837 0.428 -0.47832 0.041199 -0.87722
-0.019788 -0.00079371 0.429 -0.47024 0.045885 -0.88134
-0.019788 0 0.429 -0.45367 0.03801 -0.89036
-0.019834 0.00079556 0.43 -0.4403 0.028899 -0.89739
-0.019834 0.0015911 0.43 -0.44042 0.016785 -0.89764
-0.019834 0.0023867 0.43 -0.45238 0.012969 -0.89173
-0.01988 0.0031896 0.431 -0.4611 0.0045982 -0.88734
-0.01988 0.003987 0.431 -0.50099 0.0044848 -0.86544
-0.019926 0.0047956 0.432 -0.53704 0.0043612 -0.84355
-0.019926 0.0055948 0.432 -0.59177 -0.0025006 -0.8061
-0.019926 0.0063941 0.432 -0.61205 -0.0024531 -0.79081
-0.019972 0.00721 0.433 -0.63708 -0.0071563 -0.77076
-0.020018 0.0080296 0.434 -0.66337 -0.0092414 -0.74824
-0.020065 0.0088529 0.435 -0.66208 -0.0092343 -0.74938
-0.020111 0.0096799 0.436 -0.65952 0 -0.75169
-0.020157 0.010511 0.437 -0.61593 0.0019557 -0.7878
-0.020157 0.011319 0.437 -0.61403 -0.0072608 -0.78925
-0.020203 0.012155 0.438 -0.57867 -0.019956 -0.81532
-0.020203 0.012966 0.438 -0.55025 -0.025126 -0.83462
-0.020249 0.013808 0.439 -0.53518 -0.028537 -0.84426
-0.020249 0.01462 0.439 -0.54638 -0.045663 -0.83629
-0.020249 0.015432 0.439 -0.48465 -0.080423 -0.871
-0.020295 0.016281 0.44 -0.51387 -0.061396 -0.85567
-0.020295 0.017095 0.44 -0.4375 -0.10174 -0.89345
-0.020295 0.017909 0.44 -0.27747 -0.14972 -0.949
-0.020434 0.018851 0.443 -0.74938 -0.025769 -0.66164
-0.020664 0.020722 0.448 -0.62273 0.13656 -0.77043
-0.02071 0.021599 0.449 -0.59831 0.17915 -0.78098
-0.02071 0.022429 0.449 -0.6607 0.10541 -0.74321
-0.019041 -0.06444 0.43 0.66756 -0.16982 -0.72493
-0.018996 -0.063497 0.429 0.60496 -0.18621 -0.77418
-0.018952 -0.062557 0.428 0.5474 -0.1895 -0.81513
-0.018952 -0.061765 0.428 0.61042 -0.18471 -0.77024
-0.018908 -0.060831 0.427 0.57041 -0.1912 -0.7988
-0.018908 -0.060041 0.427 0.56401 -0.19476 -0.80247
-0.018863 -0.059112 0.426 0.53361 -0.20235 -0.82117
-0.018819 -0.058187 0.425 0.50287 -0.20976 -0.83853
-0.018819 -0.057401 0.425 0.4774 -0.2233 -0.84984
-0.018819 -0.056614 0.425 0.4594 -0.23582 -0.85635
-0.018775 -0.055697 0.424 0.43416 -0.23799 -0.86883
-0.018775 -0.054912 0.424 0.40981 -0.25554 -0.87565
-0.018731 -0.054 0.423 0.40124 -0.25716 -0.87913
-0.018731 -0.053217 0.423 0.38619 -0.26669 -0.88303
-0.018731 -0.052435 0.423 0.38011 -0.25708 -0.8885
-0.018686 -0.05153 0.422 0.37235 -0.262 -0.89034
-0.018686 -0.050749 0.422 0.35931 -0.26257 -0.89552
-0.018686 -0.049969 0.422 0.3436 -0.25364 -0.90422
-0.018642 -0.049071 0.421 0.32217 -0.24363 -0.9148
-0.018642 -0.048292 0.421 0.3004 -0.22984 -0.92571
-0.018642 -0.047513 0.421 0.27593 -0.21755 -0.93623
-0.018642 -0.046735 0.421 0.23533 -0.2085 -0.94929
-0.018642 -0.045956 0.421 0.20244 -0.18863 -0.96096
-0.018642 -0.045177 0.421 0.17115 -0.17788 -0.96905
-0.018598 -0.044292 0.42 0.13445 -0.16421 -0.97722
-0.018598 -0.043515 0.42 0.098469 -0.15983 -0.98222
-0.018598 -0.042738 0.42 0.063137 -0.15006 -0.98666
-0.018598 -0.041961 0.42 0.027437 -0.14207 -0.98948
-0.018598 -0.041184 0.42 -0.015821 -0.14726 -0.98897
-0.018598 -0.040407 0.42 -0.062059 -0.15314 -0.98625
-0.018598 -0.03963 0.42 -0.11209 -0.15043 -0.98225
-0.018598 -0.038853 0.42 -0.15004 -0.1517 -0.97697
-0.018598 -0.038076 0.42 -0.19012 -0.15869 -0.96885
-0.018642 -0.037388 0.421 -0.21776 -0.17128 -0.96086
-0.018642 -0.036609 0.421 -0.23864 -0.17924 -0.95442
-0.018642 -0.03583 0.421 -0.24573 -0.19059 -0.95042
-0.018642 -0.035051 0.421 -0.24239 -0.20043 -0.94925
-0.018686 -0.034353 0.422 -0.23283 -0.21007 -0.94956
-0.018686 -0.033573 0.422 -0.21317 -0.22064 -0.95178
-0.018686 -0.032792 0.422 -0.19411 -0.2349 -0.95244
-0.018686 -0.032011 0.422 -0.17193 -0.25013 -0.95282
-0.018686 -0.03123 0.422 -0.1542 -0.27337 -0.94947
-0.018686 -0.03045 0.422 -0.12766 -0.29472 -0.94702
-0.018686 -0.029669 0.422 -0.10531 -0.31005 -0.94487
-0.018731 -0.028957 0.423 -0.089073 -0.31438 -0.94511
-0.018731 -0.028174 0.423 -0.064316 -0.30866 -0.94899
-0.018731 -0.027391 0.423 -0.043354 -0.30264 -0.95212
-0.018731 -0.026609 0.423 -0.033355 -0.29634 -0.9545
-0.018731 -0.025826 0.423 -0.029445 -0.28249 -0.95882
-0.018731 -0.025043 0.423 -0.021451 -0.26281 -0.96461
-0.018731 -0.024261 0.423 -0.0061944 -0.22238 -0.97494
-0.018731 -0.023478 0.423 0.0083455 -0.17165 -0.98512
-0.018731 -0.022696 0.423 0.021022 -0.1195 -0.99261
-0.018731 -0.021913 0.423 0.036953 -0.067385 -0.99704
-0.018731 -0.02113 0.423 0.049703 -0.014764 -0.99865
-0.018731 -0.020348 0.423 0.047576 0.030575 -0.9984
-0.018686 -0.019519 0.422 0.048677 0.061206 -0.99694
-0.018686 -0.018738 0.422 0.04751 0.091599 -0.99466
-0.018686 -0.017957 0.422 0.03791 0.11972 -0.99208
-0.018686 -0.017177 0.422 0.018902 0.14452 -0.98932
-0.018686 -0.016396 0.422 -0.024116 0.15371 -0.98782
-0.018686 -0.015615 0.422 -0.062846 0.14937 -0.98678
-0.018686 -0.014834 0.422 -0.099256 0.14587 -0.98431
-0.018686 -0.014054 0.422 -0.13627 0.14522 -0.97997
-0.018686 -0.013273 0.422 -0.18608 0.12989 -0.97391
-0.018731 -0.012522 0.423 -0.21662 0.11467 -0.9695
-0.018731 -0.011739 0.423 -0.25901 0.11345 -0.95919
-0.018731 -0.010957 0.423 -0.30771 0.096956 -0.94653
-0.018731 -0.010174 0.423 -0.33405 0.083282 -0.93887
-0.018775 -0.0094135 0.424 -0.37675 0.06716 -0.92388
-0.018775 -0.008629 0.424 -0.40243 0.059669 -0.9135
-0.018775 -0.0078446 0.424 -0.44408 0.053708 -0.89437
-0.018819 -0.0070768 0.425 -0.47263 0.059146 -0.87927
-0.018819 -0.0062905 0.425 -0.50095 0.047232 -0.86419
-0.018863 -0.0055171 0.426 -0.50366 0.03801 -0.86306
-0.018908 -0.0047401 0.427 -0.52913 0.037247 -0.84773
-0.018908 -0.00395 0.427 -0.51942 0.037509 -0.8537
-0.018908 -0.00316 0.427 -0.51957 0.028587 -0.85395
-0.018952 -0.0023756 0.428 -0.51409 0.028631 -0.85726
-0.018952 -0.0015837 0.428 -0.48267 0.034707 -0.87512
-0.018996 -0.00079371 0.429 -0.47682 0.037491 -0.8782
-0.018996 0 0.429 -0.4582 0.030524 -0.88832
-0.018996 0.00079371 0.429 -0.45094 0.020441 -0.89232
-0.019041 0.0015911 0.43 -0.44646 0.0092949 -0.89475
-0.019041 0.0023867 0.43 -0.4583 0.0009233 -0.8888
-0.019085 0.0031896 0.431 -0.46252 -0.011945 -0.88653
-0.019085 0.003987 0.431 -0.50496 -0.0161 -0.863
-0.019129 0.0047956 0.432 -0.53946 -0.015669 -0.84186
-0.019129 0.0055948 0.432 -0.59275 -0.019149 -0.80516
-0.019173 0.0064089 0.433 -0.61842 -0.021881 -0.78555
-0.019173 0.00721 0.433 -0.6378 -0.027792 -0.7697
-0.019218 0.0080296 0.434 -0.6627 -0.028499 -0.74835
-0.019262 0.0088529 0.435 -0.6601 -0.02852 -0.75063
-0.019306 0.0096799 0.436 -0.65896 -0.019259 -0.75193
-0.019306 0.010487 0.436 -0.64227 -0.023547 -0.76612
-0.019351 0.011319 0.437 -0.6179 -0.022494 -0.78594
-0.019395 0.012155 0.438 -0.58848 -0.023078 -0.80818
-0.019395 0.012966 0.438 -0.56113 -0.025684 -0.82733
-0.019439 0.013808 0.439 -0.54385 -0.033983 -0.8385
-0.019439 0.01462 0.439 -0.5532 -0.054383 -0.83127
-0.019483 0.015467 0.44 -0.56975 -0.038125 -0.82094
-0.019483 0.016281 0.44 -0.51925 -0.075665 -0.85127
-0.019483 0.017095 0.44 -0.43259 -0.12509 -0.89287
-0.019528 0.01795 0.441 -0.52309 -0.11949 -0.84386
-0.019749 0.019804 0.446 -0.77096 0.19531 -0.6062
-0.019882 0.021599 0.449 -0.58742 0.12096 -0.80019
-0.019882 0.022429 0.449 -0.67713 0.098908 -0.72918
-0.018247 -0.06444 0.43 0.64127 -0.17501 -0.74709
-0.018205 -0.063497 0.429 0.57575 -0.18998 -0.79525
-0.018162 -0.062557 0.428 0.5262 -0.19143 -0.82853
-0.018162 -0.061765 0.428 0.59906 -0.18579 -0.77885
-0.01812 -0.060831 0.427 0.56505 -0.1938 -0.80197
-0.01812 -0.060041 0.427 0.56201 -0.19746 -0.80321
-0.018077 -0.059112 0.426 0.53157 -0.20428 -0.82201
-0.018077 -0.058324 0.426 0.49654 -0.21184 -0.84177
-0.018035 -0.057401 0.425 0.46828 -0.23125 -0.85278
-0.018035 -0.056614 0.425 0.45175 -0.24105 -0.85896
-0.018035 -0.055828 0.425 0.42645 -0.24693 -0.87015
-0.017993 -0.054912 0.424 0.40042 -0.26436 -0.87737
-0.017993 -0.054128 0.424 0.38866 -0.27261 -0.88013
-0.01795 -0.053217 0.423 0.38183 -0.28419 -0.87946
-0.01795 -0.052435 0.423 0.37924 -0.27945 -0.88209
-0.01795 -0.051652 0.423 0.37523 -0.27994 -0.88365
-0.017908 -0.050749 0.422 0.36221 -0.28125 -0.88865
-0.017908 -0.049969 0.422 0.34982 -0.27491 -0.89557
-0.017908 -0.049188 0.422 0.32597 -0.27041 -0.90588
-0.017865 -0.048292 0.421 0.30713 -0.25669 -0.91639
-0.017865 -0.047513 0.421 0.28851 -0.24549 -0.92547
-0.017865 -0.046735 0.421 0.25353 -0.2359 -0.93812
-0.017865 -0.045956 0.421 0.21956 -0.21794 -0.95095
-0.017865 -0.045177 0.421 0.18517 -0.20302 -0.96151
-0.017823 -0.044292 0.42 0.14904 -0.18991 -0.97042
-0.017823 -0.043515 0.42 0.1125 -0.18282 -0.97669
-0.017823 -0.042738 0.42 0.070104 -0.18051 -0.98107
-0.017823 -0.041961 0.42 0.027282 -0.17684 -0.98386
-0.017823 -0.041184 0.42 -0.02307 -0.18091 -0.98323
-0.017823 -0.040407 0.42 -0.076317 -0.18245 -0.98025
-0.017823 -0.03963 0.42 -0.12178 -0.18061 -0.97598
-0.017823 -0.038853 0.42 -0.16026 -0.1856 -0.96947
-0.017865 -0.038167 0.421 -0.19934 -0.19267 -0.9608
-0.017865 -0.037388 0.421 -0.22604 -0.20318 -0.95269
-0.017865 -0.036609 0.421 -0.24479 -0.20895 -0.94679
-0.017865 -0.03583 0.421 -0.24914 -0.21539 -0.94421
-0.017865 -0.035051 0.421 -0.24682 -0.22313 -0.94302
-0.017908 -0.034353 0.422 -0.24232 -0.22667 -0.94335
-0.017908 -0.033573 0.422 -0.22694 -0.23132 -0.94604
-0.017908 -0.032792 0.422 -0.21112 -0.24161 -0.94713
-0.017908 -0.032011 0.422 -0.19122 -0.25392 -0.94814
-0.017908 -0.03123 0.422 -0.1689 -0.2727 -0.94716
-0.017908 -0.03045 0.422 -0.14184 -0.2859 -0.9477
-0.01795 -0.029739 0.423 -0.11747 -0.29537 -0.94813
-0.01795 -0.028957 0.423 -0.098597 -0.29598 -0.95009
-0.01795 -0.028174 0.423 -0.064647 -0.29313 -0.95388
-0.01795 -0.027391 0.423 -0.029402 -0.28714 -0.95744
-0.01795 -0.026609 0.423 -0.012209 -0.27699 -0.9608
-0.01795 -0.025826 0.423 -0.0030684 -0.25907 -0.96585
-0.01795 -0.025043 0.423 0.013389 -0.23212 -0.9726
-0.01795 -0.024261 0.423 0.03431 -0.18663 -0.98183
-0.01795 -0.023478 0.423 0.056537 -0.13886 -0.9887
-0.01795 -0.022696 0.423 0.072576 -0.090207 -0.99328
-0.01795 -0.021913 0.423 0.087474 -0.04309 -0.99523
-0.01795 -0.02113 0.423 0.094874 0.004205 -0.99548
-0.01795 -0.020348 0.423 0.083284 0.044155 -0.99555
-0.017908 -0.019519 0.422 0.077026 0.076813 -0.99407
-0.017908 -0.018738 0.422 0.071602 0.10395 -0.992
-0.017908 -0.017957 0.422 0.055707 0.12788 -0.99022
-0.017908 -0.017177 0.422 0.028334 0.14756 -0.98865
-0.017908 -0.016396 0.422 -0.018879 0.1527 -0.98809
-0.017908 -0.015615 0.422 -0.062959 0.13708 -0.98856
-0.017908 -0.014834 0.422 -0.099458 0.13155 -0.98631
-0.017908 -0.014054 0.422 -0.13654 0.13096 -0.98194
-0.017908 -0.013273 0.422 -0.19135 0.11759 -0.97445
-0.01795 -0.012522 0.423 -0.22565 0.10433 -0.9686
-0.01795 -0.011739 0.423 -0.26592 0.10324 -0.95845
-0.01795 -0.010957 0.423 -0.31701 0.087758 -0.94435
-0.01795 -0.010174 0.423 -0.34478 0.076076 -0.9356
-0.017993 -0.0094135 0.424 -0.3877 0.061046 -0.91976
-0.017993 -0.008629 0.424 -0.40903 0.052786 -0.91099
-0.017993 -0.0078446 0.424 -0.45035 0.043219 -0.89181
-0.018035 -0.0070768 0.425 -0.47426 0.051729 -0.87886
-0.018035 -0.0062905 0.425 -0.50173 0.042679 -0.86397
-0.018077 -0.0055171 0.426 -0.49972 0.029955 -0.86567
-0.018077 -0.004729 0.426 -0.52888 0.02935 -0.84819
-0.01812 -0.00395 0.427 -0.52086 0.029452 -0.85313
-0.01812 -0.00316 0.427 -0.51969 0.018764 -0.85415
-0.018162 -0.0023756 0.428 -0.51618 0.018767 -0.85627
-0.018162 -0.0015837 0.428 -0.48356 0.020093 -0.87508
-0.018205 -0.00079371 0.429 -0.48058 0.020996 -0.8767
-0.018205 0 0.429 -0.46055 0.01571 -0.88749
-0.018205 0.00079371 0.429 -0.45914 0.0055499 -0.88835
-0.018247 0.0015911 0.43 -0.45168 -0.0037072 -0.89217
-0.018247 0.0023867 0.43 -0.46406 -0.016561 -0.88565
-0.018247 0.0031822 0.43 -0.46899 -0.027511 -0.88277
-0.01829 0.003987 0.431 -0.51267 -0.034676 -0.85789
-0.01829 0.0047845 0.431 -0.54625 -0.033829 -0.83694
-0.018332 0.0055948 0.432 -0.59682 -0.033986 -0.80166
-0.018332 0.0063941 0.432 -0.61063 -0.029343 -0.79137
-0.018375 0.00721 0.433 -0.63844 -0.041229 -0.76856
-0.018417 0.0080296 0.434 -0.66154 -0.040847 -0.74879
-0.018459 0.0088529 0.435 -0.65927 -0.044704 -0.75057
-0.018502 0.0096799 0.436 -0.65865 -0.036191 -0.75158
-0.018502 0.010487 0.436 -0.64229 -0.043903 -0.76521
-0.018544 0.011319 0.437 -0.61811 -0.037722 -0.78519
-0.018544 0.012128 0.437 -0.5923 -0.038664 -0.80479
-0.018587 0.012966 0.438 -0.56679 -0.046323 -0.82256
-0.018587 0.013776 0.438 -0.54172 -0.069934 -0.83764
-0.018629 0.01462 0.439 -0.55697 -0.080235 -0.82665
-0.018629 0.015432 0.439 -0.50226 -0.10817 -0.85793
-0.018672 0.016281 0.44 -0.51874 -0.098838 -0.8492
-0.018714 0.017134 0.441 -0.61142 -0.085173 -0.78671
-0.018714 0.01795 0.441 -0.51908 -0.13884 -0.84337
-0.018756 0.018809 0.442 -0.59503 -0.13196 -0.7928
-0.018884 0.019759 0.445 -0.85141 0.089385 -0.51682
-0.018969 0.020675 0.447 -0.75571 0.12467 -0.64293
-0.019054 0.021599 0.449 -0.60218 0.077655 -0.79457
-0.019054 0.022429 0.449 -0.69649 0.079689 -0.71313
-0.017454 -0.06444 0.43 0.61268 -0.17887 -0.76983
-0.017454 -0.063645 0.43 0.68994 -0.16234 -0.70543
-0.017413 -0.062703 0.429 0.63356 -0.17378 -0.75392
-0.017373 -0.061765 0.428 0.58397 -0.18645 -0.79008
-0.017373 -0.060973 0.428 0.59629 -0.1873 -0.78061
-0.017332 -0.060041 0.427 0.5594 -0.1955 -0.80552
-0.017292 -0.059112 0.426 0.52586 -0.20595 -0.82526
-0.017292 -0.058324 0.426 0.49129 -0.21755 -0.84339
-0.017251 -0.057401 0.425 0.46121 -0.23222 -0.85636
-0.017251 -0.056614 0.425 0.44285 -0.24393 -0.86278
-0.017251 -0.055828 0.425 0.41975 -0.25372 -0.87146
-0.01721 -0.054912 0.424 0.39289 -0.26954 -0.8792
-0.01721 -0.054128 0.424 0.38034 -0.28377 -0.88024
-0.01721 -0.053343 0.424 0.37334 -0.29636 -0.87908
-0.01717 -0.052435 0.423 0.37642 -0.29659 -0.87769
-0.01717 -0.051652 0.423 0.37392 -0.29775 -0.87837
-0.01717 -0.05087 0.423 0.36182 -0.29929 -0.8829
-0.017129 -0.049969 0.422 0.35127 -0.29191 -0.8896
-0.017129 -0.049188 0.422 0.33266 -0.28801 -0.89799
-0.017129 -0.048407 0.422 0.31311 -0.27958 -0.90763
-0.017089 -0.047513 0.421 0.29445 -0.27127 -0.91636
-0.017089 -0.046735 0.421 0.26831 -0.26166 -0.92712
-0.017089 -0.045956 0.421 0.23692 -0.24723 -0.93955
-0.017089 -0.045177 0.421 0.20351 -0.23021 -0.95162
-0.017089 -0.044398 0.421 0.16594 -0.21349 -0.96275
-0.017048 -0.043515 0.42 0.12716 -0.21031 -0.96933
-0.017048 -0.042738 0.42 0.075882 -0.21043 -0.97466
-0.017048 -0.041961 0.42 0.029177 -0.21095 -0.97706
-0.017048 -0.041184 0.42 -0.024995 -0.21395 -0.97652
-0.017048 -0.040407 0.42 -0.08712 -0.21616 -0.97246
-0.017048 -0.03963 0.42 -0.13513 -0.215 -0.96722
-0.017089 -0.038945 0.421 -0.17572 -0.21701 -0.96022
-0.017089 -0.038167 0.421 -0.21155 -0.22409 -0.95133
-0.017089 -0.037388 0.421 -0.23409 -0.23144 -0.94427
-0.017089 -0.036609 0.421 -0.25241 -0.23878 -0.93769
-0.017089 -0.03583 0.421 -0.25485 -0.24421 -0.93564
-0.017129 -0.035134 0.422 -0.24936 -0.24867 -0.93594
-0.017129 -0.034353 0.422 -0.24264 -0.25188 -0.93685
-0.017129 -0.033573 0.422 -0.22457 -0.25579 -0.94029
-0.017129 -0.032792 0.422 -0.21096 -0.26123 -0.94194
-0.017129 -0.032011 0.422 -0.19834 -0.26472 -0.94371
-0.01717 -0.031304 0.423 -0.1773 -0.2717 -0.94591
-0.01717 -0.030522 0.423 -0.1508 -0.27569 -0.94934
-0.01717 -0.029739 0.423 -0.126 -0.27944 -0.95186
-0.01717 -0.028957 0.423 -0.10009 -0.28027 -0.95469
-0.01717 -0.028174 0.423 -0.060025 -0.27089 -0.96074
-0.01717 -0.027391 0.423 -0.020441 -0.26092 -0.96514
-0.01717 -0.026609 0.423 0.0051362 -0.24278 -0.97007
-0.01717 -0.025826 0.423 0.021705 -0.21645 -0.97605
-0.01717 -0.025043 0.423 0.049949 -0.17849 -0.98267
-0.01717 -0.024261 0.423 0.079469 -0.1366 -0.98743
-0.01717 -0.023478 0.423 0.10585 -0.096155 -0.98972
-0.01717 -0.022696 0.423 0.12173 -0.055466 -0.99101
-0.01717 -0.021913 0.423 0.13223 -0.017792 -0.99106
-0.01717 -0.02113 0.423 0.1312 0.019887 -0.99116
-0.017129 -0.0203 0.422 0.11371 0.056697 -0.9919
-0.017129 -0.019519 0.422 0.10415 0.082879 -0.9911
-0.017129 -0.018738 0.422 0.093533 0.1048 -0.99008
-0.017129 -0.017957 0.422 0.070403 0.1226 -0.98996
-0.017129 -0.017177 0.422 0.033635 0.13522 -0.99024
-0.017129 -0.016396 0.422 -0.018927 0.13527 -0.99063
-0.017129 -0.015615 0.422 -0.068338 0.11952 -0.99048
-0.017129 -0.014834 0.422 -0.10385 0.11193 -0.98827
-0.017129 -0.014054 0.422 -0.13994 0.11143 -0.98387
-0.017129 -0.013273 0.422 -0.19867 0.10112 -0.97484
-0.01717 -0.012522 0.423 -0.23566 0.090938 -0.96757
-0.01717 -0.011739 0.423 -0.27285 0.090023 -0.95784
-0.01717 -0.010957 0.423 -0.32536 0.076636 -0.94248
-0.01717 -0.010174 0.423 -0.35366 0.067976 -0.9329
-0.01721 -0.0094135 0.424 -0.39604 0.055041 -0.91658
-0.01721 -0.008629 0.424 -0.41622 0.051645 -0.90779
-0.01721 -0.0078446 0.424 -0.45565 0.039349 -0.88929
-0.017251 -0.0070768 0.425 -0.47799 0.045177 -0.8772
-0.017251 -0.0062905 0.425 -0.50033 0.044533 -0.86469
-0.017292 -0.0055171 0.426 -0.49692 0.033643 -0.86714
-0.017292 -0.004729 0.426 -0.52486 0.03745 -0.85036
-0.017332 -0.00395 0.427 -0.51942 0.037509 -0.8537
-0.017332 -0.00316 0.427 -0.51362 0.030499 -0.85747
-0.017373 -0.0023756 0.428 -0.51274 0.030446 -0.858
-0.017373 -0.0015837 0.428 -0.48271 0.03197 -0.8752
-0.017413 -0.00079371 0.429 -0.48256 0.030988 -0.87531
-0.017413 0 0.429 -0.46557 0.02303 -0.88471
-0.017454 0.00079556 0.43 -0.46984 0.013754 -0.88264
-0.017454 0.0015911 0.43 -0.46121 0.0073737 -0.88726
-0.017454 0.0023867 0.43 -0.47415 -0.0091458 -0.8804
-0.017454 0.0031822 0.43 -0.48252 -0.021831 -0.87561
-0.017494 0.003987 0.431 -0.52368 -0.036168 -0.85115
-0.017494 0.0047845 0.431 -0.55467 -0.035325 -0.83132
-0.017535 0.0055948 0.432 -0.59941 -0.037205 -0.79957
-0.017576 0.0064089 0.433 -0.6264 -0.043357 -0.7783
-0.017576 0.00721 0.433 -0.63876 -0.046744 -0.76799
-0.017616 0.0080296 0.434 -0.65967 -0.045555 -0.75017
-0.017657 0.0088529 0.435 -0.65727 -0.052498 -0.75182
-0.017697 0.0096799 0.436 -0.65872 -0.049228 -0.75078
-0.017697 0.010487 0.436 -0.64177 -0.059534 -0.76459
-0.017738 0.011319 0.437 -0.61939 -0.060807 -0.78273
-0.017779 0.012155 0.438 -0.59497 -0.062111 -0.80134
-0.017779 0.012966 0.438 -0.57393 -0.072375 -0.8157
-0.017819 0.013808 0.439 -0.55368 -0.095952 -0.82719
-0.017819 0.01462 0.439 -0.56245 -0.10743 -0.81982
-0.01786 0.015467 0.44 -0.57394 -0.10368 -0.81231
-0.01786 0.016281 0.44 -0.52162 -0.13107 -0.84305
-0.0179 0.017134 0.441 -0.60524 -0.12506 -0.78616
-0.0179 0.01795 0.441 -0.50877 -0.1649 -0.84496
-0.017982 0.018851 0.443 -0.72334 -0.081682 -0.68564
-0.018063 0.019759 0.445 -0.84298 0.041512 -0.53634
-0.018144 0.020675 0.447 -0.75687 0.079397 -0.64872
-0.018225 0.022429 0.449 -0.71761 0.030828 -0.69576
-0.016661 -0.06444 0.43 0.58153 -0.17158 -0.79522
-0.016661 -0.063645 0.43 0.67033 -0.15626 -0.72543
-0.016622 -0.062703 0.429 0.61448 -0.16627 -0.77121
-0.016583 -0.061765 0.428 0.57036 -0.17177 -0.80324
-0.016583 -0.060973 0.428 0.59366 -0.17525 -0.7854
-0.016544 -0.060041 0.427 0.56215 -0.18161 -0.80685
-0.016544 -0.059251 0.427 0.52611 -0.19566 -0.8276
-0.016506 -0.058324 0.426 0.48585 -0.21247 -0.84782
-0.016506 -0.057536 0.426 0.45314 -0.22096 -0.86362
-0.016467 -0.056614 0.425 0.43376 -0.23411 -0.87008
-0.016467 -0.055828 0.425 0.40859 -0.25259 -0.87707
-0.016467 -0.055042 0.425 0.38088 -0.26532 -0.88574
-0.016428 -0.054128 0.424 0.36912 -0.28516 -0.88455
-0.016428 -0.053343 0.424 0.36359 -0.29843 -0.88246
-0.016428 -0.052559 0.424 0.37182 -0.30236 -0.87768
-0.016389 -0.051652 0.423 0.37239 -0.30376 -0.87696
-0.016389 -0.05087 0.423 0.36344 -0.30574 -0.88002
-0.016351 -0.049969 0.422 0.35174 -0.302 -0.88604
-0.016351 -0.049188 0.422 0.33699 -0.2944 -0.8943
-0.016351 -0.048407 0.422 0.31959 -0.29198 -0.90145
-0.016351 -0.047626 0.422 0.30213 -0.28589 -0.90939
-0.016312 -0.046735 0.421 0.27785 -0.27805 -0.9195
-0.016312 -0.045956 0.421 0.24635 -0.27329 -0.92985
-0.016312 -0.045177 0.421 0.21242 -0.26079 -0.94173
-0.016312 -0.044398 0.421 0.17342 -0.24778 -0.95317
-0.016312 -0.043619 0.421 0.13776 -0.24729 -0.9591
-0.016312 -0.04284 0.421 0.08414 -0.2507 -0.9644
-0.016273 -0.041961 0.42 0.034047 -0.25104 -0.96738
-0.016312 -0.041282 0.421 -0.029842 -0.25244 -0.96715
-0.016273 -0.040407 0.42 -0.095442 -0.25483 -0.96226
-0.016273 -0.03963 0.42 -0.14082 -0.2544 -0.95679
-0.016312 -0.038945 0.421 -0.17899 -0.25413 -0.95046
-0.016312 -0.038167 0.421 -0.21275 -0.25519 -0.94319
-0.016312 -0.037388 0.421 -0.23808 -0.25829 -0.93627
-0.016312 -0.036609 0.421 -0.25833 -0.26057 -0.93025
-0.016351 -0.035915 0.422 -0.25661 -0.26377 -0.92982
-0.016351 -0.035134 0.422 -0.24816 -0.2662 -0.93143
-0.016351 -0.034353 0.422 -0.23778 -0.26874 -0.9334
-0.016351 -0.033573 0.422 -0.216 -0.27198 -0.93775
-0.016351 -0.032792 0.422 -0.20905 -0.27697 -0.93786
-0.016389 -0.032087 0.423 -0.20263 -0.28131 -0.93798
-0.016389 -0.031304 0.423 -0.18321 -0.28696 -0.94026
-0.016389 -0.030522 0.423 -0.15224 -0.28667 -0.94586
-0.016389 -0.029739 0.423 -0.12267 -0.28878 -0.94951
-0.016389 -0.028957 0.423 -0.097944 -0.28496 -0.95352
-0.016428 -0.028241 0.424 -0.054834 -0.27037 -0.96119
-0.016428 -0.027456 0.424 -0.0081768 -0.25278 -0.96749
-0.016428 -0.026672 0.424 0.023653 -0.22767 -0.97345
-0.016428 -0.025887 0.424 0.055862 -0.19498 -0.97922
-0.016389 -0.025043 0.423 0.096828 -0.1547 -0.9832
-0.016389 -0.024261 0.423 0.1294 -0.11031 -0.98544
-0.016389 -0.023478 0.423 0.15445 -0.070765 -0.98546
-0.016389 -0.022696 0.423 0.16494 -0.031231 -0.98581
-0.016389 -0.021913 0.423 0.17212 -0.0010403 -0.98508
-0.016389 -0.02113 0.423 0.16495 0.029151 -0.98587
-0.016351 -0.0203 0.422 0.13851 0.059645 -0.98856
-0.016351 -0.019519 0.422 0.12287 0.077499 -0.98939
-0.016351 -0.018738 0.422 0.10406 0.092244 -0.99028
-0.016351 -0.017957 0.422 0.070569 0.10188 -0.99229
-0.016351 -0.017177 0.422 0.033755 0.10624 -0.99377
-0.016351 -0.016396 0.422 -0.018994 0.10629 -0.99415
-0.016351 -0.015615 0.422 -0.073787 0.091453 -0.99307
-0.016351 -0.014834 0.422 -0.10832 0.0818 -0.99075
-0.016351 -0.014054 0.422 -0.14343 0.081434 -0.9863
-0.016351 -0.013273 0.422 -0.20608 0.075388 -0.97563
-0.016389 -0.012522 0.423 -0.24572 0.069429 -0.96685
-0.016389 -0.011739 0.423 -0.28463 0.063637 -0.95652
-0.016389 -0.010957 0.423 -0.33739 0.053594 -0.93984
-0.016389 -0.010174 0.423 -0.36522 0.049085 -0.92963
-0.016428 -0.0094135 0.424 -0.40607 0.039436 -0.91299
-0.016428 -0.008629 0.424 -0.42429 0.041931 -0.90455
-0.016428 -0.0078446 0.424 -0.46101 0.028033 -0.88695
-0.016467 -0.0070768 0.425 -0.48455 0.035827 -0.87403
-0.016467 -0.0062905 0.425 -0.50035 0.043625 -0.86472
-0.016506 -0.0055171 0.426 -0.49414 0.035523 -0.86866
-0.016506 -0.004729 0.426 -0.51954 0.042951 -0.85337
-0.016544 -0.00395 0.427 -0.51537 0.042978 -0.85589
-0.016544 -0.00316 0.427 -0.50737 0.044114 -0.8606
-0.016583 -0.0023756 0.428 -0.5085 0.043978 -0.85994
-0.016583 -0.0015837 0.428 -0.47692 0.04032 -0.87802
-0.016622 -0.00079371 0.429 -0.47965 0.037426 -0.87666
-0.016622 0 0.429 -0.46553 0.026712 -0.88463
-0.016661 0.00079556 0.43 -0.47621 0.019178 -0.87912
-0.016661 0.0015911 0.43 -0.46986 0.011003 -0.88267
-0.016661 0.0023867 0.43 -0.48748 -0.01179 -0.87306
-0.016699 0.0031896 0.431 -0.49814 -0.025152 -0.86673
-0.016699 0.003987 0.431 -0.5374 -0.044514 -0.84215
-0.016738 0.0047956 0.432 -0.5676 -0.047594 -0.82193
-0.016738 0.0055948 0.432 -0.60643 -0.050054 -0.79356
-0.016777 0.0064089 0.433 -0.63275 -0.056567 -0.77229
-0.016777 0.00721 0.433 -0.63852 -0.054675 -0.76766
-0.016815 0.0080296 0.434 -0.65844 -0.057231 -0.75045
-0.016854 0.0088529 0.435 -0.65629 -0.07052 -0.75121
-0.016893 0.0096799 0.436 -0.65975 -0.076591 -0.74758
-0.016893 0.010487 0.436 -0.63954 -0.088549 -0.76364
-0.016932 0.011319 0.437 -0.62148 -0.097731 -0.77731
-0.01697 0.012155 0.438 -0.59917 -0.10363 -0.79388
-0.01697 0.012966 0.438 -0.57748 -0.10973 -0.80899
-0.017009 0.013808 0.439 -0.55869 -0.13408 -0.81846
-0.017009 0.01462 0.439 -0.5617 -0.14302 -0.81489
-0.017048 0.015467 0.44 -0.57085 -0.14538 -0.80808
-0.017048 0.016281 0.44 -0.51276 -0.16846 -0.84185
-0.017087 0.017134 0.441 -0.58229 -0.17387 -0.79417
-0.017125 0.017991 0.442 -0.63731 -0.16765 -0.75215
-0.017125 0.018809 0.442 -0.5536 -0.21601 -0.80428
-0.017164 0.019671 0.443 -0.61415 -0.19769 -0.76403
-0.017319 0.020675 0.447 -0.76516 0.023036 -0.64343
-0.017358 0.02155 0.448 -0.73503 -0.0052971 -0.67801
-0.017397 0.022429 0.449 -0.72367 -0.027274 -0.68961
-0.015904 -0.06459 0.431 0.70197 -0.15551 -0.69502
-0.015867 -0.063645 0.43 0.65172 -0.15416 -0.74263
-0.01583 -0.062703 0.429 0.59549 -0.15937 -0.78739
-0.015793 -0.061765 0.428 0.54832 -0.1588 -0.82105
-0.015793 -0.060973 0.428 0.58513 -0.16643 -0.79368
-0.015756 -0.060041 0.427 0.55789 -0.16742 -0.81285
-0.015756 -0.059251 0.427 0.52061 -0.18714 -0.83303
-0.01572 -0.058324 0.426 0.47912 -0.20579 -0.85329
-0.01572 -0.057536 0.426 0.44348 -0.21702 -0.86961
-0.015683 -0.056614 0.425 0.42228 -0.23036 -0.87671
-0.015683 -0.055828 0.425 0.39611 -0.24723 -0.8843
-0.015683 -0.055042 0.425 0.36728 -0.26604 -0.89125
-0.015683 -0.054255 0.425 0.36053 -0.28389 -0.8885
-0.015646 -0.053343 0.424 0.3581 -0.29744 -0.88504
-0.015646 -0.052559 0.424 0.36418 -0.30666 -0.87939
-0.015646 -0.051774 0.424 0.36624 -0.31542 -0.87543
-0.015609 -0.05087 0.423 0.36197 -0.31747 -0.87647
-0.015609 -0.050087 0.423 0.34927 -0.31664 -0.8819
-0.015609 -0.049304 0.423 0.33444 -0.31096 -0.88964
-0.015572 -0.048407 0.422 0.32231 -0.30625 -0.89573
-0.015572 -0.047626 0.422 0.30816 -0.30349 -0.90162
-0.015572 -0.046846 0.422 0.28622 -0.297 -0.91097
-0.015535 -0.045956 0.421 0.25764 -0.29307 -0.92072
-0.015535 -0.045177 0.421 0.22499 -0.28565 -0.93155
-0.015535 -0.044398 0.421 0.18654 -0.27703 -0.94258
-0.015535 -0.043619 0.421 0.15054 -0.27505 -0.94957
-0.015535 -0.04284 0.421 0.095758 -0.27226 -0.95745
-0.015535 -0.042061 0.421 0.037796 -0.27709 -0.9601
-0.015535 -0.041282 0.421 -0.033706 -0.27807 -0.95997
-0.015535 -0.040503 0.421 -0.10158 -0.27959 -0.95473
-0.015535 -0.039724 0.421 -0.1444 -0.27995 -0.94909
-0.015535 -0.038945 0.421 -0.18067 -0.27826 -0.94336
-0.015535 -0.038167 0.421 -0.21704 -0.278 -0.93574
-0.015535 -0.037388 0.421 -0.24429 -0.27616 -0.92955
-0.015572 -0.036696 0.422 -0.2601 -0.27798 -0.9247
-0.015572 -0.035915 0.422 -0.25538 -0.28014 -0.92537
-0.015572 -0.035134 0.422 -0.24345 -0.28013 -0.92858
-0.015572 -0.034353 0.422 -0.22941 -0.28202 -0.93158
-0.015609 -0.033652 0.423 -0.21384 -0.28334 -0.93488
-0.015609 -0.03287 0.423 -0.21354 -0.28787 -0.93356
-0.015609 -0.032087 0.423 -0.20875 -0.28907 -0.93427
-0.015609 -0.031304 0.423 -0.1896 -0.29203 -0.93743
-0.015609 -0.030522 0.423 -0.15318 -0.28754 -0.94544
-0.015609 -0.029739 0.423 -0.12387 -0.28321 -0.95102
-0.015646 -0.029025 0.424 -0.10001 -0.27502 -0.95622
-0.015646 -0.028241 0.424 -0.047985 -0.2525 -0.96641
-0.015646 -0.027456 0.424 0.0072006 -0.22773 -0.9737
-0.015646 -0.026672 0.424 0.051662 -0.20195 -0.97803
-0.015646 -0.025887 0.424 0.099512 -0.16539 -0.98119
-0.015646 -0.025103 0.424 0.14627 -0.12 -0.98194
-0.015609 -0.024261 0.423 0.18066 -0.077655 -0.98048
-0.015609 -0.023478 0.423 0.20303 -0.043386 -0.97821
-0.015609 -0.022696 0.423 0.20718 -0.0092975 -0.97826
-0.015609 -0.021913 0.423 0.21015 0.010324 -0.97761
-0.015609 -0.02113 0.423 0.19616 0.030015 -0.98011
-0.015572 -0.0203 0.422 0.16009 0.05113 -0.98578
-0.015572 -0.019519 0.422 0.13749 0.058611 -0.98877
-0.015572 -0.018738 0.422 0.1095 0.064048 -0.99192
-0.015572 -0.017957 0.422 0.070767 0.069518 -0.99507
-0.015572 -0.017177 0.422 0.033874 0.06545 -0.99728
-0.015572 -0.016396 0.422 -0.019062 0.065475 -0.99767
-0.015572 -0.015615 0.422 -0.079248 0.052686 -0.99546
-0.015572 -0.014834 0.422 -0.11792 0.047247 -0.9919
-0.015572 -0.014054 0.422 -0.15093 0.047034 -0.98743
-0.015572 -0.013273 0.422 -0.21634 0.046453 -0.97521
-0.015609 -0.012522 0.423 -0.25756 0.045866 -0.96517
-0.015609 -0.011739 0.423 -0.29706 0.036274 -0.95417
-0.015609 -0.010957 0.423 -0.34911 0.03066 -0.93658
-0.015609 -0.010174 0.423 -0.3715 0.025482 -0.92809
-0.015646 -0.0094135 0.424 -0.41112 0.020163 -0.91136
-0.015646 -0.008629 0.424 -0.42376 0.023848 -0.90546
-0.015646 -0.0078446 0.424 -0.45896 0.0093596 -0.88841
-0.015683 -0.0070768 0.425 -0.48128 0.013818 -0.87646
-0.015683 -0.0062905 0.425 -0.49656 0.024622 -0.86765
-0.01572 -0.0055171 0.426 -0.4895 0.020111 -0.87177
-0.01572 -0.004729 0.426 -0.51787 0.026001 -0.85506
-0.015756 -0.00395 0.427 -0.51633 0.025969 -0.856
-0.015756 -0.00316 0.427 -0.51098 0.029657 -0.85908
-0.015793 -0.0023756 0.428 -0.51473 0.029511 -0.85684
-0.015793 -0.0015837 0.428 -0.48203 0.030158 -0.87563
-0.01583 -0.00079371 0.429 -0.48683 0.025456 -0.87313
-0.01583 0 0.429 -0.47067 0.017452 -0.88214
-0.01583 0.00079371 0.429 -0.48695 0.012731 -0.87334
-0.015867 0.0015911 0.43 -0.47982 0.0036457 -0.87736
-0.015867 0.0023867 0.43 -0.49904 -0.022498 -0.86629
-0.015904 0.0031896 0.431 -0.51001 -0.035629 -0.85943
-0.015904 0.003987 0.431 -0.54821 -0.053631 -0.83462
-0.015941 0.0047956 0.432 -0.57691 -0.059805 -0.81462
-0.015941 0.0055948 0.432 -0.61132 -0.057943 -0.78926
-0.015978 0.0064089 0.433 -0.63625 -0.064242 -0.7688
-0.016015 0.0072266 0.434 -0.64257 -0.070675 -0.76296
-0.016015 0.0080296 0.434 -0.65587 -0.066832 -0.75191
-0.016052 0.0088529 0.435 -0.65359 -0.085042 -0.75206
-0.016089 0.0096799 0.436 -0.65841 -0.099368 -0.74607
-0.016089 0.010487 0.436 -0.63763 -0.10859 -0.76265
-0.016125 0.011319 0.437 -0.62622 -0.1197 -0.77041
-0.016162 0.012155 0.438 -0.60554 -0.12894 -0.7853
-0.016162 0.012966 0.438 -0.58542 -0.13453 -0.79949
-0.016199 0.013808 0.439 -0.5705 -0.15352 -0.80682
-0.016199 0.01462 0.439 -0.56807 -0.15802 -0.80767
-0.016236 0.015467 0.44 -0.56568 -0.17924 -0.80491
-0.016273 0.016318 0.441 -0.60273 -0.17711 -0.77805
-0.016273 0.017134 0.441 -0.56397 -0.19612 -0.80217
-0.01631 0.017991 0.442 -0.62101 -0.19142 -0.76007
-0.016347 0.018851 0.443 -0.68513 -0.1739 -0.70736
-0.01631 0.019626 0.442 -0.35613 -0.27177 -0.89404
-0.016421 0.020583 0.445 -0.7713 -0.044295 -0.63493
-0.016531 0.02155 0.448 -0.75168 -0.062101 -0.6566
-0.016568 0.022429 0.449 -0.7423 -0.098051 -0.66286
-0.015109 -0.06459 0.431 0.68246 -0.15879 -0.71346
-0.015074 -0.063645 0.43 0.62913 -0.156 -0.76149
-0.015039 -0.062703 0.429 0.57109 -0.15101 -0.80688
-0.015004 -0.061765 0.428 0.52253 -0.14445 -0.84029
-0.015004 -0.060973 0.428 0.56933 -0.1628 -0.80583
-0.014969 -0.060041 0.427 0.5453 -0.15432 -0.82391
-0.014969 -0.059251 0.427 0.51507 -0.18121 -0.83777
-0.014934 -0.058324 0.426 0.4704 -0.19862 -0.85981
-0.014934 -0.057536 0.426 0.43411 -0.21554 -0.87469
-0.014934 -0.056747 0.426 0.4053 -0.23268 -0.88407
-0.014899 -0.055828 0.425 0.37879 -0.24745 -0.89179
-0.014899 -0.055042 0.425 0.35435 -0.26574 -0.89656
-0.014899 -0.054255 0.425 0.34536 -0.28136 -0.8953
-0.014899 -0.053469 0.425 0.34572 -0.29323 -0.89134
-0.014863 -0.052559 0.424 0.35669 -0.30263 -0.88385
-0.014863 -0.051774 0.424 0.3584 -0.31482 -0.87889
-0.014863 -0.05099 0.424 0.35724 -0.32395 -0.87604
-0.014828 -0.050087 0.423 0.35454 -0.32579 -0.87645
-0.014828 -0.049304 0.423 0.34052 -0.32186 -0.88343
-0.014793 -0.048407 0.422 0.32914 -0.31976 -0.88849
-0.014793 -0.047626 0.422 0.31045 -0.3219 -0.89443
-0.014793 -0.046846 0.422 0.2929 -0.31786 -0.90176
-0.014758 -0.045956 0.421 0.26832 -0.31491 -0.91041
-0.014758 -0.045177 0.421 0.23346 -0.30911 -0.92193
-0.014758 -0.044398 0.421 0.19629 -0.30548 -0.93175
-0.014758 -0.043619 0.421 0.15579 -0.30774 -0.93863
-0.014758 -0.04284 0.421 0.096784 -0.30463 -0.94754
-0.014758 -0.042061 0.421 0.03444 -0.30405 -0.95203
-0.014758 -0.041282 0.421 -0.030392 -0.30409 -0.95216
-0.014758 -0.040503 0.421 -0.097722 -0.30642 -0.94687
-0.014758 -0.039724 0.421 -0.14139 -0.30299 -0.94245
-0.014758 -0.038945 0.421 -0.18429 -0.29902 -0.93628
-0.014758 -0.038167 0.421 -0.2214 -0.29668 -0.92896
-0.014793 -0.037476 0.422 -0.24328 -0.29446 -0.92418
-0.014793 -0.036696 0.422 -0.25493 -0.29708 -0.92019
-0.014793 -0.035915 0.422 -0.24576 -0.29781 -0.92245
-0.014793 -0.035134 0.422 -0.23959 -0.29474 -0.92506
-0.014828 -0.034435 0.423 -0.23076 -0.29475 -0.92729
-0.014828 -0.033652 0.423 -0.22143 -0.29541 -0.92936
-0.014828 -0.03287 0.423 -0.2215 -0.29451 -0.92963
-0.014828 -0.032087 0.423 -0.21612 -0.29129 -0.9319
-0.014828 -0.031304 0.423 -0.19539 -0.29079 -0.93662
-0.014863 -0.030594 0.424 -0.15724 -0.27666 -0.94802
-0.014863 -0.029809 0.424 -0.12717 -0.26672 -0.95535
-0.014863 -0.029025 0.424 -0.092495 -0.25645 -0.96212
-0.014863 -0.028241 0.424 -0.024658 -0.23155 -0.97251
-0.014863 -0.027456 0.424 0.044407 -0.20597 -0.97755
-0.014863 -0.026672 0.424 0.094193 -0.17651 -0.97978
-0.014863 -0.025887 0.424 0.14904 -0.13418 -0.97969
-0.014863 -0.025103 0.424 0.19801 -0.088447 -0.9762
-0.014828 -0.024261 0.423 0.23048 -0.052331 -0.97167
-0.014828 -0.023478 0.423 0.24719 -0.027616 -0.96857
-0.014828 -0.022696 0.423 0.24245 -0.0030735 -0.97016
-0.014828 -0.021913 0.423 0.23371 0.0092405 -0.97226
-0.014793 -0.02108 0.422 0.20662 0.021744 -0.97818
-0.014793 -0.0203 0.422 0.16529 0.036513 -0.98557
-0.014793 -0.019519 0.422 0.14175 0.037694 -0.98919
-0.014793 -0.018738 0.422 0.11173 0.037841 -0.99302
-0.014793 -0.017957 0.422 0.069834 0.037986 -0.99684
-0.014793 -0.017177 0.422 0.034995 0.025381 -0.99907
-0.014793 -0.016396 0.422 -0.015915 0.025393 -0.99955
-0.014793 -0.015615 0.422 -0.079348 0.015826 -0.99672
-0.014793 -0.014834 0.422 -0.12011 0.015761 -0.99263
-0.014793 -0.014054 0.422 -0.15416 0.010458 -0.98799
-0.014793 -0.013273 0.422 -0.22543 0.010312 -0.97421
-0.014793 -0.012492 0.422 -0.27266 0.010184 -0.96206
-0.014828 -0.011739 0.423 -0.31099 -0.0020073 -0.95041
-0.014828 -0.010957 0.423 -0.36138 -0.0019693 -0.93242
-0.014828 -0.010174 0.423 -0.38588 -0.0068194 -0.92253
-0.014863 -0.0094135 0.424 -0.42151 -0.0066873 -0.9068
-0.014863 -0.008629 0.424 -0.42623 -0.0019061 -0.90461
-0.014863 -0.0078446 0.424 -0.45743 -0.015924 -0.8891
-0.014899 -0.0070768 0.425 -0.47627 -0.015709 -0.87916
-0.014899 -0.0062905 0.425 -0.49255 -0.0073174 -0.87026
