0.034015 -0.022481 0.419 -0.3123 -0.053591 -0.94847
0.034015 -0.021706 0.419 -0.35423 -0.057714 -0.93338
0.034015 -0.020931 0.419 -0.37916 -0.056126 -0.92363
0.034096 -0.020204 0.42 -0.41551 -0.051191 -0.90815
0.034096 -0.019426 0.42 -0.43066 -0.046014 -0.90134
0.034096 -0.018649 0.42 -0.44602 -0.050371 -0.8936
0.034177 -0.017915 0.421 -0.46741 -0.05803 -0.88214
0.034177 -0.017136 0.421 -0.46354 -0.064697 -0.88371
0.034258 -0.016396 0.422 -0.47059 -0.068904 -0.87966
0.034258 -0.015615 0.422 -0.48081 -0.084071 -0.87278
0.034258 -0.014834 0.422 -0.48854 -0.080706 -0.8688
0.034339 -0.014087 0.423 -0.50845 -0.10544 -0.85462
0.034339 -0.013304 0.423 -0.51469 -0.11382 -0.84979
0.034421 -0.012551 0.424 -0.53116 -0.12269 -0.83834
0.034421 -0.011767 0.424 -0.49034 -0.13435 -0.86111
0.034502 -0.011008 0.425 -0.5636 -0.15228 -0.81189
0.034583 -0.0094579 0.426 -0.54757 -0.15828 -0.82166
0.038967 0.00088807 0.48 0.36431 -0.32796 -0.87162
0.038886 0.0017724 0.479 0.53496 -0.33891 -0.77392
0.037587 0.0077095 0.463 0.56957 -0.30622 -0.76277
0.037506 0.0085476 0.462 0.49087 -0.2767 -0.82613
0.037424 0.0093821 0.461 0.41021 -0.23112 -0.88222
0.037424 0.010235 0.461 0.4592 -0.26901 -0.84662
0.037343 0.011064 0.46 0.40325 -0.21911 -0.88847
0.037343 0.011915 0.46 0.41012 -0.27038 -0.87103
0.037262 0.012738 0.459 0.40803 -0.22736 -0.8842
0.037262 0.013587 0.459 0.39955 -0.26386 -0.87792
0.037262 0.014437 0.459 0.30645 -0.30509 -0.90167
0.037262 0.015286 0.459 0.21434 -0.33029 -0.91922
0.033542 -0.059796 0.404 -0.39705 0.1057 -0.91169
0.033625 -0.059195 0.405 -0.21762 0.22986 -0.94858
0.033625 -0.058446 0.405 -0.28685 0.18665 -0.93962
0.033625 -0.057697 0.405 -0.33419 0.15587 -0.92953
0.033625 -0.056947 0.405 -0.34654 0.14398 -0.92692
0.033625 -0.056198 0.405 -0.35368 0.15283 -0.9228
0.033708 -0.055586 0.406 -0.34179 0.18017 -0.92234
0.033708 -0.054834 0.406 -0.35483 0.18269 -0.91691
0.033708 -0.054083 0.406 -0.36672 0.19037 -0.91065
0.033792 -0.053463 0.407 -0.38572 0.19875 -0.90095
0.033792 -0.05271 0.407 -0.41313 0.20453 -0.88741
0.033792 -0.051957 0.407 -0.42712 0.20766 -0.88002
0.033875 -0.05133 0.408 -0.45549 0.20578 -0.86613
0.033875 -0.050575 0.408 -0.47666 0.20585 -0.85465
0.033875 -0.049821 0.408 -0.48557 0.21521 -0.84729
0.033958 -0.049186 0.409 -0.48607 0.22762 -0.84376
0.033958 -0.048429 0.409 -0.47511 0.24888 -0.844
0.034041 -0.047789 0.41 -0.47099 0.26826 -0.84036
0.034041 -0.047031 0.41 -0.47455 0.27757 -0.83532
0.034124 -0.046385 0.411 -0.49697 0.26575 -0.82607
0.034124 -0.045624 0.411 -0.51002 0.24714 -0.82389
0.034207 -0.044973 0.412 -0.54564 0.22168 -0.80816
0.03429 -0.044318 0.413 -0.55477 0.20332 -0.80678
0.03429 -0.043554 0.413 -0.56074 0.1759 -0.80909
0.034373 -0.042894 0.414 -0.54957 0.14987 -0.8219
0.034373 -0.042128 0.414 -0.52338 0.11568 -0.84421
0.034456 -0.041462 0.415 -0.41036 0.0048176 -0.91191
0.034456 -0.040694 0.415 -0.40069 0.012319 -0.91613
0.034456 -0.039926 0.415 -0.35428 0.0040262 -0.93513
0.034456 -0.039158 0.415 -0.28244 -0.038174 -0.95852
0.034456 -0.03839 0.415 -0.23355 -0.062666 -0.97032
0.034539 -0.037713 0.416 -0.17856 -0.072701 -0.98124
0.034539 -0.036944 0.416 -0.17121 -0.08537 -0.98153
0.034539 -0.036174 0.416 -0.16481 -0.10114 -0.98113
0.034539 -0.035404 0.416 -0.17417 -0.092636 -0.98035
0.034539 -0.034635 0.416 -0.17539 -0.080076 -0.98124
0.034539 -0.033865 0.416 -0.1745 -0.069608 -0.98219
0.034539 -0.033095 0.416 -0.17246 -0.068583 -0.98263
0.034622 -0.032403 0.417 -0.18211 -0.080829 -0.97995
0.034622 -0.031632 0.417 -0.18289 -0.095384 -0.9785
0.034622 -0.03086 0.417 -0.18472 -0.10571 -0.97709
0.034622 -0.030089 0.417 -0.20206 -0.096053 -0.97465
0.034622 -0.029317 0.417 -0.20908 -0.095909 -0.97318
0.034622 -0.028546 0.417 -0.20507 -0.095992 -0.97403
0.034622 -0.027774 0.417 -0.20707 -0.09595 -0.97361
0.034705 -0.027068 0.418 -0.22121 -0.10875 -0.96914
0.034705 -0.026294 0.418 -0.24748 -0.11312 -0.96227
0.034705 -0.025521 0.418 -0.2618 -0.11671 -0.95804
0.034705 -0.024747 0.418 -0.26456 -0.11964 -0.95692
0.034705 -0.023974 0.418 -0.28949 -0.10673 -0.95121
0.034788 -0.023256 0.419 -0.30015 -0.10112 -0.94852
0.034788 -0.022481 0.419 -0.30774 -0.092875 -0.94693
0.034788 -0.021706 0.419 -0.34867 -0.10034 -0.93186
0.034788 -0.020931 0.419 -0.3727 -0.10226 -0.9223
0.034871 -0.020204 0.42 -0.41328 -0.097257 -0.90539
0.034871 -0.019426 0.42 -0.43234 -0.093478 -0.89685
0.034954 -0.018694 0.421 -0.44569 -0.10191 -0.88937
0.034954 -0.017915 0.421 -0.4706 -0.10687 -0.87585
0.034954 -0.017136 0.421 -0.47301 -0.11584 -0.87341
0.035037 -0.016396 0.422 -0.47789 -0.11522 -0.87083
0.035037 -0.015615 0.422 -0.4879 -0.1351 -0.86238
0.03512 -0.01487 0.423 -0.50219 -0.1394 -0.85345
0.03512 -0.014087 0.423 -0.51061 -0.14238 -0.84794
0.03512 -0.013304 0.423 -0.51594 -0.13564 -0.84582
0.035203 -0.012551 0.424 -0.52657 -0.14616 -0.83747
0.035203 -0.011767 0.424 -0.47786 -0.13951 -0.86729
0.035286 -0.011008 0.425 -0.5472 -0.20267 -0.81209
0.035369 -0.010246 0.426 -0.6041 -0.20501 -0.77009
0.035452 -0.0094801 0.427 -0.67312 -0.21231 -0.70841
0.035618 -0.0087308 0.429 -0.80952 -0.20691 -0.54943
0.039935 -0.00088992 0.481 0.42869 -0.23695 -0.87182
0.039852 0.0017761 0.48 0.33625 -0.28404 -0.89792
0.038441 0.0077095 0.463 0.52496 -0.3015 -0.79594
0.038358 0.0085476 0.462 0.43666 -0.26575 -0.85948
0.038358 0.0094024 0.462 0.4956 -0.31648 -0.80884
0.038275 0.010235 0.461 0.42518 -0.2602 -0.8669
0.038192 0.011064 0.46 0.37287 -0.19041 -0.90814
0.038192 0.011915 0.46 0.40048 -0.25744 -0.8794
0.038192 0.012766 0.46 0.38427 -0.3091 -0.86994
0.038109 0.013587 0.459 0.43076 -0.2575 -0.86495
0.038109 0.014437 0.459 0.33811 -0.29994 -0.89203
0.038109 0.015286 0.459 0.25163 -0.32048 -0.91322
0.038109 0.018683 0.459 0.014093 -0.34969 -0.93676
0.034288 -0.060544 0.404 -0.32985 0.14336 -0.93309
0.034288 -0.059796 0.404 -0.37572 0.10631 -0.92061
0.034288 -0.059049 0.404 -0.40946 0.082309 -0.90861
0.034373 -0.058446 0.405 -0.26751 0.18042 -0.94651
0.034373 -0.057697 0.405 -0.31575 0.15091 -0.93676
0.034373 -0.056947 0.405 -0.325 0.13812 -0.93557
0.034373 -0.056198 0.405 -0.33414 0.14824 -0.93079
0.034458 -0.055586 0.406 -0.33856 0.16447 -0.92646
0.034458 -0.054834 0.406 -0.34878 0.16573 -0.92244
0.034458 -0.054083 0.406 -0.36004 0.17347 -0.91667
0.034542 -0.053463 0.407 -0.38037 0.1802 -0.90711
0.034542 -0.05271 0.407 -0.40959 0.18905 -0.89247
0.034542 -0.051957 0.407 -0.42654 0.18743 -0.88484
0.034542 -0.051204 0.407 -0.45836 0.18417 -0.86947
0.034627 -0.050575 0.408 -0.47714 0.17808 -0.8606
0.034627 -0.049821 0.408 -0.48857 0.18574 -0.85252
0.034712 -0.049186 0.409 -0.48435 0.19823 -0.85212
0.034712 -0.048429 0.409 -0.47342 0.2146 -0.85429
0.034797 -0.047789 0.41 -0.46908 0.23898 -0.85021
0.034797 -0.047031 0.41 -0.47357 0.24856 -0.84496
0.034797 -0.046272 0.41 -0.50109 0.2367 -0.8324
0.034882 -0.045624 0.411 -0.51911 0.2216 -0.82548
0.034882 -0.044864 0.411 -0.55991 0.19516 -0.80524
0.034967 -0.044211 0.412 -0.57497 0.17669 -0.79886
0.035052 -0.043554 0.413 -0.5875 0.14883 -0.79542
0.035137 -0.042894 0.414 -0.57997 0.12592 -0.80485
0.035137 -0.042128 0.414 -0.55706 0.094367 -0.82509
0.035221 -0.041462 0.415 -0.43246 -0.011438 -0.90158
0.035221 -0.040694 0.415 -0.41331 -0.010373 -0.91053
0.035221 -0.039926 0.415 -0.37255 -0.017977 -0.92784
0.035221 -0.039158 0.415 -0.29348 -0.060587 -0.95404
0.035306 -0.038483 0.416 -0.23845 -0.089302 -0.96704
0.035306 -0.037713 0.416 -0.18216 -0.1029 -0.97787
0.035306 -0.036944 0.416 -0.17167 -0.11763 -0.97811
0.035306 -0.036174 0.416 -0.16738 -0.12703 -0.97767
0.035306 -0.035404 0.416 -0.17872 -0.12161 -0.97635
0.035306 -0.034635 0.416 -0.18197 -0.11224 -0.97688
0.035306 -0.033865 0.416 -0.18312 -0.106 -0.97736
0.035306 -0.033095 0.416 -0.17704 -0.10404 -0.97869
0.035391 -0.032403 0.417 -0.18143 -0.11818 -0.97628
0.035391 -0.031632 0.417 -0.1822 -0.12844 -0.97484
0.035391 -0.03086 0.417 -0.18901 -0.1385 -0.97216
0.035391 -0.030089 0.417 -0.20525 -0.13091 -0.96992
0.035391 -0.029317 0.417 -0.21122 -0.13074 -0.96865
0.035391 -0.028546 0.417 -0.20625 -0.13088 -0.96971
0.035391 -0.027774 0.417 -0.20721 -0.13188 -0.96937
0.035476 -0.027068 0.418 -0.22521 -0.14114 -0.96403
0.035476 -0.026294 0.418 -0.24936 -0.14429 -0.9576
0.035476 -0.025521 0.418 -0.26169 -0.14679 -0.95392
0.035476 -0.024747 0.418 -0.26256 -0.14875 -0.95338
0.035561 -0.024031 0.419 -0.28493 -0.13853 -0.94849
0.035561 -0.023256 0.419 -0.29433 -0.13516 -0.9461
0.035561 -0.022481 0.419 -0.30539 -0.13368 -0.9428
0.035561 -0.021706 0.419 -0.34532 -0.13854 -0.9282
0.035561 -0.020931 0.419 -0.37246 -0.14369 -0.91686
0.035646 -0.020204 0.42 -0.41122 -0.13893 -0.90088
0.035646 -0.019426 0.42 -0.4322 -0.14114 -0.89066
0.035646 -0.018649 0.42 -0.45217 -0.14781 -0.8796
0.035731 -0.017915 0.421 -0.47691 -0.15424 -0.86531
0.035731 -0.017136 0.421 -0.47961 -0.16461 -0.8619
0.035815 -0.016396 0.422 -0.48402 -0.16816 -0.85875
0.035815 -0.015615 0.422 -0.48986 -0.1826 -0.85246
0.0359 -0.01487 0.423 -0.50475 -0.19202 -0.84164
0.0359 -0.014087 0.423 -0.50788 -0.18061 -0.84228
0.0359 -0.013304 0.423 -0.50693 -0.1598 -0.84704
0.035985 -0.012551 0.424 -0.51663 -0.16708 -0.83975
0.035985 -0.011767 0.424 -0.45005 -0.14747 -0.88074
0.03607 -0.011008 0.425 -0.52476 -0.22229 -0.82172
0.036155 -0.010246 0.426 -0.57517 -0.24841 -0.7794
0.03624 -0.0094801 0.427 -0.64324 -0.26223 -0.71935
0.036579 -0.0079741 0.431 -0.86358 -0.22199 -0.45272
0.036579 -0.0071767 0.431 -0.78284 -0.28233 -0.55449
0.040993 -0.0053617 0.483 0.35271 -0.19299 -0.91561
0.040823 -0.00088992 0.481 0.35341 -0.29031 -0.88928
0.040823 0 0.481 0.36239 -0.27399 -0.89084
0.040823 0.00088992 0.481 0.24178 -0.29628 -0.92399
0.040738 0.0017761 0.48 0.36675 -0.29308 -0.88295
0.039295 0.0085661 0.463 0.51922 -0.35939 -0.7754
0.03921 0.0094024 0.462 0.42758 -0.33914 -0.83795
0.039125 0.010235 0.461 0.3532 -0.27588 -0.89395
0.039041 0.011064 0.46 0.32212 -0.18047 -0.92934
0.039041 0.011915 0.46 0.38341 -0.24674 -0.89001
0.039041 0.012766 0.46 0.39492 -0.31263 -0.86389
0.039041 0.013617 0.46 0.36242 -0.3616 -0.85901
0.038956 0.014437 0.459 0.38828 -0.30286 -0.87035
0.038956 0.015286 0.459 0.29704 -0.32207 -0.89891
0.038956 0.017833 0.459 0.13561 -0.32932 -0.93443
0.038956 0.018683 0.459 0.063064 -0.30064 -0.95165
0.038956 0.019532 0.459 0.054257 -0.3148 -0.94761
0.035033 -0.060544 0.404 -0.31539 0.13801 -0.93887
0.035033 -0.059796 0.404 -0.36007 0.10145 -0.92739
0.035033 -0.059049 0.404 -0.38159 0.079661 -0.92089
0.03512 -0.058446 0.405 -0.26597 0.14828 -0.95251
0.03512 -0.057697 0.405 -0.30976 0.12334 -0.94278
0.03512 -0.056947 0.405 -0.31637 0.11599 -0.94152
0.03512 -0.056198 0.405 -0.32345 0.12731 -0.93764
0.035207 -0.055586 0.406 -0.33997 0.13316 -0.93096
0.035207 -0.054834 0.406 -0.34541 0.13287 -0.929
0.035207 -0.054083 0.406 -0.35399 0.14039 -0.92465
0.035207 -0.053332 0.406 -0.3788 0.1507 -0.91313
0.035293 -0.05271 0.407 -0.4067 0.16184 -0.89911
0.035293 -0.051957 0.407 -0.42784 0.16012 -0.88956
0.035293 -0.051204 0.407 -0.45909 0.15645 -0.8745
0.03538 -0.050575 0.408 -0.48055 0.15407 -0.86333
0.03538 -0.049821 0.408 -0.4955 0.15441 -0.85478
0.035467 -0.049186 0.409 -0.49481 0.16044 -0.85406
0.035467 -0.048429 0.409 -0.47965 0.17197 -0.86044
0.035554 -0.047789 0.41 -0.47521 0.19535 -0.85791
0.035554 -0.047031 0.41 -0.47964 0.201 -0.85413
0.035554 -0.046272 0.41 -0.5056 0.19068 -0.84143
0.035554 -0.045513 0.41 -0.52937 0.17717 -0.82969
0.035554 -0.044755 0.41 -0.45688 0.18059 -0.87101
0.03564 -0.044104 0.411 -0.57105 0.15667 -0.80583
0.035814 -0.043554 0.413 -0.60508 0.10583 -0.7891
0.035814 -0.04279 0.413 -0.60444 0.078882 -0.79274
0.0359 -0.042128 0.414 -0.58557 0.051499 -0.80898
0.035987 -0.041462 0.415 -0.47525 -0.027178 -0.87943
0.035987 -0.040694 0.415 -0.44693 -0.03723 -0.89379
0.035987 -0.039926 0.415 -0.39658 -0.056216 -0.91628
0.035987 -0.039158 0.415 -0.31138 -0.091628 -0.94586
0.036074 -0.038483 0.416 -0.24637 -0.12284 -0.96136
0.036074 -0.037713 0.416 -0.18338 -0.13898 -0.97317
0.036074 -0.036944 0.416 -0.16468 -0.15481 -0.97412
0.036074 -0.036174 0.416 -0.16242 -0.16301 -0.97316
0.036074 -0.035404 0.416 -0.16961 -0.16078 -0.97231
0.036074 -0.034635 0.416 -0.17499 -0.14943 -0.97316
0.036074 -0.033865 0.416 -0.17924 -0.14216 -0.97348
0.036074 -0.033095 0.416 -0.17729 -0.13914 -0.97427
0.036161 -0.032403 0.417 -0.18557 -0.15386 -0.97051
0.036161 -0.031632 0.417 -0.18924 -0.16487 -0.96799
0.036161 -0.03086 0.417 -0.19793 -0.17361 -0.96472
0.036161 -0.030089 0.417 -0.21002 -0.16817 -0.96313
0.036161 -0.029317 0.417 -0.21199 -0.1681 -0.96271
0.036161 -0.028546 0.417 -0.20786 -0.17325 -0.96269
0.036247 -0.027841 0.418 -0.21421 -0.17459 -0.96106
0.036247 -0.027068 0.418 -0.23251 -0.17977 -0.95583
0.036247 -0.026294 0.418 -0.25066 -0.18188 -0.95084
0.036247 -0.025521 0.418 -0.25723 -0.18352 -0.94877
0.036247 -0.024747 0.418 -0.25694 -0.18938 -0.94769
0.036334 -0.024031 0.419 -0.27852 -0.17712 -0.94396
0.036334 -0.023256 0.419 -0.28809 -0.17077 -0.94225
0.036334 -0.022481 0.419 -0.30454 -0.17083 -0.93706
0.036334 -0.021706 0.419 -0.34399 -0.17791 -0.92197
0.036334 -0.020931 0.419 -0.36985 -0.18538 -0.91041
0.036421 -0.020204 0.42 -0.41158 -0.18052 -0.89332
0.036421 -0.019426 0.42 -0.43529 -0.18282 -0.88153
0.036421 -0.018649 0.42 -0.45784 -0.18762 -0.86901
0.036507 -0.017915 0.421 -0.48038 -0.19507 -0.8551
0.036507 -0.017136 0.421 -0.48064 -0.20619 -0.85233
0.036594 -0.016396 0.422 -0.48384 -0.20513 -0.85078
0.036594 -0.015615 0.422 -0.48382 -0.21365 -0.84869
0.036681 -0.01487 0.423 -0.49706 -0.22672 -0.83757
0.036681 -0.014087 0.423 -0.4893 -0.20669 -0.84727
0.036768 -0.013336 0.424 -0.5324 -0.22824 -0.81515
0.036768 -0.012551 0.424 -0.48902 -0.1952 -0.85015
0.036854 -0.011795 0.425 -0.5711 -0.24518 -0.78341
0.036854 -0.011008 0.425 -0.4909 -0.23331 -0.8394
0.037028 -0.01027 0.427 -0.67734 -0.28374 -0.67875
0.037028 -0.0094801 0.427 -0.60536 -0.31408 -0.73137
0.037201 -0.0087308 0.429 -0.74572 -0.31065 -0.5894
0.041884 -0.0053617 0.483 0.30267 -0.23464 -0.92376
0.041797 -0.00089177 0.482 0.35351 -0.24135 -0.90376
0.040063 0.010257 0.462 0.41934 -0.38431 -0.82247
0.040063 0.011112 0.462 0.44428 -0.42156 -0.79051
0.039976 0.011941 0.461 0.38371 -0.36406 -0.84866
0.039976 0.012794 0.461 0.35673 -0.42226 -0.83333
0.039889 0.013617 0.46 0.39667 -0.35081 -0.84828
0.039889 0.014468 0.46 0.29972 -0.38919 -0.87103
0.039889 0.015319 0.46 0.21736 -0.42249 -0.87992
0.039889 0.01617 0.46 0.16442 -0.4469 -0.87934
0.039889 0.017021 0.46 0.10763 -0.44911 -0.88697
0.039889 0.018723 0.46 -0.010316 -0.44147 -0.89722
0.039889 0.019574 0.46 -0.033456 -0.44505 -0.89488
0.035779 -0.060544 0.404 -0.3022 0.13717 -0.94332
0.035779 -0.059796 0.404 -0.34255 0.097088 -0.93447
0.035779 -0.059049 0.404 -0.357 0.077819 -0.93086
0.035779 -0.058302 0.404 -0.35819 0.061717 -0.93161
0.035867 -0.057697 0.405 -0.30619 0.10542 -0.94611
0.035867 -0.056947 0.405 -0.31022 0.0993 -0.94546
0.035867 -0.056198 0.405 -0.32523 0.10776 -0.93948
0.035867 -0.055449 0.405 -0.34528 0.11101 -0.93191
0.035956 -0.054834 0.406 -0.34907 0.11057 -0.93055
0.035956 -0.054083 0.406 -0.35714 0.11021 -0.92753
0.035956 -0.053332 0.406 -0.38158 0.11305 -0.9174
0.036044 -0.05271 0.407 -0.4047 0.12624 -0.9057
0.036044 -0.051957 0.407 -0.42602 0.1249 -0.89605
0.036044 -0.051204 0.407 -0.45787 0.11608 -0.88141
0.036133 -0.050575 0.408 -0.47931 0.11807 -0.86967
0.036133 -0.049821 0.408 -0.49485 0.11134 -0.86182
0.036221 -0.049186 0.409 -0.49466 0.11108 -0.86196
0.036221 -0.048429 0.409 -0.48072 0.11581 -0.86919
0.03631 -0.047789 0.41 -0.47883 0.13238 -0.86787
0.03631 -0.047031 0.41 -0.48554 0.12906 -0.86464
0.03631 -0.046272 0.41 -0.51603 0.12103 -0.84798
0.03631 -0.045513 0.41 -0.53548 0.12078 -0.83587
0.03631 -0.044755 0.41 -0.46122 0.12291 -0.87873
0.036399 -0.044104 0.411 -0.58354 0.094263 -0.80659
0.036399 -0.043343 0.411 -0.55917 0.12143 -0.82011
0.036576 -0.04279 0.413 -0.62532 0.016877 -0.78018
0.036664 -0.042128 0.414 -0.60919 -0.0034226 -0.79302
0.036753 -0.041462 0.415 -0.50929 -0.056916 -0.85871
0.036753 -0.040694 0.415 -0.47056 -0.07345 -0.8793
0.036753 -0.039926 0.415 -0.41343 -0.095517 -0.90551
0.036841 -0.039253 0.416 -0.31971 -0.12208 -0.93962
0.036841 -0.038483 0.416 -0.24934 -0.14899 -0.95689
0.036841 -0.037713 0.416 -0.18476 -0.16135 -0.96945
0.036841 -0.036944 0.416 -0.16288 -0.18221 -0.96967
0.036841 -0.036174 0.416 -0.16168 -0.18827 -0.96872
0.036841 -0.035404 0.416 -0.16368 -0.18921 -0.9682
0.036841 -0.034635 0.416 -0.17014 -0.17696 -0.9694
0.036841 -0.033865 0.416 -0.17644 -0.1697 -0.96957
0.03693 -0.033175 0.417 -0.18202 -0.17114 -0.96829
0.03693 -0.032403 0.417 -0.19251 -0.18579 -0.96355
0.03693 -0.031632 0.417 -0.19706 -0.19652 -0.96049
0.03693 -0.03086 0.417 -0.20567 -0.20305 -0.95733
0.03693 -0.030089 0.417 -0.21637 -0.20453 -0.95465
0.03693 -0.029317 0.417 -0.21614 -0.20942 -0.95364
0.037018 -0.028614 0.418 -0.21451 -0.2129 -0.95323
0.037018 -0.027841 0.418 -0.22408 -0.21533 -0.95048
0.037018 -0.027068 0.418 -0.23942 -0.21549 -0.9467
0.037018 -0.026294 0.418 -0.24884 -0.21688 -0.94395
0.037018 -0.025521 0.418 -0.25135 -0.22247 -0.94198
0.037107 -0.024807 0.419 -0.25154 -0.22576 -0.94115
0.037107 -0.024031 0.419 -0.27002 -0.21322 -0.93895
0.037107 -0.023256 0.419 -0.28131 -0.20965 -0.93644
0.037107 -0.022481 0.419 -0.2994 -0.21128 -0.93044
0.037107 -0.021706 0.419 -0.34055 -0.2147 -0.91539
0.037196 -0.020981 0.42 -0.36737 -0.21827 -0.9041
0.037196 -0.020204 0.42 -0.4111 -0.21394 -0.88613
0.037196 -0.019426 0.42 -0.436 -0.21647 -0.87353
0.037284 -0.018694 0.421 -0.45915 -0.2195 -0.86081
0.037284 -0.017915 0.421 -0.47851 -0.22679 -0.84829
0.037373 -0.017177 0.422 -0.48309 -0.23915 -0.84228
0.037373 -0.016396 0.422 -0.48422 -0.23372 -0.84315
0.037461 -0.015652 0.423 -0.49179 -0.25709 -0.8319
0.037461 -0.01487 0.423 -0.49077 -0.24786 -0.83529
0.03755 -0.01412 0.424 -0.51905 -0.26662 -0.8121
0.03755 -0.013336 0.424 -0.52202 -0.23507 -0.8199
0.037638 -0.012581 0.425 -0.57755 -0.2688 -0.77083
0.037638 -0.011795 0.425 -0.54938 -0.2406 -0.80018
0.037727 -0.011034 0.426 -0.59481 -0.28615 -0.75121
0.037815 -0.01027 0.427 -0.65299 -0.31001 -0.69101
0.037904 -0.0095023 0.428 -0.68234 -0.34211 -0.64604
0.03817 -0.0071767 0.431 -0.67884 -0.39353 -0.61993
0.042775 -0.0035745 0.483 0.4078 -0.20188 -0.89047
0.042598 0.00088992 0.481 0.19685 -0.39595 -0.89693
0.040915 0.011112 0.462 0.40313 -0.40445 -0.82092
0.040827 0.011941 0.461 0.37844 -0.30686 -0.87328
0.040738 0.013617 0.46 0.42581 -0.28999 -0.85709
0.040738 0.01617 0.46 0.24227 -0.4166 -0.87622
0.036434 -0.061885 0.403 -0.37984 0.059176 -0.92316
0.036434 -0.06114 0.403 -0.4464 0.0050336 -0.89482
0.036524 -0.060544 0.404 -0.30409 0.11488 -0.94569
0.036524 -0.059796 0.404 -0.33775 0.070992 -0.93856
0.036524 -0.059049 0.404 -0.35157 0.04549 -0.93505
0.036524 -0.058302 0.404 -0.35518 0.033154 -0.93421
0.036614 -0.057697 0.405 -0.31407 0.06862 -0.94692
0.036614 -0.056947 0.405 -0.31145 0.063812 -0.94812
0.036614 -0.056198 0.405 -0.33191 0.069519 -0.94075
0.036614 -0.055449 0.405 -0.34829 0.074206 -0.93444
0.036705 -0.054834 0.406 -0.34845 0.07402 -0.9344
0.036705 -0.054083 0.406 -0.35317 0.065715 -0.93325
0.036705 -0.053332 0.406 -0.37973 0.06599 -0.92274
0.036705 -0.052581 0.406 -0.40176 0.075309 -0.91264
0.036795 -0.051957 0.407 -0.42006 0.074448 -0.90444
0.036795 -0.051204 0.407 -0.4546 0.06532 -0.8883
0.036795 -0.050451 0.407 -0.48031 0.066232 -0.87459
0.036886 -0.049821 0.408 -0.49783 0.057793 -0.86535
0.036886 -0.049066 0.408 -0.49729 0.051203 -0.86607
0.036976 -0.048429 0.409 -0.48927 0.047555 -0.87084
0.036976 -0.047673 0.409 -0.48757 0.05709 -0.87122
0.037066 -0.047031 0.41 -0.49549 0.050073 -0.86717
0.037066 -0.046272 0.41 -0.52671 0.046237 -0.84878
0.037066 -0.045513 0.41 -0.54169 0.055818 -0.83872
0.037066 -0.044755 0.41 -0.46642 0.062176 -0.88237
0.037066 -0.043996 0.41 -0.29756 0.078789 -0.95145
0.037157 -0.043343 0.411 -0.56353 0.06689 -0.82339
0.037338 -0.04279 0.413 -0.63908 -0.037391 -0.76823
0.037428 -0.042128 0.414 -0.62618 -0.052877 -0.77788
0.037518 -0.041462 0.415 -0.53391 -0.08139 -0.84162
0.037518 -0.040694 0.415 -0.49142 -0.10049 -0.8651
0.037609 -0.040022 0.416 -0.38336 -0.12597 -0.91497
0.037609 -0.039253 0.416 -0.32769 -0.14535 -0.93354
0.037609 -0.038483 0.416 -0.25512 -0.17166 -0.95155
0.037609 -0.037713 0.416 -0.19198 -0.18524 -0.96376
0.037609 -0.036944 0.416 -0.16401 -0.2091 -0.96404
0.037609 -0.036174 0.416 -0.16087 -0.21218 -0.9639
0.037609 -0.035404 0.416 -0.16091 -0.21119 -0.96411
0.037699 -0.034718 0.417 -0.16601 -0.19866 -0.96591
0.037699 -0.033946 0.417 -0.17711 -0.19728 -0.96422
0.037699 -0.033175 0.417 -0.18784 -0.20379 -0.96083
0.037699 -0.032403 0.417 -0.19717 -0.21711 -0.95603
0.037699 -0.031632 0.417 -0.19968 -0.2267 -0.95328
0.037699 -0.03086 0.417 -0.20538 -0.23028 -0.95121
0.037699 -0.030089 0.417 -0.21789 -0.23252 -0.94787
0.03779 -0.029388 0.418 -0.21915 -0.23574 -0.94678
0.03779 -0.028614 0.418 -0.21996 -0.23855 -0.94589
0.03779 -0.027841 0.418 -0.23126 -0.2417 -0.94239
0.03779 -0.027068 0.418 -0.24741 -0.24071 -0.93853
0.03779 -0.026294 0.418 -0.25082 -0.24612 -0.93622
0.03788 -0.025582 0.419 -0.25192 -0.24923 -0.93511
0.03788 -0.024807 0.419 -0.25179 -0.2511 -0.93464
0.03788 -0.024031 0.419 -0.26898 -0.2434 -0.93188
0.03788 -0.023256 0.419 -0.2791 -0.24267 -0.92909
0.03788 -0.022481 0.419 -0.30014 -0.25024 -0.92049
0.03797 -0.021758 0.42 -0.33861 -0.24988 -0.90714
0.03797 -0.020981 0.42 -0.3631 -0.24943 -0.89775
0.03797 -0.020204 0.42 -0.40067 -0.24013 -0.88419
0.038061 -0.019473 0.421 -0.42837 -0.24951 -0.86847
0.038061 -0.018694 0.421 -0.45444 -0.24342 -0.85687
0.038151 -0.017957 0.422 -0.4812 -0.26325 -0.83615
0.038151 -0.017177 0.422 -0.48137 -0.25978 -0.83713
0.038242 -0.016435 0.423 -0.4916 -0.28235 -0.82378
0.038242 -0.015652 0.423 -0.48768 -0.27372 -0.829
0.038332 -0.014905 0.424 -0.51062 -0.31909 -0.79841
0.038332 -0.01412 0.424 -0.50931 -0.2772 -0.81472
0.038332 -0.013336 0.424 -0.51003 -0.20478 -0.83542
0.038423 -0.012581 0.425 -0.57153 -0.25117 -0.78119
0.038513 -0.011822 0.426 -0.61873 -0.30463 -0.72413
0.038603 -0.01106 0.427 -0.67413 -0.32354 -0.66398
0.038784 -0.0095245 0.429 -0.74106 -0.37141 -0.55936
0.043666 -0.0035745 0.483 0.35385 -0.26337 -0.89746
0.043485 0.00088992 0.481 0.21959 -0.41981 -0.88065
0.041768 0.011967 0.462 0.39422 -0.41473 -0.82012
0.041677 0.012794 0.461 0.37655 -0.31316 -0.87186
0.041677 0.013647 0.461 0.35302 -0.39243 -0.84934
0.037085 -0.062475 0.402 -0.53276 -0.10337 -0.83993
0.037177 -0.061885 0.403 -0.36572 0.025689 -0.93037
0.037177 -0.06114 0.403 -0.42847 -0.023755 -0.90324
0.037269 -0.060544 0.404 -0.31167 0.084416 -0.94643
0.037269 -0.059796 0.404 -0.33185 0.040272 -0.94247
0.037269 -0.059049 0.404 -0.34465 0.017092 -0.93858
0.037269 -0.058302 0.404 -0.34693 0.0094615 -0.93784
0.037362 -0.057697 0.405 -0.31306 0.033396 -0.94915
0.037362 -0.056947 0.405 -0.30749 0.034227 -0.95093
0.037362 -0.056198 0.405 -0.3325 0.03638 -0.9424
0.037362 -0.055449 0.405 -0.34903 0.036149 -0.93642
0.037362 -0.054699 0.405 -0.34538 0.036201 -0.93776
0.037454 -0.054083 0.406 -0.34929 0.025764 -0.93666
0.037454 -0.053332 0.406 -0.37609 0.022421 -0.92631
0.037454 -0.052581 0.406 -0.4036 0.027167 -0.91453
0.037546 -0.051957 0.407 -0.41778 0.026911 -0.90815
0.037546 -0.051204 0.407 -0.45701 0.022446 -0.88918
0.037546 -0.050451 0.407 -0.48348 0.02113 -0.8751
0.037638 -0.049821 0.408 -0.50147 0.012313 -0.86509
0.037638 -0.049066 0.408 -0.49723 -0.0009499 -0.86762
0.037731 -0.048429 0.409 -0.4934 -0.012348 -0.86972
0.037731 -0.047673 0.409 -0.48834 -0.010483 -0.87259
0.037823 -0.047031 0.41 -0.49602 -0.019861 -0.86809
0.037823 -0.046272 0.41 -0.53046 -0.024003 -0.84737
0.037823 -0.045513 0.41 -0.54174 -0.0069285 -0.84052
0.037823 -0.044755 0.41 -0.46776 -0.0024594 -0.88385
0.037823 -0.043996 0.41 -0.29453 0.011534 -0.95557
0.037915 -0.043343 0.411 -0.56761 0.0059447 -0.82328
0.0381 -0.04279 0.413 -0.65057 -0.086502 -0.7545
0.038192 -0.042128 0.414 -0.64105 -0.095317 -0.76155
0.038284 -0.041462 0.415 -0.56133 -0.10363 -0.82108
0.038284 -0.040694 0.415 -0.51789 -0.12678 -0.846
0.038376 -0.040022 0.416 -0.40924 -0.14684 -0.90053
0.038376 -0.039253 0.416 -0.34727 -0.17414 -0.92146
0.038376 -0.038483 0.416 -0.26988 -0.19831 -0.94225
0.038376 -0.037713 0.416 -0.20474 -0.21238 -0.9555
0.038376 -0.036944 0.416 -0.16693 -0.23737 -0.95697
0.038376 -0.036174 0.416 -0.15793 -0.23676 -0.95865
0.038469 -0.035489 0.417 -0.15688 -0.22849 -0.96082
0.038469 -0.034718 0.417 -0.16113 -0.22248 -0.96153
0.038469 -0.033946 0.417 -0.17096 -0.22698 -0.95878
0.038469 -0.033175 0.417 -0.18658 -0.2331 -0.95439
0.038469 -0.032403 0.417 -0.19612 -0.23938 -0.95091
0.038469 -0.031632 0.417 -0.19892 -0.24211 -0.94964
0.038469 -0.03086 0.417 -0.20966 -0.24155 -0.94747
0.038561 -0.030161 0.418 -0.2206 -0.24421 -0.9443
0.038561 -0.029388 0.418 -0.2214 -0.247 -0.94339
0.038561 -0.028614 0.418 -0.2258 -0.25332 -0.94066
0.038561 -0.027841 0.418 -0.23946 -0.26177 -0.93495
0.038561 -0.027068 0.418 -0.25201 -0.26919 -0.92953
0.038561 -0.026294 0.418 -0.25267 -0.27281 -0.9283
0.038653 -0.025582 0.419 -0.25109 -0.27414 -0.92833
0.038653 -0.024807 0.419 -0.2526 -0.27857 -0.9266
0.038653 -0.024031 0.419 -0.26566 -0.27576 -0.92379
0.038653 -0.023256 0.419 -0.27602 -0.28211 -0.91882
0.038745 -0.022535 0.42 -0.30139 -0.28896 -0.90866
0.038745 -0.021758 0.42 -0.33968 -0.29021 -0.89465
0.038745 -0.020981 0.42 -0.35812 -0.28667 -0.88858
0.038745 -0.020204 0.42 -0.39096 -0.26901 -0.88022
0.038838 -0.019473 0.421 -0.42555 -0.27999 -0.86053
0.038838 -0.018694 0.421 -0.44657 -0.25983 -0.85619
0.03893 -0.017957 0.422 -0.47853 -0.28705 -0.82983
0.03893 -0.017177 0.422 -0.47232 -0.27019 -0.83899
0.039022 -0.016435 0.423 -0.48856 -0.30305 -0.81821
0.039022 -0.015652 0.423 -0.47497 -0.26979 -0.83762
0.039114 -0.014905 0.424 -0.50463 -0.32717 -0.79894
0.039114 -0.01412 0.424 -0.49881 -0.25059 -0.8297
0.039207 -0.013367 0.425 -0.56966 -0.30131 -0.76465
0.039207 -0.012581 0.425 -0.57235 -0.18135 -0.79971
0.039299 -0.011822 0.426 -0.61702 -0.25623 -0.74406
0.039576 -0.010318 0.429 -0.73905 -0.41714 -0.52896
0.039576 -0.0095245 0.429 -0.7178 -0.34105 -0.607
0.039668 -0.0087512 0.43 -0.70574 -0.34548 -0.61853
0.044649 -0.0053728 0.484 0.34778 -0.30907 -0.88517
0.044557 -0.0026809 0.483 0.32042 -0.31275 -0.89416
0.044465 -0.0017835 0.482 0.25735 -0.35478 -0.89883
0.044465 -0.00089177 0.482 0.25525 -0.3436 -0.90376
0.042712 0.011993 0.463 0.38358 -0.52737 -0.75812
0.04262 0.012821 0.462 0.35218 -0.43018 -0.83121
0.04262 0.013676 0.462 0.29767 -0.49799 -0.81449
0.037827 -0.063219 0.402 -0.47873 -0.1106 -0.87097
0.037827 -0.062475 0.402 -0.50899 -0.14845 -0.84787
0.037921 -0.061885 0.403 -0.36117 -0.01539 -0.93237
0.037921 -0.06114 0.403 -0.41867 -0.053019 -0.90659
0.038015 -0.060544 0.404 -0.32594 0.041685 -0.94447
0.038015 -0.059796 0.404 -0.33467 0.0068476 -0.94231
0.038015 -0.059049 0.404 -0.34269 -0.011754 -0.93937
0.038015 -0.058302 0.404 -0.34126 -0.013854 -0.93987
0.038109 -0.057697 0.405 -0.31642 0.0022321 -0.94862
0.038109 -0.056947 0.405 -0.30541 0.0073515 -0.95219
0.038109 -0.056198 0.405 -0.33271 0.0052005 -0.94301
0.038109 -0.055449 0.405 -0.35107 0.0051637 -0.93634
0.038109 -0.054699 0.405 -0.33918 0.0051878 -0.94071
0.038203 -0.054083 0.406 -0.34486 -0.0010327 -0.93865
0.038203 -0.053332 0.406 -0.37355 -0.0030617 -0.92761
0.038203 -0.052581 0.406 -0.4029 -0.0030209 -0.91524
0.038297 -0.051957 0.407 -0.41876 -0.00299 -0.90809
0.038297 -0.051204 0.407 -0.45944 -0.0029245 -0.8882
0.038297 -0.050451 0.407 -0.48727 -0.0019168 -0.87325
0.038391 -0.049821 0.408 -0.5064 -0.016047 -0.86215
0.038391 -0.049066 0.408 -0.50262 -0.034992 -0.8638
0.038485 -0.048429 0.409 -0.49844 -0.053864 -0.86525
0.038579 -0.047789 0.41 -0.48859 -0.065407 -0.87006
0.038579 -0.047031 0.41 -0.49323 -0.076471 -0.86653
0.038579 -0.046272 0.41 -0.52754 -0.081077 -0.84565
0.038579 -0.045513 0.41 -0.53627 -0.063098 -0.84169
0.038673 -0.044864 0.411 -0.59787 -0.085112 -0.79706
0.038579 -0.043996 0.41 -0.27849 -0.055676 -0.95883
0.038768 -0.043449 0.412 -0.65276 -0.11607 -0.74862
0.038862 -0.04279 0.413 -0.65722 -0.13397 -0.7417
0.038956 -0.042128 0.414 -0.65184 -0.13837 -0.74562
0.03905 -0.041462 0.415 -0.58648 -0.13358 -0.79888
0.039144 -0.040792 0.416 -0.47588 -0.12997 -0.86986
0.039144 -0.040022 0.416 -0.43164 -0.1696 -0.88596
0.039144 -0.039253 0.416 -0.36254 -0.20129 -0.90997
0.039144 -0.038483 0.416 -0.27963 -0.22168 -0.93416
0.039144 -0.037713 0.416 -0.21144 -0.23531 -0.94864
0.039144 -0.036944 0.416 -0.16916 -0.25458 -0.95214
0.039238 -0.036261 0.417 -0.15363 -0.25943 -0.95347
0.039238 -0.035489 0.417 -0.15179 -0.25569 -0.95477
0.039238 -0.034718 0.417 -0.15479 -0.25557 -0.95432
0.039238 -0.033946 0.417 -0.16948 -0.26064 -0.95044
0.039238 -0.033175 0.417 -0.18518 -0.26178 -0.9472
0.039238 -0.032403 0.417 -0.19959 -0.26572 -0.94316
0.039332 -0.031708 0.418 -0.20589 -0.26571 -0.94181
0.039332 -0.030934 0.418 -0.2145 -0.26613 -0.93977
0.039332 -0.030161 0.418 -0.22823 -0.27451 -0.93411
0.039332 -0.029388 0.418 -0.23062 -0.28076 -0.93166
0.039332 -0.028614 0.418 -0.23562 -0.28949 -0.92773
0.039332 -0.027841 0.418 -0.24934 -0.29207 -0.92332
0.039426 -0.027132 0.419 -0.2557 -0.29717 -0.91995
0.039426 -0.026357 0.419 -0.25095 -0.29933 -0.92056
0.039426 -0.025582 0.419 -0.24874 -0.30393 -0.91965
0.039426 -0.024807 0.419 -0.24822 -0.31014 -0.91771
0.039426 -0.024031 0.419 -0.26353 -0.31147 -0.91299
0.03952 -0.023312 0.42 -0.27569 -0.31834 -0.90701
0.03952 -0.022535 0.42 -0.29799 -0.3305 -0.89553
0.03952 -0.021758 0.42 -0.33373 -0.32339 -0.88546
0.03952 -0.020981 0.42 -0.34858 -0.3112 -0.88411
0.039614 -0.020252 0.421 -0.39918 -0.31145 -0.86235
0.039614 -0.019473 0.421 -0.41723 -0.30122 -0.85743
0.039708 -0.018738 0.422 -0.46585 -0.32615 -0.82256
0.039708 -0.017957 0.422 -0.46469 -0.30514 -0.83124
0.039803 -0.017217 0.423 -0.49014 -0.35248 -0.7972
0.039803 -0.016435 0.423 -0.47848 -0.31062 -0.82133
0.039897 -0.015689 0.424 -0.50474 -0.3767 -0.77675
0.039897 -0.014905 0.424 -0.49815 -0.31109 -0.80936
0.039991 -0.014154 0.425 -0.53882 -0.36789 -0.75785
0.039991 -0.013367 0.425 -0.57246 -0.24518 -0.78242
0.040085 -0.012611 0.426 -0.60546 -0.3119 -0.73222
0.040179 -0.01106 0.427 -0.67983 -0.20338 -0.7046
0.040367 -0.010318 0.429 -0.72255 -0.3975 -0.56561
0.040461 -0.0095467 0.43 -0.74366 -0.38332 -0.54776
0.040555 -0.0087715 0.431 -0.74133 -0.37323 -0.55779
0.045542 -0.0053728 0.484 0.26283 -0.36207 -0.89433
0.045448 -0.0035745 0.483 0.17969 -0.37197 -0.91069
0.045448 -0.0026809 0.483 0.26297 -0.36639 -0.89253
0.045354 -0.00089177 0.482 0.26805 -0.3761 -0.88696
0.045354 0 0.482 0.22763 -0.41461 -0.88107
0.045354 0.0026753 0.482 0.15984 -0.40186 -0.90164
0.04526 0.0035597 0.481 0.33398 -0.40035 -0.85333
0.043566 0.011993 0.463 0.33158 -0.48434 -0.80961
0.043566 0.012849 0.463 0.3268 -0.53122 -0.78167
0.043566 0.013706 0.463 0.25515 -0.58889 -0.76688
0.038568 -0.063963 0.402 -0.41893 -0.11553 -0.90064
0.038568 -0.063219 0.402 -0.47206 -0.15672 -0.86752
0.038568 -0.062475 0.402 -0.49754 -0.19243 -0.84582
0.038664 -0.061885 0.403 -0.36776 -0.067863 -0.92744
0.038664 -0.06114 0.403 -0.41149 -0.093379 -0.90662
0.03876 -0.060544 0.404 -0.33605 -0.011182 -0.94178
0.03876 -0.059796 0.404 -0.34166 -0.038286 -0.93904
0.03876 -0.059049 0.404 -0.34135 -0.052817 -0.93845
0.03876 -0.058302 0.404 -0.33389 -0.050703 -0.94125
0.038856 -0.057697 0.405 -0.31629 -0.032707 -0.9481
0.038856 -0.056947 0.405 -0.29861 -0.026306 -0.95401
0.038856 -0.056198 0.405 -0.3251 -0.032315 -0.94513
0.038856 -0.055449 0.405 -0.34268 -0.032102 -0.9389
0.038952 -0.054834 0.406 -0.33464 -0.026946 -0.94196
0.038952 -0.054083 0.406 -0.34106 -0.028946 -0.9396
0.038952 -0.053332 0.406 -0.36986 -0.029629 -0.92862
0.038952 -0.052581 0.406 -0.39927 -0.034273 -0.91619
0.039048 -0.051957 0.407 -0.42023 -0.028867 -0.90696
0.039048 -0.051204 0.407 -0.46162 -0.024331 -0.88675
0.039048 -0.050451 0.407 -0.49008 -0.021041 -0.87142
0.039144 -0.049821 0.408 -0.51314 -0.034741 -0.8576
0.039144 -0.049066 0.408 -0.50843 -0.057381 -0.85919
0.03924 -0.048429 0.409 -0.50611 -0.077863 -0.85895
0.039336 -0.047789 0.41 -0.49705 -0.10233 -0.86167
0.039336 -0.047031 0.41 -0.49819 -0.11976 -0.85876
0.039432 -0.046385 0.411 -0.52816 -0.12506 -0.83988
0.039432 -0.045624 0.411 -0.56571 -0.1344 -0.81358
0.039432 -0.044864 0.411 -0.59525 -0.12203 -0.79422
0.039432 -0.044104 0.411 -0.58101 -0.10761 -0.80675
0.039624 -0.043554 0.413 -0.65433 -0.15452 -0.74025
0.039624 -0.04279 0.413 -0.66124 -0.17216 -0.73015
0.03972 -0.042128 0.414 -0.65688 -0.17937 -0.73235
0.039815 -0.041462 0.415 -0.6024 -0.16522 -0.78091
0.039911 -0.040792 0.416 -0.50057 -0.15053 -0.85251
0.039911 -0.040022 0.416 -0.45161 -0.19347 -0.87099
0.040007 -0.039347 0.417 -0.37771 -0.22965 -0.897
0.040007 -0.038575 0.417 -0.29255 -0.24921 -0.92321
0.040007 -0.037804 0.417 -0.2236 -0.26617 -0.93764
0.040007 -0.037032 0.417 -0.17814 -0.28362 -0.94224
0.040007 -0.036261 0.417 -0.1582 -0.28924 -0.94409
0.040007 -0.035489 0.417 -0.15127 -0.28956 -0.94513
0.040007 -0.034718 0.417 -0.15519 -0.2903 -0.94427
0.040007 -0.033946 0.417 -0.17061 -0.29599 -0.93983
0.040007 -0.033175 0.417 -0.18612 -0.29697 -0.93657
0.040103 -0.032481 0.418 -0.19913 -0.29736 -0.93377
0.040103 -0.031708 0.418 -0.20404 -0.29525 -0.93338
0.040103 -0.030934 0.418 -0.21093 -0.29209 -0.93284
0.040103 -0.030161 0.418 -0.22829 -0.29992 -0.92625
0.040103 -0.029388 0.418 -0.23451 -0.30392 -0.92338
0.040199 -0.028683 0.419 -0.24283 -0.30882 -0.9196
0.040199 -0.027907 0.419 -0.24998 -0.31088 -0.91699
0.040199 -0.027132 0.419 -0.2547 -0.31919 -0.91282
0.040199 -0.026357 0.419 -0.24699 -0.32419 -0.91318
0.040199 -0.025582 0.419 -0.24683 -0.32593 -0.9126
0.040295 -0.024866 0.42 -0.25209 -0.33164 -0.9091
0.040295 -0.024089 0.42 -0.26763 -0.33698 -0.90267
0.040295 -0.023312 0.42 -0.28467 -0.34939 -0.89269
0.040295 -0.022535 0.42 -0.30134 -0.35601 -0.88456
0.040295 -0.021758 0.42 -0.33104 -0.34136 -0.8797
0.040391 -0.021031 0.421 -0.36423 -0.34408 -0.86542
0.040391 -0.020252 0.421 -0.39078 -0.32588 -0.86087
0.040391 -0.019473 0.421 -0.39478 -0.30126 -0.86798
0.040487 -0.018738 0.422 -0.44995 -0.33087 -0.8295
0.040583 -0.018 0.423 -0.493 -0.38199 -0.78168
0.040583 -0.017217 0.423 -0.47766 -0.34368 -0.80853
0.040679 -0.016474 0.424 -0.50669 -0.40879 -0.75904
0.040679 -0.015689 0.424 -0.49297 -0.34366 -0.7993
0.040679 -0.014905 0.424 -0.49263 -0.23219 -0.83869
0.040775 -0.014154 0.425 -0.54539 -0.29814 -0.78336
0.040775 -0.013367 0.425 -0.58111 -0.14079 -0.80155
0.041063 -0.011086 0.428 -0.68461 -0.3191 -0.65535
0.041255 -0.010342 0.43 -0.70479 -0.48238 -0.52018
0.041351 -0.0095689 0.431 -0.71258 -0.47155 -0.51948
0.046531 -0.0062812 0.485 0.3259 -0.41498 -0.84946
0.046435 -0.0035819 0.484 0.28759 -0.43039 -0.8556
0.046339 -0.0026809 0.483 0.20667 -0.46224 -0.86234
0.046339 -0.0017872 0.483 0.2665 -0.452 -0.85128
0.046339 -0.00089362 0.483 0.25942 -0.43907 -0.86019
0.046244 0.0017835 0.482 0.23574 -0.50004 -0.8333
0.046244 0.0026753 0.482 0.21235 -0.48755 -0.84688
0.046244 0.0035671 0.482 0.20506 -0.47012 -0.85845
0.046244 0.0044588 0.482 0.13624 -0.51733 -0.84487
0.046244 0.0053506 0.482 0.10218 -0.48681 -0.86751
0.044517 0.012019 0.464 0.29249 -0.55753 -0.77692
0.044517 0.012877 0.464 0.25147 -0.60242 -0.75753
0.03931 -0.063963 0.402 -0.41486 -0.16947 -0.89396
0.03931 -0.063219 0.402 -0.46757 -0.20093 -0.86082
0.039408 -0.062631 0.403 -0.34407 -0.082035 -0.93535
0.039408 -0.061885 0.403 -0.37262 -0.11944 -0.92027
0.039408 -0.06114 0.403 -0.39934 -0.13139 -0.90734
0.039506 -0.060544 0.404 -0.34252 -0.062493 -0.93743
0.039506 -0.059796 0.404 -0.34398 -0.079808 -0.93558
0.039506 -0.059049 0.404 -0.33559 -0.091184 -0.93758
0.039506 -0.058302 0.404 -0.32246 -0.086402 -0.94263
0.039506 -0.057554 0.404 -0.31732 -0.074983 -0.94535
0.039603 -0.056947 0.405 -0.29243 -0.057904 -0.95453
0.039603 -0.056198 0.405 -0.31608 -0.067842 -0.9463
0.039603 -0.055449 0.405 -0.33669 -0.062177 -0.93956
0.039701 -0.054834 0.406 -0.33245 -0.052837 -0.94164
0.039701 -0.054083 0.406 -0.33801 -0.050665 -0.93978
0.039701 -0.053332 0.406 -0.36601 -0.050098 -0.92926
0.039799 -0.05271 0.407 -0.39373 -0.059399 -0.91731
0.039799 -0.051957 0.407 -0.41989 -0.04973 -0.90621
0.039799 -0.051204 0.407 -0.46137 -0.040854 -0.88627
0.039897 -0.050575 0.408 -0.48897 -0.035307 -0.87158
0.039897 -0.049821 0.408 -0.51632 -0.047744 -0.85507
0.039897 -0.049066 0.408 -0.51763 -0.071875 -0.85258
0.039994 -0.048429 0.409 -0.52014 -0.087224 -0.84961
0.040092 -0.047789 0.41 -0.51421 -0.11755 -0.84957
0.040092 -0.047031 0.41 -0.51296 -0.14563 -0.84597
0.04019 -0.046385 0.411 -0.5401 -0.14681 -0.8287
0.04019 -0.045624 0.411 -0.57394 -0.15554 -0.80399
0.04019 -0.044864 0.411 -0.59627 -0.13834 -0.79077
0.040288 -0.044211 0.412 -0.63215 -0.16499 -0.75708
0.040386 -0.043554 0.413 -0.65802 -0.17356 -0.73273
0.040483 -0.042894 0.414 -0.66345 -0.18903 -0.72395
0.040581 -0.042229 0.415 -0.63253 -0.16186 -0.75744
0.040581 -0.041462 0.415 -0.61839 -0.19356 -0.76167
0.040679 -0.040792 0.416 -0.53183 -0.18346 -0.82674
0.040679 -0.040022 0.416 -0.47414 -0.22469 -0.8513
0.040777 -0.039347 0.417 -0.39596 -0.256 -0.88186
0.040777 -0.038575 0.417 -0.30878 -0.27772 -0.90968
0.040777 -0.037804 0.417 -0.23468 -0.29651 -0.92575
0.040777 -0.037032 0.417 -0.1814 -0.31082 -0.933
0.040777 -0.036261 0.417 -0.15186 -0.31691 -0.93622
0.040777 -0.035489 0.417 -0.14107 -0.31652 -0.93804
0.040777 -0.034718 0.417 -0.14661 -0.32345 -0.93482
0.040777 -0.033946 0.417 -0.16412 -0.32433 -0.9316
0.040875 -0.033254 0.418 -0.18142 -0.31909 -0.9302
0.040875 -0.032481 0.418 -0.19721 -0.31188 -0.92943
0.040875 -0.031708 0.418 -0.19943 -0.30726 -0.93049
0.040875 -0.030934 0.418 -0.20458 -0.30154 -0.93125
0.040875 -0.030161 0.418 -0.22573 -0.30902 -0.92388
0.040972 -0.029458 0.419 -0.23533 -0.31029 -0.92105
0.040972 -0.028683 0.419 -0.24799 -0.31279 -0.91688
0.040972 -0.027907 0.419 -0.25295 -0.31848 -0.91356
0.040972 -0.027132 0.419 -0.25473 -0.32868 -0.90944
0.04107 -0.02642 0.42 -0.24861 -0.33024 -0.91057
0.04107 -0.025643 0.42 -0.25464 -0.33311 -0.90785
0.04107 -0.024866 0.42 -0.26567 -0.33885 -0.90255
0.04107 -0.024089 0.42 -0.28047 -0.34819 -0.89448
0.04107 -0.023312 0.42 -0.29622 -0.36031 -0.88455
0.04107 -0.022535 0.42 -0.3052 -0.36095 -0.88123
0.041168 -0.021809 0.421 -0.34441 -0.35546 -0.86892
0.041168 -0.021031 0.421 -0.35785 -0.34087 -0.86934
0.041168 -0.020252 0.421 -0.37021 -0.31692 -0.87322
0.041266 -0.019519 0.422 -0.43109 -0.34553 -0.83353
0.041266 -0.018738 0.422 -0.42061 -0.3011 -0.85582
0.041363 -0.018 0.423 -0.47705 -0.3554 -0.80381
0.041363 -0.017217 0.423 -0.45297 -0.29427 -0.84156
0.041461 -0.016474 0.424 -0.4962 -0.36673 -0.78695
0.041461 -0.015689 0.424 -0.46909 -0.27489 -0.83928
0.041559 -0.014154 0.425 -0.54736 -0.2012 -0.81235
0.041657 -0.013399 0.426 -0.61323 -0.25807 -0.74656
0.042146 -0.010366 0.431 -0.66893 -0.54602 -0.50438
0.042244 -0.0095911 0.432 -0.6918 -0.53058 -0.48979
0.047524 -0.0062942 0.486 0.38735 -0.48652 -0.78311
0.047328 -0.0026864 0.484 0.23071 -0.52829 -0.81712
0.047231 -0.0017872 0.483 0.19979 -0.4916 -0.84759
0.047231 0.0017872 0.483 0.15135 -0.53577 -0.83069
0.047231 0.0026809 0.483 0.099121 -0.55315 -0.82717
0.047231 0.0035745 0.483 0.077026 -0.56 -0.82491
0.047231 0.0044681 0.483 0.054102 -0.57423 -0.8169
0.047231 0.0053617 0.483 0.027498 -0.5612 -0.82723
0.045666 0.012096 0.467 0.29459 -0.84676 -0.44295
0.040052 -0.063963 0.402 -0.42412 -0.21734 -0.87914
0.040052 -0.063219 0.402 -0.46705 -0.23591 -0.85218
0.040151 -0.062631 0.403 -0.36089 -0.13792 -0.92235
0.040151 -0.061885 0.403 -0.37514 -0.1616 -0.91277
0.040151 -0.06114 0.403 -0.38698 -0.15563 -0.90886
0.040251 -0.060544 0.404 -0.34808 -0.11149 -0.93081
0.040251 -0.059796 0.404 -0.34232 -0.11859 -0.93207
0.040251 -0.059049 0.404 -0.32815 -0.12217 -0.93669
0.040251 -0.058302 0.404 -0.31176 -0.11163 -0.94358
0.040351 -0.057697 0.405 -0.30486 -0.099249 -0.94721
0.040351 -0.056947 0.405 -0.28596 -0.089444 -0.95406
0.040351 -0.056198 0.405 -0.30774 -0.09812 -0.9464
0.04045 -0.055586 0.406 -0.327 -0.087994 -0.94092
0.04045 -0.054834 0.406 -0.32362 -0.075751 -0.94315
0.04045 -0.054083 0.406 -0.33011 -0.075571 -0.94091
0.04045 -0.053332 0.406 -0.35476 -0.073833 -0.93204
0.04055 -0.05271 0.407 -0.38451 -0.082744 -0.9194
0.04055 -0.051957 0.407 -0.41362 -0.069742 -0.90778
0.04055 -0.051204 0.407 -0.45855 -0.062268 -0.88648
0.040649 -0.050575 0.408 -0.48563 -0.054447 -0.87246
0.040649 -0.049821 0.408 -0.51583 -0.064534 -0.85426
0.040749 -0.049186 0.409 -0.52571 -0.083215 -0.84659
0.040749 -0.048429 0.409 -0.53697 -0.096112 -0.83811
0.040849 -0.047789 0.41 -0.5333 -0.13022 -0.83585
0.040849 -0.047031 0.41 -0.53641 -0.15632 -0.82936
0.040948 -0.046385 0.411 -0.55874 -0.15325 -0.81506
0.040948 -0.045624 0.411 -0.58707 -0.16123 -0.79332
0.041048 -0.044973 0.412 -0.6151 -0.15586 -0.77289
0.041048 -0.044211 0.412 -0.6375 -0.16872 -0.75175
0.041148 -0.043554 0.413 -0.66266 -0.17485 -0.72822
0.041247 -0.042894 0.414 -0.66561 -0.19509 -0.72035
0.041347 -0.042229 0.415 -0.64407 -0.1781 -0.74395
0.041347 -0.041462 0.415 -0.6268 -0.20837 -0.7508
0.041446 -0.040792 0.416 -0.55769 -0.20651 -0.80395
0.041546 -0.040118 0.417 -0.487 -0.23508 -0.84117
0.041546 -0.039347 0.417 -0.4147 -0.26825 -0.86952
0.041546 -0.038575 0.417 -0.32574 -0.29014 -0.89984
0.041546 -0.037804 0.417 -0.24667 -0.30896 -0.91853
0.041546 -0.037032 0.417 -0.18054 -0.32427 -0.92858
0.041546 -0.036261 0.417 -0.14696 -0.33498 -0.93069
0.041546 -0.035489 0.417 -0.13697 -0.33899 -0.93076
0.041646 -0.034801 0.418 -0.14334 -0.34148 -0.9289
0.041646 -0.034028 0.418 -0.16195 -0.33786 -0.92716
0.041646 -0.033254 0.418 -0.18084 -0.32798 -0.92722
0.041646 -0.032481 0.418 -0.19742 -0.32251 -0.92575
0.041646 -0.031708 0.418 -0.2004 -0.32055 -0.92579
0.041646 -0.030934 0.418 -0.2063 -0.3175 -0.92555
0.041745 -0.030233 0.419 -0.22774 -0.32402 -0.91823
0.041745 -0.029458 0.419 -0.23879 -0.32401 -0.91542
0.041745 -0.028683 0.419 -0.2466 -0.32853 -0.91173
0.041745 -0.027907 0.419 -0.25167 -0.33238 -0.90895
0.041745 -0.027132 0.419 -0.25374 -0.339 -0.90592
0.041845 -0.02642 0.42 -0.25201 -0.34182 -0.90534
0.041845 -0.025643 0.42 -0.26149 -0.34513 -0.90139
0.041845 -0.024866 0.42 -0.27012 -0.35504 -0.89497
0.041845 -0.024089 0.42 -0.28738 -0.36295 -0.88639
0.041945 -0.023367 0.421 -0.30469 -0.36815 -0.87842
0.041945 -0.022588 0.421 -0.31666 -0.37176 -0.87265
0.041945 -0.021809 0.421 -0.34129 -0.35549 -0.87014
0.041945 -0.021031 0.421 -0.33748 -0.33979 -0.87787
0.042044 -0.0203 0.422 -0.41149 -0.36053 -0.83707
0.042044 -0.019519 0.422 -0.39845 -0.3273 -0.8568
0.042144 -0.018783 0.423 -0.47276 -0.37262 -0.79853
0.042144 -0.018 0.423 -0.44422 -0.32258 -0.83583
0.048221 -0.00089547 0.484 0.22527 -0.53178 -0.81637
0.040793 -0.064707 0.402 -0.36788 -0.25906 -0.89306
0.040793 -0.063963 0.402 -0.42691 -0.27743 -0.86069
0.040895 -0.063377 0.403 -0.34348 -0.17362 -0.92297
0.040895 -0.062631 0.403 -0.36639 -0.1954 -0.90971
0.040895 -0.061885 0.403 -0.36894 -0.20354 -0.90689
0.040996 -0.061291 0.404 -0.32651 -0.15228 -0.93285
0.040996 -0.060544 0.404 -0.33764 -0.15697 -0.92809
0.040996 -0.059796 0.404 -0.33104 -0.15411 -0.93095
0.040996 -0.059049 0.404 -0.31863 -0.14904 -0.93609
0.040996 -0.058302 0.404 -0.30129 -0.13771 -0.94354
0.041098 -0.057697 0.405 -0.29528 -0.12844 -0.94674
0.041098 -0.056947 0.405 -0.28319 -0.11758 -0.95183
0.041098 -0.056198 0.405 -0.307 -0.11975 -0.94414
0.041199 -0.055586 0.406 -0.32363 -0.10654 -0.94017
0.041199 -0.054834 0.406 -0.3185 -0.092379 -0.94341
0.041199 -0.054083 0.406 -0.32882 -0.088961 -0.94019
0.041199 -0.053332 0.406 -0.3472 -0.086302 -0.93381
0.041301 -0.05271 0.407 -0.38082 -0.089892 -0.92027
0.041301 -0.051957 0.407 -0.40932 -0.07485 -0.90932
0.041301 -0.051204 0.407 -0.45477 -0.059493 -0.88862
0.041402 -0.050575 0.408 -0.47838 -0.049914 -0.87673
0.041402 -0.049821 0.408 -0.51343 -0.052514 -0.85652
0.041504 -0.049186 0.409 -0.53107 -0.065508 -0.84479
0.041504 -0.048429 0.409 -0.55189 -0.078882 -0.83018
0.041605 -0.047789 0.41 -0.55309 -0.10977 -0.82586
0.041605 -0.047031 0.41 -0.55897 -0.132 -0.81861
0.041707 -0.046385 0.411 -0.58101 -0.13351 -0.80287
0.041707 -0.045624 0.411 -0.60165 -0.13922 -0.78653
0.041808 -0.044973 0.412 -0.63069 -0.14546 -0.76228
0.041808 -0.044211 0.412 -0.64675 -0.15419 -0.74696
0.04191 -0.043554 0.413 -0.66886 -0.17652 -0.72213
0.042011 -0.042894 0.414 -0.66791 -0.19959 -0.71698
0.042113 -0.042229 0.415 -0.65274 -0.20092 -0.73045
0.042113 -0.041462 0.415 -0.63139 -0.22533 -0.74201
0.042214 -0.040792 0.416 -0.57321 -0.23024 -0.7864
0.042315 -0.040118 0.417 -0.50058 -0.25652 -0.82681
0.042315 -0.039347 0.417 -0.42609 -0.28511 -0.85858
0.042315 -0.038575 0.417 -0.33619 -0.3105 -0.88914
0.042417 -0.037895 0.418 -0.25408 -0.332 -0.90842
0.042417 -0.037121 0.418 -0.18428 -0.34691 -0.91962
0.042417 -0.036348 0.418 -0.15116 -0.35665 -0.92193
0.042417 -0.035574 0.418 -0.13551 -0.36004 -0.92304
0.042417 -0.034801 0.418 -0.14133 -0.35974 -0.92229
0.042417 -0.034028 0.418 -0.16367 -0.35593 -0.92007
0.042417 -0.033254 0.418 -0.18022 -0.35061 -0.91902
0.042417 -0.032481 0.418 -0.19466 -0.34706 -0.91742
0.042417 -0.031708 0.418 -0.19554 -0.34786 -0.91693
0.042518 -0.031008 0.419 -0.20489 -0.34217 -0.91703
0.042518 -0.030233 0.419 -0.23065 -0.34357 -0.91036
0.042518 -0.029458 0.419 -0.23992 -0.34193 -0.90858
0.042518 -0.028683 0.419 -0.24615 -0.34307 -0.90648
0.042518 -0.027907 0.419 -0.24953 -0.34529 -0.90471
0.04262 -0.027197 0.42 -0.2537 -0.35171 -0.90107
0.04262 -0.02642 0.42 -0.25417 -0.35581 -0.89933
0.04262 -0.025643 0.42 -0.26524 -0.35965 -0.8946
0.042721 -0.024925 0.421 -0.27506 -0.36761 -0.88837
0.042721 -0.024146 0.421 -0.29288 -0.37333 -0.88025
0.042721 -0.023367 0.421 -0.3062 -0.37746 -0.87394
0.042721 -0.022588 0.421 -0.30912 -0.37518 -0.87389
0.042721 -0.021809 0.421 -0.3228 -0.35156 -0.87875
0.042823 -0.02108 0.422 -0.3759 -0.37669 -0.84664
0.042823 -0.0203 0.422 -0.37505 -0.34945 -0.85862
0.042924 -0.019565 0.423 -0.45469 -0.39605 -0.79775
0.042924 -0.018783 0.423 -0.43228 -0.35598 -0.8285
0.043026 -0.018043 0.424 -0.5018 -0.41839 -0.75706
0.049216 -0.0017946 0.485 0.22922 -0.55154 -0.80204
0.049114 -0.00089547 0.484 0.22233 -0.47447 -0.85173
0.049114 0 0.484 0.22049 -0.50537 -0.83426
0.041638 -0.080525 0.403 0.60745 -0.032966 -0.79368
0.041432 -0.079384 0.401 0.44034 -0.42624 -0.7902
0.041225 -0.073821 0.399 -0.026562 -0.59522 -0.80312
0.041328 -0.070305 0.4 -0.20459 -0.47721 -0.85464
0.041432 -0.066772 0.401 -0.33753 -0.43124 -0.83672
0.041535 -0.066194 0.402 -0.28087 -0.25923 -0.92408
0.041535 -0.065451 0.402 -0.32428 -0.29115 -0.90004
0.041535 -0.064707 0.402 -0.37132 -0.32097 -0.87126
0.041535 -0.063963 0.402 -0.41551 -0.32163 -0.85082
0.041638 -0.063377 0.403 -0.34756 -0.22917 -0.90922
0.041638 -0.062631 0.403 -0.3569 -0.23502 -0.9041
0.041638 -0.061885 0.403 -0.34859 -0.23276 -0.90791
0.041742 -0.061291 0.404 -0.31964 -0.19113 -0.92806
0.041742 -0.060544 0.404 -0.32605 -0.18682 -0.92671
0.041742 -0.059796 0.404 -0.31986 -0.17801 -0.93059
0.041742 -0.059049 0.404 -0.31022 -0.16762 -0.93577
0.041845 -0.058446 0.405 -0.2962 -0.15185 -0.94298
0.041845 -0.057697 0.405 -0.28978 -0.14606 -0.94588
0.041845 -0.056947 0.405 -0.28255 -0.13512 -0.94969
0.041845 -0.056198 0.405 -0.30656 -0.13102 -0.94279
0.041948 -0.055586 0.406 -0.31864 -0.11593 -0.94076
0.041948 -0.054834 0.406 -0.3098 -0.1009 -0.94543
0.041948 -0.054083 0.406 -0.32217 -0.094311 -0.94197
0.041948 -0.053332 0.406 -0.33812 -0.085585 -0.9372
0.042052 -0.05271 0.407 -0.37493 -0.084101 -0.92323
0.042052 -0.051957 0.407 -0.40198 -0.068147 -0.91311
0.042052 -0.051204 0.407 -0.44728 -0.046075 -0.89321
0.042155 -0.050575 0.408 -0.47112 -0.040518 -0.88114
0.042155 -0.049821 0.408 -0.51104 -0.03573 -0.85882
0.042258 -0.049186 0.409 -0.53636 -0.042348 -0.84293
0.042258 -0.048429 0.409 -0.56645 -0.054782 -0.82228
0.042362 -0.047789 0.41 -0.57517 -0.084219 -0.81369
0.042362 -0.047031 0.41 -0.58089 -0.096739 -0.80822
0.042465 -0.046385 0.411 -0.60614 -0.10959 -0.78777
