-0.027199 -0.031471 0.378 -0.23773 0.44246 -0.86471
-0.027199 -0.030772 0.378 -0.26043 0.44409 -0.8573
-0.027271 -0.030152 0.379 -0.28775 0.44652 -0.84724
-0.027271 -0.029451 0.379 -0.29103 0.44918 -0.84471
-0.027271 -0.028749 0.379 -0.31221 0.44525 -0.83921
-0.027271 -0.028048 0.379 -0.3396 0.43832 -0.83219
-0.027343 -0.027419 0.38 -0.3644 0.47427 -0.80143
-0.027343 -0.026716 0.38 -0.37935 0.4646 -0.80015
-0.027343 -0.026013 0.38 -0.38634 0.44744 -0.80656
-0.027415 -0.025377 0.381 -0.41785 0.48381 -0.76898
-0.027487 -0.024736 0.382 -0.432 0.53521 -0.7259
-0.027415 -0.023967 0.381 -0.46746 0.4108 -0.78277
-0.027487 -0.023323 0.382 -0.49095 0.45446 -0.74326
-0.027559 -0.022675 0.383 -0.50892 0.49783 -0.70226
-0.027559 -0.021967 0.383 -0.51792 0.45347 -0.72535
-0.027631 -0.021314 0.384 -0.50801 0.49178 -0.70716
-0.027631 -0.020603 0.384 -0.51822 0.44587 -0.72983
-0.027703 -0.019944 0.385 -0.49559 0.48615 -0.71976
-0.027703 -0.019232 0.385 -0.46509 0.45087 -0.76185
-0.027775 -0.018568 0.386 -0.4982 0.47055 -0.72827
-0.027775 -0.017854 0.386 -0.42347 0.45724 -0.78205
-0.027703 -0.016383 0.385 0.15176 0.43574 -0.88719
-0.028566 -0.016159 0.397 -0.15377 0.41672 -0.89593
-0.028566 -0.015425 0.397 -0.22452 0.42408 -0.87735
-0.028566 -0.01469 0.397 -0.2645 0.4339 -0.86126
-0.028566 -0.013956 0.397 -0.26444 0.44084 -0.85775
-0.028566 -0.013221 0.397 -0.25304 0.44187 -0.86065
-0.028638 -0.012518 0.398 -0.23722 0.44839 -0.86178
-0.028638 -0.011782 0.398 -0.23302 0.45958 -0.85702
-0.028638 -0.011045 0.398 -0.22828 0.47063 -0.85229
-0.028638 -0.010309 0.398 -0.23623 0.47061 -0.85013
-0.028638 -0.0095726 0.398 -0.24427 0.46943 -0.84851
-0.028638 -0.0088363 0.398 -0.25679 0.4612 -0.84933
-0.02871 -0.0081203 0.399 -0.3154 0.47378 -0.82222
-0.02871 -0.0073821 0.399 -0.34293 0.46792 -0.81452
-0.02871 -0.0066438 0.399 -0.37783 0.4461 -0.81132
-0.028782 -0.0059204 0.4 -0.44035 0.45976 -0.77118
-0.028782 -0.0051804 0.4 -0.47223 0.4411 -0.76317
-0.028854 -0.0044514 0.401 -0.50309 0.45756 -0.73317
-0.028854 -0.0037095 0.401 -0.47471 0.45442 -0.75376
-0.028926 -0.002975 0.402 -0.50676 0.4626 -0.72746
-0.028998 -0.0022368 0.403 -0.57256 0.47042 -0.67147
-0.028998 -0.0014912 0.403 -0.49072 0.47299 -0.73176
-0.028998 -0.00074561 0.403 -0.37321 0.47982 -0.79403
-0.03274 0.019362 0.455 0.53673 0.56807 -0.62388
-0.032668 0.020159 0.454 0.49673 0.54355 -0.67662
-0.032596 0.020953 0.453 0.47682 0.48796 -0.73112
-0.032596 0.021791 0.453 0.46927 0.5645 -0.67906
-0.032524 0.022579 0.452 0.47387 0.49107 -0.73096
-0.032452 0.023364 0.451 0.50399 0.39032 -0.77048
-0.032452 0.024198 0.451 0.45153 0.49483 -0.74247
-0.032452 0.025032 0.451 0.38028 0.57878 -0.72139
-0.03238 0.025809 0.45 0.38556 0.46291 -0.79816
-0.028465 -0.10516 0.406 0.57545 -0.41979 -0.70188
-0.028325 -0.1039 0.404 0.4949 -0.13163 -0.85892
-0.028255 -0.10289 0.403 0.39313 -0.04717 -0.91827
-0.028255 -0.10215 0.403 0.4321 -0.15644 -0.88815
-0.028255 -0.1014 0.403 0.45146 -0.23591 -0.86054
-0.028185 -0.10041 0.402 0.39011 -0.17992 -0.90302
-0.028114 -0.099415 0.401 0.33339 -0.1404 -0.93227
-0.028114 -0.098673 0.401 0.36864 -0.17726 -0.91251
-0.028114 -0.097932 0.401 0.37581 -0.23554 -0.89626
-0.028114 -0.09719 0.401 0.38948 -0.25461 -0.88514
-0.028044 -0.096207 0.4 0.3833 -0.21508 -0.89823
-0.028044 -0.095467 0.4 0.4044 -0.21026 -0.89009
-0.028044 -0.094727 0.4 0.4185 -0.20386 -0.88504
-0.027974 -0.093752 0.399 0.41536 -0.17481 -0.8927
-0.027974 -0.093014 0.399 0.41761 -0.14518 -0.89695
-0.027974 -0.092276 0.399 0.41052 -0.11669 -0.90436
-0.027904 -0.091308 0.398 0.4064 -0.095027 -0.90874
-0.027904 -0.090572 0.398 0.40403 -0.064413 -0.91247
-0.027834 -0.08961 0.397 0.38278 -0.028521 -0.9234
-0.027834 -0.088875 0.397 0.37198 -0.0013036 -0.92824
-0.027834 -0.088141 0.397 0.34369 0.04404 -0.93805
-0.027834 -0.087406 0.397 0.32882 0.087488 -0.94033
-0.027834 -0.086672 0.397 0.30675 0.13498 -0.94217
-0.027764 -0.085721 0.396 0.30389 0.16796 -0.93779
-0.027764 -0.084988 0.396 0.30073 0.1815 -0.93628
-0.027764 -0.084255 0.396 0.31362 0.19449 -0.92942
-0.027764 -0.083523 0.396 0.30939 0.22505 -0.92392
-0.027764 -0.08279 0.396 0.26803 0.27721 -0.92267
-0.027764 -0.082057 0.396 0.23448 0.3278 -0.91518
-0.027764 -0.081325 0.396 0.19536 0.3918 -0.89907
-0.027694 -0.080389 0.395 0.3184 0.29022 -0.90244
-0.027694 -0.079658 0.395 0.27706 0.35539 -0.89271
-0.027694 -0.078927 0.395 0.27626 0.41287 -0.86788
-0.027694 -0.078196 0.395 0.24946 0.48372 -0.83892
-0.027694 -0.077465 0.395 0.25936 0.54222 -0.79921
-0.026362 -0.05913 0.376 0.68744 0.29473 -0.66374
-0.026292 -0.058279 0.375 0.64642 0.28979 -0.7058
-0.026221 -0.057432 0.374 0.59102 0.31205 -0.74386
-0.026221 -0.05674 0.374 0.60119 0.34298 -0.72176
-0.026151 -0.055898 0.373 0.56015 0.34878 -0.75139
-0.026081 -0.05506 0.372 0.53601 0.3594 -0.76389
-0.026081 -0.054372 0.372 0.50989 0.38968 -0.76692
-0.026011 -0.053539 0.371 0.46528 0.4052 -0.78697
-0.026011 -0.052853 0.371 0.44296 0.43227 -0.78545
-0.026011 -0.052167 0.371 0.39538 0.46032 -0.79484
-0.025941 -0.051341 0.37 0.33564 0.47602 -0.81286
-0.025941 -0.050657 0.37 0.28245 0.50008 -0.81862
-0.025941 -0.049972 0.37 0.22563 0.5187 -0.82465
-0.025941 -0.049288 0.37 0.15333 0.53967 -0.8278
-0.025941 -0.048603 0.37 0.0622 0.55625 -0.82868
-0.025941 -0.047919 0.37 -0.026224 0.56485 -0.82478
-0.025941 -0.047234 0.37 -0.11585 0.56688 -0.81561
-0.025871 -0.046424 0.369 -0.10701 0.49569 -0.86188
-0.025941 -0.045865 0.37 -0.25997 0.5448 -0.79725
-0.025941 -0.04518 0.37 -0.29865 0.52133 -0.79939
-0.026011 -0.044616 0.371 -0.40219 0.56461 -0.72074
-0.026011 -0.04393 0.371 -0.406 0.55463 -0.72633
-0.026081 -0.04336 0.372 -0.43857 0.60945 -0.66048
-0.026151 -0.042786 0.373 -0.45358 0.64377 -0.61631
-0.026151 -0.042096 0.373 -0.45403 0.63874 -0.62119
-0.026221 -0.041517 0.374 -0.44172 0.65573 -0.61229
-0.026221 -0.040825 0.374 -0.43124 0.65121 -0.62447
-0.026292 -0.040241 0.375 -0.41184 0.6368 -0.65183
-0.026362 -0.039652 0.376 -0.36293 0.57979 -0.72947
-0.026362 -0.038957 0.376 -0.36468 0.5806 -0.72795
-0.026432 -0.038363 0.377 -0.27536 0.51777 -0.81
-0.026432 -0.037665 0.377 -0.26499 0.51986 -0.81212
-0.026432 -0.036968 0.377 -0.24054 0.51634 -0.82191
-0.026432 -0.03627 0.377 -0.23243 0.50901 -0.82879
-0.026432 -0.035573 0.377 -0.21051 0.49383 -0.84369
-0.026432 -0.034875 0.377 -0.18132 0.473 -0.8622
-0.026432 -0.034178 0.377 -0.16747 0.45331 -0.87548
-0.026432 -0.03348 0.377 -0.17068 0.44066 -0.8813
-0.026502 -0.03287 0.378 -0.187 0.43339 -0.88159
-0.026502 -0.03217 0.378 -0.20596 0.4233 -0.88227
-0.026502 -0.031471 0.378 -0.23068 0.42175 -0.87688
-0.026502 -0.030772 0.378 -0.26471 0.42461 -0.86581
-0.026502 -0.030072 0.378 -0.28906 0.42884 -0.85588
-0.026502 -0.029373 0.378 -0.28738 0.43151 -0.85511
-0.026572 -0.028749 0.379 -0.32286 0.43853 -0.83872
-0.026572 -0.028048 0.379 -0.35369 0.44025 -0.82528
-0.026572 -0.027347 0.379 -0.35331 0.44296 -0.82399
-0.026642 -0.026716 0.38 -0.37823 0.46899 -0.79811
-0.026642 -0.026013 0.38 -0.38922 0.47081 -0.79174
-0.026642 -0.02531 0.38 -0.40489 0.46186 -0.78915
-0.026712 -0.024672 0.381 -0.43286 0.48734 -0.75838
-0.026712 -0.023967 0.381 -0.45449 0.46799 -0.75791
-0.026712 -0.023262 0.381 -0.47169 0.43993 -0.76418
-0.026782 -0.022616 0.382 -0.50858 0.45205 -0.7328
-0.026852 -0.021967 0.383 -0.51492 0.47692 -0.71233
-0.026852 -0.021258 0.383 -0.52175 0.45537 -0.7214
-0.026923 -0.020603 0.384 -0.52663 0.46292 -0.713
-0.026993 -0.019232 0.385 -0.50985 0.44814 -0.73432
-0.026993 -0.01852 0.385 -0.43255 0.45203 -0.78011
-0.027063 -0.017854 0.386 -0.50995 0.42895 -0.74562
-0.027063 -0.01714 0.386 -0.40244 0.44552 -0.79972
-0.027764 -0.016118 0.396 -0.33026 0.40346 -0.85332
-0.027764 -0.015386 0.396 -0.36517 0.41114 -0.83523
-0.027764 -0.014653 0.396 -0.36417 0.42736 -0.82749
-0.027834 -0.013956 0.397 -0.23031 0.4338 -0.87108
-0.027834 -0.012487 0.397 -0.23118 0.44309 -0.86616
-0.027904 -0.011782 0.398 -0.22879 0.44142 -0.86764
-0.027904 -0.011045 0.398 -0.22193 0.45147 -0.86424
-0.027904 -0.010309 0.398 -0.22892 0.45233 -0.86197
-0.027904 -0.0095726 0.398 -0.24627 0.45219 -0.85725
-0.027904 -0.0088363 0.398 -0.26435 0.45028 -0.85286
-0.027904 -0.0080999 0.398 -0.30417 0.44162 -0.84407
-0.027974 -0.0073821 0.399 -0.35043 0.44972 -0.82155
-0.027974 -0.0066438 0.399 -0.39309 0.43556 -0.80979
-0.027974 -0.0059056 0.399 -0.42478 0.41547 -0.80433
-0.028044 -0.0051804 0.4 -0.48235 0.4316 -0.76228
-0.028044 -0.0044403 0.4 -0.49231 0.41946 -0.76269
-0.028114 -0.0037095 0.401 -0.51212 0.43403 -0.74119
-0.028114 -0.0029676 0.401 -0.4577 0.4327 -0.77671
-0.028185 -0.0022313 0.402 -0.50583 0.44278 -0.74032
-0.028255 -0.0014912 0.403 -0.57415 0.44834 -0.68509
-0.028255 -0.00074561 0.403 -0.49405 0.44122 -0.74916
-0.03183 0.018479 0.454 0.37872 0.58516 -0.71705
-0.03183 0.019319 0.454 0.51341 0.53124 -0.67394
-0.03176 0.020115 0.453 0.46224 0.50898 -0.72614
-0.03176 0.020953 0.453 0.50303 0.53504 -0.67874
-0.03169 0.021743 0.452 0.46917 0.50358 -0.72546
-0.03162 0.022529 0.451 0.47253 0.42396 -0.77264
-0.03162 0.023364 0.451 0.44927 0.49127 -0.7462
-0.03155 0.024144 0.45 0.48392 0.40122 -0.77771
-0.03155 0.024977 0.45 0.42779 0.48664 -0.76169
-0.03148 0.025752 0.449 0.45554 0.37159 -0.80895
-0.027648 -0.10415 0.405 0.52502 -0.3924 -0.75524
-0.027648 -0.1034 0.405 0.52061 -0.47003 -0.71277
-0.027579 -0.1024 0.404 0.47633 -0.38743 -0.78931
-0.027579 -0.10165 0.404 0.48617 -0.44078 -0.75455
-0.027443 -0.10041 0.402 0.36043 -0.18085 -0.91509
-0.027443 -0.099663 0.402 0.39675 -0.24577 -0.88441
-0.027443 -0.09892 0.402 0.41409 -0.29073 -0.86256
-0.027375 -0.097932 0.401 0.3787 -0.22459 -0.89786
-0.027375 -0.09719 0.401 0.38541 -0.28028 -0.87915
-0.027306 -0.096207 0.4 0.37084 -0.20601 -0.90556
-0.027375 -0.095706 0.401 0.41377 -0.30548 -0.8576
-0.027306 -0.094727 0.4 0.41501 -0.25063 -0.87462
-0.027306 -0.093987 0.4 0.41847 -0.24974 -0.87322
-0.027238 -0.093014 0.399 0.41472 -0.20191 -0.88726
-0.027238 -0.092276 0.399 0.41135 -0.19176 -0.89108
-0.02717 -0.091308 0.398 0.40003 -0.16283 -0.90192
-0.02717 -0.090572 0.398 0.40911 -0.14712 -0.90055
-0.027101 -0.08961 0.397 0.39023 -0.11694 -0.91326
-0.027101 -0.088875 0.397 0.3916 -0.10048 -0.91463
-0.027101 -0.088141 0.397 0.37251 -0.075368 -0.92496
-0.027101 -0.087406 0.397 0.35503 -0.042111 -0.93391
-0.027033 -0.086453 0.396 0.33862 0.00061741 -0.94092
-0.027033 -0.085721 0.396 0.32499 0.045861 -0.9446
-0.027033 -0.084988 0.396 0.31404 0.066211 -0.9471
-0.027033 -0.084255 0.396 0.32495 0.079438 -0.94239
-0.027033 -0.083523 0.396 0.31854 0.11082 -0.94141
-0.027033 -0.08279 0.396 0.28255 0.15594 -0.94649
-0.026965 -0.08185 0.395 0.35179 0.088835 -0.93186
-0.026965 -0.081119 0.395 0.34278 0.12424 -0.93116
-0.026965 -0.080389 0.395 0.32821 0.17524 -0.92821
-0.026965 -0.079658 0.395 0.29776 0.24509 -0.92264
-0.026965 -0.078927 0.395 0.29981 0.31876 -0.89917
-0.026965 -0.078196 0.395 0.27778 0.40328 -0.8719
-0.026965 -0.077465 0.395 0.29033 0.49188 -0.82083
-0.026897 -0.07654 0.394 0.35532 0.34113 -0.87028
-0.026897 -0.075811 0.394 0.30251 0.41148 -0.85975
-0.026897 -0.075082 0.394 0.27284 0.48042 -0.83352
-0.026897 -0.074353 0.394 0.22859 0.54929 -0.80376
-0.026897 -0.073624 0.394 0.209 0.62308 -0.75372
-0.025941 -0.063275 0.38 0.74665 0.24593 -0.61809
-0.025668 -0.05913 0.376 0.72025 0.27417 -0.63724
-0.0256 -0.058279 0.375 0.68193 0.26808 -0.68052
-0.025531 -0.057432 0.374 0.63864 0.27342 -0.71929
-0.025463 -0.056588 0.373 0.58359 0.28843 -0.7591
-0.025463 -0.055898 0.373 0.58897 0.32098 -0.74168
-0.025395 -0.05506 0.372 0.55953 0.33521 -0.758
-0.025395 -0.054372 0.372 0.52947 0.35293 -0.77143
-0.025327 -0.053539 0.371 0.49154 0.3747 -0.78612
-0.025327 -0.052853 0.371 0.46529 0.39335 -0.79296
-0.025258 -0.052026 0.37 0.41386 0.40879 -0.81339
-0.025258 -0.051341 0.37 0.36148 0.43038 -0.82711
-0.025258 -0.050657 0.37 0.30265 0.44712 -0.84172
-0.02519 -0.049837 0.369 0.24541 0.46056 -0.85303
-0.02519 -0.049154 0.369 0.17431 0.47986 -0.85986
-0.02519 -0.048472 0.369 0.087194 0.49343 -0.8654
-0.02519 -0.047789 0.369 0.0023544 0.49829 -0.86701
-0.02519 -0.047106 0.369 -0.085919 0.49439 -0.86498
-0.02519 -0.046424 0.369 -0.15797 0.48741 -0.85877
-0.02519 -0.045741 0.369 -0.21026 0.46299 -0.86106
-0.025258 -0.04518 0.37 -0.33178 0.50766 -0.79511
-0.025258 -0.044496 0.37 -0.36105 0.49303 -0.79156
-0.025327 -0.04393 0.371 -0.42863 0.54777 -0.71848
-0.025327 -0.043243 0.371 -0.41749 0.5502 -0.72318
-0.025395 -0.042672 0.372 -0.44496 0.60108 -0.66386
-0.025395 -0.041983 0.372 -0.44183 0.5934 -0.6728
-0.025463 -0.041406 0.373 -0.45568 0.6265 -0.63234
-0.025463 -0.040716 0.373 -0.44824 0.61655 -0.64726
-0.025531 -0.040133 0.374 -0.44884 0.61748 -0.64596
-0.0256 -0.039547 0.375 -0.43406 0.5974 -0.67432
-0.0256 -0.038853 0.375 -0.43428 0.58634 -0.68382
-0.025668 -0.038261 0.376 -0.36176 0.53637 -0.76252
-0.025668 -0.037565 0.376 -0.34935 0.53024 -0.77253
-0.025668 -0.03687 0.376 -0.31664 0.52086 -0.79275
-0.025736 -0.03627 0.377 -0.26001 0.48538 -0.83474
-0.025736 -0.035573 0.377 -0.23788 0.47771 -0.8457
-0.025736 -0.034875 0.377 -0.20513 0.46128 -0.86322
-0.025736 -0.034178 0.377 -0.18049 0.4432 -0.87806
-0.025736 -0.03348 0.377 -0.1764 0.4335 -0.88372
-0.025736 -0.032783 0.377 -0.18568 0.42083 -0.88793
-0.025736 -0.032085 0.377 -0.20186 0.40997 -0.88948
-0.025736 -0.031388 0.377 -0.22409 0.40708 -0.88548
-0.025804 -0.030772 0.378 -0.25085 0.40689 -0.87836
-0.025804 -0.030072 0.378 -0.27977 0.41029 -0.86798
-0.025804 -0.029373 0.378 -0.28856 0.4152 -0.86275
-0.025873 -0.028749 0.379 -0.32443 0.42212 -0.8465
-0.025873 -0.028048 0.379 -0.35368 0.4342 -0.82848
-0.025873 -0.027347 0.379 -0.35737 0.44403 -0.82166
-0.025873 -0.026646 0.379 -0.3668 0.44838 -0.81511
-0.025873 -0.025944 0.379 -0.37051 0.44692 -0.81423
-0.025941 -0.02531 0.38 -0.40318 0.46763 -0.78662
-0.025941 -0.024607 0.38 -0.42249 0.4642 -0.77847
-0.026009 -0.023967 0.381 -0.45464 0.47439 -0.75383
-0.026009 -0.023262 0.381 -0.47537 0.46356 -0.74776
-0.026009 -0.022557 0.381 -0.49668 0.43903 -0.7487
-0.026077 -0.021909 0.382 -0.5134 0.45274 -0.729
-0.026146 -0.021258 0.383 -0.53019 0.45158 -0.71762
-0.026146 -0.020549 0.383 -0.53071 0.44297 -0.72258
-0.026214 -0.019893 0.384 -0.52261 0.43116 -0.73551
-0.026214 -0.019182 0.384 -0.46756 0.44749 -0.76232
-0.026282 -0.01852 0.385 -0.51209 0.41839 -0.75014
-0.026282 -0.017808 0.385 -0.40772 0.44346 -0.79819
-0.026351 -0.01714 0.386 -0.50563 0.39675 -0.76611
-0.027033 -0.016851 0.396 -0.16015 0.38076 -0.9107
-0.027033 -0.016118 0.396 -0.23419 0.38888 -0.89103
-0.027033 -0.015386 0.396 -0.28043 0.39634 -0.87423
-0.027033 -0.014653 0.396 -0.30781 0.40591 -0.86051
-0.027033 -0.01392 0.396 -0.29448 0.41562 -0.86055
-0.027101 -0.013221 0.397 -0.21413 0.41811 -0.8828
-0.027101 -0.012487 0.397 -0.22104 0.42473 -0.87792
-0.027101 -0.011752 0.397 -0.22818 0.43144 -0.87281
-0.027101 -0.011018 0.397 -0.22844 0.43745 -0.86974
-0.027101 -0.010283 0.397 -0.23715 0.44177 -0.86522
-0.02717 -0.0095726 0.398 -0.24213 0.44086 -0.8643
-0.02717 -0.0088363 0.398 -0.26976 0.44098 -0.85602
-0.02717 -0.0080999 0.398 -0.31352 0.43487 -0.84415
-0.02717 -0.0073636 0.398 -0.34366 0.42629 -0.83676
-0.027238 -0.0066438 0.399 -0.39501 0.42313 -0.81544
-0.027238 -0.0059056 0.399 -0.43096 0.4145 -0.80153
-0.027238 -0.0051674 0.399 -0.45869 0.39849 -0.79424
-0.027306 -0.0044403 0.4 -0.49991 0.41234 -0.76162
-0.027306 -0.0037003 0.4 -0.48869 0.40457 -0.77299
-0.027375 -0.0029676 0.401 -0.51045 0.41496 -0.75316
-0.027443 -0.0022313 0.402 -0.56548 0.42464 -0.70705
-0.027443 -0.0014875 0.402 -0.50555 0.41827 -0.75463
-0.027511 -0.00074561 0.403 -0.56312 0.43669 -0.70157
-0.030924 0.019277 0.453 0.45603 0.51493 -0.72587
-0.030924 0.020115 0.453 0.54672 0.49145 -0.67792
-0.030856 0.020907 0.452 0.47459 0.49949 -0.72476
-0.030788 0.021695 0.451 0.42913 0.47225 -0.76995
-0.030788 0.022529 0.451 0.45305 0.49005 -0.74471
-0.03072 0.023312 0.45 0.45575 0.42063 -0.78445
-0.03072 0.024144 0.45 0.42491 0.47783 -0.76885
-0.030651 0.024921 0.449 0.46883 0.38789 -0.79356
-0.030651 0.025752 0.449 0.38024 0.44991 -0.80808
-0.030583 0.026524 0.448 0.39092 0.30349 -0.86895
-0.030583 0.027352 0.448 0.28814 0.33677 -0.89642
-0.026834 -0.10165 0.404 0.45526 -0.47178 -0.75509
-0.026834 -0.10091 0.404 0.46603 -0.52819 -0.70981
-0.026768 -0.099911 0.403 0.43695 -0.43217 -0.78886
-0.026768 -0.099166 0.403 0.42948 -0.48423 -0.76228
-0.026768 -0.09842 0.403 0.41779 -0.53027 -0.73774
-0.026635 -0.09719 0.401 0.3831 -0.27129 -0.88297
-0.026635 -0.096448 0.401 0.38028 -0.32428 -0.86616
-0.026635 -0.095706 0.401 0.40789 -0.36078 -0.83873
-0.026568 -0.094727 0.4 0.42067 -0.26807 -0.8667
-0.026568 -0.093987 0.4 0.42171 -0.30835 -0.85269
-0.026568 -0.093247 0.4 0.42565 -0.32065 -0.84617
-0.026502 -0.092276 0.399 0.40719 -0.2515 -0.87804
-0.026502 -0.091537 0.399 0.41681 -0.26224 -0.87035
-0.026435 -0.090572 0.398 0.39562 -0.21202 -0.89361
-0.026435 -0.089835 0.398 0.40355 -0.21648 -0.88898
-0.026369 -0.088875 0.397 0.37047 -0.17856 -0.91152
-0.026369 -0.088141 0.397 0.35839 -0.16878 -0.91819
-0.026369 -0.087406 0.397 0.34919 -0.15402 -0.92431
-0.026369 -0.086672 0.397 0.34667 -0.12439 -0.9297
-0.026303 -0.085721 0.396 0.34566 -0.094777 -0.93356
-0.026303 -0.084988 0.396 0.33602 -0.065509 -0.93958
-0.026303 -0.084255 0.396 0.34538 -0.052446 -0.937
-0.026236 -0.083312 0.395 0.38026 -0.067418 -0.92242
-0.026236 -0.08185 0.395 0.35892 -0.031762 -0.93283
-0.026236 -0.081119 0.395 0.35683 0.0012204 -0.93417
-0.026236 -0.080389 0.395 0.35089 0.048208 -0.93517
-0.026236 -0.079658 0.395 0.33407 0.1071 -0.93644
-0.026236 -0.078927 0.395 0.34001 0.1786 -0.92331
-0.02617 -0.077998 0.394 0.40824 0.065781 -0.9105
-0.02617 -0.07654 0.394 0.37819 0.27198 -0.88487
-0.02617 -0.075811 0.394 0.32331 0.36728 -0.87211
-0.026103 -0.074892 0.393 0.38331 0.19687 -0.90239
-0.026103 -0.074165 0.393 0.36338 0.32122 -0.87451
-0.026103 -0.073438 0.393 0.31187 0.45183 -0.83581
-0.02617 -0.072895 0.394 0.11363 0.716 -0.68879
-0.024908 -0.058973 0.375 0.66649 0.21411 -0.7141
-0.024841 -0.058124 0.374 0.62894 0.21239 -0.74788
-0.024841 -0.057432 0.374 0.66577 0.25102 -0.70266
-0.024775 -0.056588 0.373 0.61729 0.26966 -0.73907
-0.024708 -0.055748 0.372 0.58835 0.28219 -0.75777
-0.024708 -0.05506 0.372 0.57598 0.30584 -0.75809
-0.024642 -0.054226 0.371 0.54161 0.31595 -0.77899
-0.024642 -0.053539 0.371 0.51018 0.34045 -0.78982
-0.024642 -0.052853 0.371 0.47966 0.35465 -0.80259
-0.024576 -0.052026 0.37 0.43222 0.36944 -0.82262
-0.024576 -0.051341 0.37 0.37723 0.38027 -0.84445
-0.024509 -0.05052 0.369 0.31544 0.39399 -0.86329
-0.024509 -0.049837 0.369 0.25797 0.40289 -0.87814
-0.024509 -0.049154 0.369 0.1857 0.41774 -0.88939
-0.024509 -0.048472 0.369 0.10043 0.42566 -0.89929
-0.024509 -0.047789 0.369 0.0043535 0.44283 -0.89659
-0.024509 -0.047106 0.369 -0.090919 0.45345 -0.88663
-0.024509 -0.046424 0.369 -0.17402 0.45227 -0.87474
-0.024509 -0.045741 0.369 -0.23776 0.44024 -0.86583
-0.024509 -0.045058 0.369 -0.28657 0.42417 -0.85904
-0.024576 -0.044496 0.37 -0.38098 0.4758 -0.79276
-0.024576 -0.043811 0.37 -0.39602 0.47181 -0.78776
-0.024642 -0.043243 0.371 -0.4344 0.53428 -0.72515
-0.024642 -0.042557 0.371 -0.42464 0.53831 -0.72794
-0.024708 -0.041983 0.372 -0.46392 0.57583 -0.6732
-0.024708 -0.041295 0.372 -0.45455 0.57185 -0.68291
-0.024708 -0.040607 0.372 -0.44823 0.54485 -0.70868
-0.024708 -0.039919 0.372 -0.43314 0.49442 -0.75362
-0.024775 -0.039336 0.373 -0.4721 0.55647 -0.68371
-0.024908 -0.038853 0.375 -0.46495 0.54693 -0.69619
-0.024908 -0.038159 0.375 -0.45317 0.53909 -0.70994
-0.024974 -0.037565 0.376 -0.35729 0.48473 -0.79836
-0.024974 -0.03687 0.376 -0.33969 0.48035 -0.80863
-0.024974 -0.036174 0.376 -0.32309 0.47227 -0.82011
-0.025041 -0.035573 0.377 -0.25876 0.44268 -0.85853
-0.025041 -0.034875 0.377 -0.23101 0.43182 -0.87188
-0.025041 -0.034178 0.377 -0.19771 0.4112 -0.88985
-0.025041 -0.03348 0.377 -0.18968 0.39956 -0.89687
-0.025041 -0.032783 0.377 -0.18842 0.39073 -0.90101
-0.025041 -0.032085 0.377 -0.20434 0.38407 -0.90041
-0.025041 -0.031388 0.377 -0.22092 0.37995 -0.89824
-0.025041 -0.03069 0.377 -0.24259 0.38242 -0.89158
-0.025107 -0.030072 0.378 -0.26651 0.38875 -0.88196
-0.025107 -0.029373 0.378 -0.28259 0.39639 -0.87351
-0.025107 -0.028673 0.378 -0.31438 0.39902 -0.86136
-0.025107 -0.027974 0.378 -0.33735 0.40665 -0.84902
-0.025173 -0.027347 0.379 -0.34935 0.42514 -0.83499
-0.025173 -0.026646 0.379 -0.36252 0.4344 -0.82454
-0.025173 -0.025944 0.379 -0.37046 0.44075 -0.81762
-0.02524 -0.02531 0.38 -0.39928 0.44983 -0.79889
-0.02524 -0.024607 0.38 -0.42685 0.45326 -0.78253
-0.02524 -0.023904 0.38 -0.44822 0.44698 -0.77415
-0.025306 -0.023262 0.381 -0.48362 0.45125 -0.74999
-0.025306 -0.022557 0.381 -0.506 0.44098 -0.74128
-0.025373 -0.021909 0.382 -0.52627 0.44279 -0.72593
-0.025373 -0.021203 0.382 -0.53293 0.43666 -0.72478
-0.025439 -0.020549 0.383 -0.5485 0.42649 -0.71921
-0.025506 -0.019893 0.384 -0.55755 0.3887 -0.73351
-0.025506 -0.019182 0.384 -0.52725 0.41478 -0.7416
-0.025506 -0.018472 0.384 -0.42865 0.45121 -0.78273
-0.025572 -0.017808 0.385 -0.50727 0.40313 -0.76168
-0.025572 -0.017095 0.385 -0.37944 0.43747 -0.81526
-0.026303 -0.016851 0.396 -0.057425 0.34682 -0.93617
-0.026303 -0.016118 0.396 -0.13009 0.362 -0.92306
-0.026303 -0.015386 0.396 -0.18465 0.37381 -0.90894
-0.026303 -0.014653 0.396 -0.23107 0.37511 -0.89772
-0.026303 -0.01392 0.396 -0.24013 0.37743 -0.89436
-0.026303 -0.013188 0.396 -0.22522 0.38066 -0.89687
-0.026369 -0.012487 0.397 -0.20844 0.38679 -0.8983
-0.026369 -0.011752 0.397 -0.21934 0.39676 -0.89133
-0.026369 -0.011018 0.397 -0.22648 0.40299 -0.88674
-0.026369 -0.010283 0.397 -0.2376 0.40623 -0.88234
-0.026369 -0.0095486 0.397 -0.25555 0.40784 -0.87656
-0.026435 -0.0088363 0.398 -0.27649 0.40576 -0.87116
-0.026435 -0.0080999 0.398 -0.31994 0.40003 -0.85884
-0.026435 -0.0073636 0.398 -0.35149 0.39528 -0.84865
-0.026435 -0.0066272 0.398 -0.38685 0.38479 -0.83802
-0.026502 -0.0059056 0.399 -0.43416 0.39581 -0.80922
-0.026502 -0.0051674 0.399 -0.46711 0.38932 -0.79387
-0.026568 -0.0044403 0.4 -0.49796 0.39769 -0.77063
-0.026568 -0.0037003 0.4 -0.50168 0.39366 -0.77029
-0.026635 -0.0029676 0.401 -0.53451 0.40528 -0.74166
-0.026635 -0.0022257 0.401 -0.50155 0.40088 -0.76664
-0.026701 -0.0014875 0.402 -0.55162 0.41765 -0.722
-0.026701 -0.00074376 0.402 -0.49458 0.40075 -0.77123
-0.030022 0.02007 0.452 0.48309 0.48125 -0.73145
-0.029956 0.02086 0.451 0.40103 0.49008 -0.77395
-0.029956 0.021695 0.451 0.46981 0.47185 -0.74608
-0.029889 0.022479 0.45 0.42788 0.44696 -0.78559
-0.029823 0.024091 0.449 0.45487 0.39346 -0.79893
-0.029823 0.024921 0.449 0.39908 0.44176 -0.80348
-0.029756 0.025695 0.448 0.43813 0.34851 -0.8286
-0.029756 0.026524 0.448 0.33078 0.38171 -0.86307
-0.029756 0.030668 0.448 -0.081829 0.40299 -0.91154
-0.029756 0.031497 0.448 -0.13362 0.39165 -0.91036
-0.026024 -0.10066 0.403 0.41053 -0.30248 -0.86022
-0.026089 -0.099412 0.404 0.41813 -0.6108 -0.67238
-0.026024 -0.09842 0.403 0.41439 -0.51806 -0.74826
-0.025959 -0.097432 0.402 0.39649 -0.40809 -0.82235
-0.025895 -0.096448 0.401 0.39009 -0.26003 -0.8833
-0.025895 -0.095706 0.401 0.41365 -0.33403 -0.84694
-0.025895 -0.094964 0.401 0.42999 -0.38897 -0.81474
-0.025895 -0.094222 0.401 0.4339 -0.43872 -0.78693
-0.02583 -0.093247 0.4 0.43004 -0.33692 -0.83759
-0.025766 -0.092276 0.399 0.39968 -0.25362 -0.88087
-0.025766 -0.091537 0.399 0.40629 -0.29818 -0.86372
-0.025766 -0.090799 0.399 0.41609 -0.32667 -0.84862
-0.025701 -0.089835 0.398 0.38453 -0.27261 -0.88194
-0.025701 -0.089099 0.398 0.37389 -0.2847 -0.8827
-0.025637 -0.088141 0.397 0.33928 -0.24408 -0.90847
-0.025637 -0.087406 0.397 0.34212 -0.25619 -0.90406
-0.025572 -0.086453 0.396 0.32813 -0.21345 -0.9202
-0.025572 -0.085721 0.396 0.33772 -0.21321 -0.91678
-0.025572 -0.084988 0.396 0.32873 -0.19216 -0.92467
-0.025572 -0.084255 0.396 0.35256 -0.18957 -0.91639
-0.025507 -0.083312 0.395 0.36043 -0.166 -0.91789
-0.025507 -0.082581 0.395 0.35954 -0.1669 -0.91808
-0.025507 -0.08185 0.395 0.36376 -0.16347 -0.91704
-0.025507 -0.081119 0.395 0.36659 -0.13569 -0.92044
-0.025443 -0.080185 0.394 0.42024 -0.16939 -0.89146
-0.025443 -0.079456 0.394 0.42491 -0.14123 -0.89415
-0.025443 -0.078727 0.394 0.4434 -0.094142 -0.89136
-0.025443 -0.077998 0.394 0.42676 -0.038431 -0.90355
-0.025378 -0.077073 0.393 0.48369 -0.095687 -0.86999
-0.025378 -0.076346 0.393 0.47281 -0.028212 -0.88071
-0.025378 -0.075619 0.393 0.44103 0.049306 -0.89614
-0.025314 -0.074701 0.392 0.4945 -0.044334 -0.86805
-0.025378 -0.074165 0.393 0.37513 0.29133 -0.88
-0.025378 -0.071983 0.393 0.16703 0.68648 -0.70771
-0.025378 -0.071256 0.393 0.098053 0.72707 -0.67952
-0.025185 -0.069269 0.39 0.58709 0.2972 -0.75299
-0.025185 -0.068548 0.39 0.57497 0.43799 -0.69106
-0.024603 -0.064146 0.381 0.76693 0.235 -0.59715
-0.024474 -0.062407 0.379 0.79442 0.22237 -0.56519
-0.02441 -0.061543 0.378 0.78394 0.21841 -0.58115
-0.02428 -0.059826 0.376 0.74113 0.20697 -0.63866
-0.024216 -0.058973 0.375 0.69577 0.20935 -0.68708
-0.024151 -0.058124 0.374 0.66118 0.20404 -0.72195
-0.024087 -0.057278 0.373 0.62915 0.19872 -0.75145
-0.024087 -0.056588 0.373 0.6371 0.24724 -0.73006
-0.024022 -0.055748 0.372 0.6084 0.2584 -0.75039
-0.024022 -0.05506 0.372 0.58623 0.27538 -0.7619
-0.023958 -0.054226 0.371 0.55581 0.28325 -0.78157
-0.023958 -0.053539 0.371 0.52492 0.29679 -0.79773
-0.023893 -0.05271 0.37 0.49452 0.30552 -0.8137
-0.023893 -0.052026 0.37 0.44422 0.31758 -0.83774
-0.023893 -0.051341 0.37 0.38698 0.32229 -0.86393
-0.023828 -0.05052 0.369 0.3214 0.33552 -0.88551
-0.023828 -0.049837 0.369 0.25999 0.34022 -0.90369
-0.023828 -0.049154 0.369 0.18804 0.35285 -0.91659
-0.023828 -0.048472 0.369 0.10807 0.35813 -0.9274
-0.023828 -0.047789 0.369 0.015767 0.37287 -0.92775
-0.023828 -0.047106 0.369 -0.088676 0.39794 -0.91312
-0.023828 -0.046424 0.369 -0.17647 0.40512 -0.89707
-0.023828 -0.045741 0.369 -0.24258 0.40628 -0.88096
-0.023828 -0.045058 0.369 -0.29803 0.40568 -0.86406
-0.023828 -0.044376 0.369 -0.33469 0.39552 -0.85531
-0.023893 -0.043811 0.37 -0.40359 0.45234 -0.7953
-0.023893 -0.043127 0.37 -0.40868 0.45059 -0.79369
-0.023958 -0.042557 0.371 -0.44301 0.50663 -0.73964
-0.023958 -0.04187 0.371 -0.45452 0.50367 -0.73466
-0.023958 -0.041184 0.371 -0.44495 0.4866 -0.75183
-0.023958 -0.040498 0.371 -0.43031 0.43612 -0.79034
-0.023958 -0.039811 0.371 -0.38508 0.34034 -0.85783
-0.024087 -0.039336 0.373 -0.50357 0.53168 -0.68098
-0.024151 -0.038749 0.374 -0.50753 0.51683 -0.68942
-0.024151 -0.038057 0.374 -0.49297 0.50847 -0.706
-0.024216 -0.037465 0.375 -0.47169 0.48868 -0.73396
-0.02428 -0.03687 0.376 -0.3616 0.45345 -0.81464
-0.02428 -0.036174 0.376 -0.35597 0.4482 -0.82
-0.02428 -0.035478 0.376 -0.31689 0.43702 -0.84178
-0.02428 -0.034783 0.376 -0.26267 0.41414 -0.87149
-0.02428 -0.034087 0.376 -0.2181 0.39361 -0.89303
-0.024345 -0.03348 0.377 -0.20056 0.38075 -0.90266
-0.024345 -0.032783 0.377 -0.189 0.37157 -0.90897
-0.024345 -0.032085 0.377 -0.19466 0.3656 -0.91019
-0.024345 -0.031388 0.377 -0.21266 0.35956 -0.90857
-0.024345 -0.03069 0.377 -0.2311 0.35802 -0.90466
-0.024345 -0.029993 0.377 -0.25362 0.36237 -0.89687
-0.02441 -0.029373 0.378 -0.2734 0.37122 -0.88738
-0.02441 -0.028673 0.378 -0.30587 0.37533 -0.87497
-0.02441 -0.027974 0.378 -0.33353 0.39041 -0.8581
-0.02441 -0.027275 0.378 -0.33753 0.40392 -0.85025
-0.024474 -0.026646 0.379 -0.35543 0.40989 -0.84003
-0.024474 -0.025944 0.379 -0.37079 0.41672 -0.82997
-0.024474 -0.025243 0.379 -0.3878 0.42151 -0.81972
-0.024539 -0.024607 0.38 -0.42318 0.42951 -0.79777
-0.024539 -0.023904 0.38 -0.45581 0.42607 -0.78148
-0.024539 -0.023201 0.38 -0.47387 0.42043 -0.77375
-0.024603 -0.022557 0.381 -0.51731 0.42055 -0.74534
-0.024603 -0.021852 0.381 -0.52627 0.41362 -0.74294
-0.024668 -0.021203 0.382 -0.54667 0.41567 -0.72689
-0.024732 -0.020549 0.383 -0.56946 0.38795 -0.72472
-0.024732 -0.019841 0.383 -0.54067 0.39767 -0.7413
-0.024797 -0.019182 0.384 -0.58525 0.35296 -0.73
-0.024797 -0.018472 0.384 -0.5137 0.39629 -0.76096
-0.024862 -0.017808 0.385 -0.59632 0.33443 -0.72976
-0.024862 -0.017095 0.385 -0.49041 0.38067 -0.78396
-0.025572 -0.016851 0.396 0.033366 0.31911 -0.94713
-0.025572 -0.016118 0.396 -0.032302 0.33395 -0.94204
-0.025572 -0.015386 0.396 -0.091307 0.34683 -0.93347
-0.025572 -0.014653 0.396 -0.1526 0.35164 -0.92362
-0.025572 -0.01392 0.396 -0.18996 0.34953 -0.91747
-0.025572 -0.013188 0.396 -0.20014 0.35012 -0.91507
-0.025572 -0.012455 0.396 -0.20421 0.35622 -0.91181
-0.025572 -0.011722 0.396 -0.22075 0.36565 -0.9042
-0.025572 -0.01099 0.396 -0.23233 0.37149 -0.8989
-0.025637 -0.010283 0.397 -0.24011 0.37845 -0.89394
-0.025637 -0.0095486 0.397 -0.25669 0.37999 -0.88866
-0.025637 -0.0088141 0.397 -0.28118 0.38146 -0.88058
-0.025637 -0.0080796 0.397 -0.32067 0.37651 -0.86914
-0.025637 -0.0073451 0.397 -0.34081 0.36713 -0.86549
-0.025701 -0.0066272 0.398 -0.38161 0.37009 -0.847
-0.025701 -0.0058908 0.398 -0.41053 0.36625 -0.83506
-0.025766 -0.0051674 0.399 -0.46117 0.38376 -0.80003
-0.025766 -0.0044292 0.399 -0.48519 0.37941 -0.78781
-0.025766 -0.003691 0.399 -0.48228 0.36348 -0.79705
-0.02583 -0.0029602 0.4 -0.49462 0.37924 -0.782
-0.025895 -0.0022257 0.401 -0.53877 0.393 -0.74517
-0.025959 -0.0014875 0.402 -0.58138 0.4216 -0.69588
-0.025959 -0.00074376 0.402 -0.54399 0.40525 -0.73474
-0.029124 0.020026 0.451 0.38036 0.48999 -0.78437
-0.029124 0.02086 0.451 0.47532 0.45346 -0.75395
-0.029059 0.021647 0.45 0.39865 0.46257 -0.7919
-0.029059 0.022479 0.45 0.45118 0.44315 -0.77463
-0.028994 0.02326 0.449 0.421 0.41599 -0.80605
-0.02893 0.024037 0.448 0.44193 0.32176 -0.83736
-0.02893 0.024866 0.448 0.43216 0.34662 -0.83252
-0.02893 0.025695 0.448 0.37949 0.3925 -0.83781
-0.02893 0.026524 0.448 0.27769 0.41933 -0.86432
-0.028865 0.027291 0.447 0.28855 0.2851 -0.91403
-0.02893 0.029839 0.448 -0.015761 0.47634 -0.87912
-0.028865 0.030599 0.447 -0.062514 0.22224 -0.97299
-0.028865 0.031426 0.447 -0.10684 0.20638 -0.97262
-0.025343 -0.10091 0.404 0.45685 -0.41938 -0.78448
-0.02528 -0.099911 0.403 0.42643 -0.30072 -0.85307
-0.02528 -0.099166 0.403 0.42471 -0.39499 -0.81462
-0.02528 -0.09842 0.403 0.41949 -0.47169 -0.77559
-0.02528 -0.097674 0.403 0.39705 -0.54714 -0.73688
-0.025155 -0.096448 0.401 0.39651 -0.17194 -0.90179
-0.025155 -0.095706 0.401 0.42246 -0.27062 -0.86504
-0.025155 -0.094964 0.401 0.43772 -0.35601 -0.82563
-0.025155 -0.094222 0.401 0.43587 -0.44185 -0.78408
-0.025155 -0.09348 0.401 0.4338 -0.50446 -0.74655
-0.025092 -0.092507 0.4 0.42374 -0.40507 -0.81016
-0.02503 -0.091537 0.399 0.40073 -0.28266 -0.8715
-0.02503 -0.090799 0.399 0.41163 -0.34282 -0.84441
-0.02503 -0.090061 0.399 0.41921 -0.38927 -0.8202
-0.024967 -0.089099 0.398 0.37598 -0.30129 -0.87628
-0.024967 -0.088363 0.398 0.37039 -0.33422 -0.86666
-0.024967 -0.087626 0.398 0.36793 -0.3593 -0.85763
-0.024904 -0.086672 0.397 0.35306 -0.28357 -0.89159
-0.024904 -0.085937 0.397 0.356 -0.29531 -0.8866
-0.024841 -0.084988 0.396 0.33781 -0.19738 -0.92029
-0.024841 -0.084255 0.396 0.35762 -0.20812 -0.91038
-0.024779 -0.083312 0.395 0.34845 -0.11938 -0.9297
-0.024779 -0.082581 0.395 0.34183 -0.13846 -0.92951
-0.024716 -0.081643 0.394 0.30626 -0.074673 -0.94901
-0.024716 -0.080914 0.394 0.33047 -0.10985 -0.9374
-0.024716 -0.080185 0.394 0.3802 -0.122 -0.91682
-0.024653 -0.079254 0.393 0.40414 -0.041485 -0.91375
-0.024653 -0.078527 0.393 0.46899 -0.045114 -0.88205
-0.024653 -0.0778 0.393 0.47767 -0.049936 -0.87712
-0.02459 -0.076877 0.392 0.52316 0.0082589 -0.85219
-0.02459 -0.076152 0.392 0.55264 0.0001768 -0.83342
-0.024528 -0.075234 0.391 0.53411 0.17586 -0.82692
-0.024528 -0.074511 0.391 0.56259 0.14701 -0.81356
-0.024528 -0.073787 0.391 0.56034 0.096524 -0.82262
-0.024528 -0.073064 0.391 0.51917 0.15622 -0.84028
-0.024653 -0.071983 0.393 0.13184 0.54942 -0.82508
-0.024528 -0.070894 0.391 0.39025 0.40631 -0.82621
-0.024402 -0.069811 0.389 0.66655 -0.033126 -0.74472
-0.024465 -0.069269 0.39 0.52076 0.41568 -0.74566
-0.024402 -0.068372 0.389 0.66761 0.31845 -0.67297
-0.023775 -0.064511 0.379 0.51425 0.081246 -0.85378
-0.023838 -0.063978 0.38 0.77297 0.094408 -0.62738
-0.023775 -0.062407 0.379 0.8041 0.21783 -0.55315
-0.023649 -0.06138 0.377 0.74018 0.15718 -0.65378
-0.023587 -0.060522 0.376 0.71113 0.16484 -0.68347
-0.023524 -0.059667 0.375 0.65348 0.19137 -0.73236
-0.023524 -0.058973 0.375 0.71311 0.2092 -0.66911
-0.023461 -0.058124 0.374 0.68011 0.20397 -0.70416
-0.023399 -0.057278 0.373 0.64548 0.19564 -0.7383
-0.023399 -0.056588 0.373 0.64931 0.23159 -0.7244
-0.023336 -0.055748 0.372 0.62267 0.2329 -0.74702
-0.023336 -0.05506 0.372 0.59316 0.24746 -0.76611
-0.023273 -0.054226 0.371 0.56336 0.252 -0.78684
-0.02321 -0.053395 0.37 0.53404 0.25851 -0.80497
-0.02321 -0.05271 0.37 0.50219 0.26531 -0.82305
-0.02321 -0.052026 0.37 0.44714 0.27535 -0.85103
-0.023148 -0.051203 0.369 0.38986 0.27937 -0.87748
-0.023148 -0.05052 0.369 0.31763 0.29163 -0.90226
-0.023148 -0.049837 0.369 0.26144 0.2908 -0.92037
-0.023085 -0.049021 0.368 0.18889 0.3007 -0.93483
-0.023085 -0.04834 0.368 0.11287 0.30322 -0.94621
-0.023085 -0.04766 0.368 0.029984 0.31856 -0.94743
-0.023085 -0.046979 0.368 -0.068437 0.34237 -0.93707
-0.023085 -0.046298 0.368 -0.14568 0.34244 -0.92818
-0.023148 -0.045741 0.369 -0.23002 0.3679 -0.90097
-0.023148 -0.045058 0.369 -0.29183 0.37656 -0.87923
-0.023148 -0.044376 0.369 -0.34122 0.37327 -0.86269
-0.023148 -0.043693 0.369 -0.36895 0.36887 -0.85312
-0.02321 -0.043127 0.37 -0.42171 0.41436 -0.80651
-0.02321 -0.042442 0.37 -0.4234 0.41883 -0.80332
-0.023273 -0.04187 0.371 -0.47496 0.45806 -0.75139
-0.023273 -0.041184 0.371 -0.48017 0.45324 -0.75101
-0.023273 -0.040498 0.371 -0.48377 0.42571 -0.76468
-0.023273 -0.039811 0.371 -0.4649 0.36752 -0.80548
-0.023336 -0.03923 0.372 -0.52598 0.43626 -0.73009
-0.023399 -0.038646 0.373 -0.541 0.46117 -0.7033
-0.023461 -0.038057 0.374 -0.52921 0.45321 -0.71731
-0.023524 -0.037465 0.375 -0.50358 0.4364 -0.74563
-0.023524 -0.036772 0.375 -0.46825 0.43582 -0.76864
-0.023524 -0.036078 0.375 -0.41434 0.42849 -0.80294
-0.023587 -0.035478 0.376 -0.35276 0.40975 -0.84123
-0.023587 -0.034783 0.376 -0.29976 0.38996 -0.87067
-0.023587 -0.034087 0.376 -0.24886 0.3664 -0.89656
-0.023587 -0.033391 0.376 -0.22171 0.35591 -0.90784
-0.023587 -0.032696 0.376 -0.20355 0.3517 -0.91371
-0.023649 -0.032085 0.377 -0.20102 0.35108 -0.91451
-0.023649 -0.031388 0.377 -0.20572 0.3441 -0.91612
-0.023649 -0.03069 0.377 -0.21674 0.34799 -0.9121
-0.023649 -0.029993 0.377 -0.23857 0.35364 -0.90445
-0.023649 -0.029295 0.377 -0.25391 0.35959 -0.8979
-0.023712 -0.028673 0.378 -0.28716 0.36789 -0.88442
-0.023712 -0.027974 0.378 -0.31888 0.38057 -0.86804
-0.023712 -0.027275 0.378 -0.32796 0.39206 -0.8595
-0.023712 -0.026575 0.378 -0.34329 0.40056 -0.84953
-0.023712 -0.025876 0.378 -0.35518 0.39915 -0.8453
-0.023775 -0.025243 0.379 -0.38369 0.41281 -0.82606
-0.023775 -0.024542 0.379 -0.4167 0.40693 -0.81288
-0.023775 -0.023841 0.379 -0.44167 0.39874 -0.8037
-0.023838 -0.023201 0.38 -0.48029 0.40639 -0.77728
-0.023838 -0.022498 0.38 -0.50636 0.39646 -0.76578
-0.0239 -0.021852 0.381 -0.53224 0.40292 -0.74457
-0.0239 -0.021147 0.381 -0.53487 0.40613 -0.74092
-0.023963 -0.020496 0.382 -0.5615 0.39482 -0.72721
-0.024026 -0.019841 0.383 -0.5932 0.35836 -0.72089
-0.024089 -0.019182 0.384 -0.64894 0.30393 -0.6975
-0.024089 -0.018472 0.384 -0.59326 0.35551 -0.72225
-0.024089 -0.017761 0.384 -0.48345 0.41223 -0.77223
-0.024841 -0.016118 0.396 0.055557 0.30574 -0.95049
-0.024779 -0.015347 0.395 -0.28836 0.30807 -0.90661
-0.024779 -0.014616 0.395 -0.28477 0.31496 -0.90538
-0.024779 -0.013885 0.395 -0.25764 0.31937 -0.91193
-0.024841 -0.013188 0.396 -0.17456 0.32747 -0.9286
-0.024841 -0.012455 0.396 -0.19297 0.32811 -0.92472
-0.024841 -0.011722 0.396 -0.21607 0.33593 -0.91677
-0.024841 -0.01099 0.396 -0.23022 0.34088 -0.91148
-0.024841 -0.010257 0.396 -0.25676 0.34563 -0.90256
-0.024904 -0.0095486 0.397 -0.26045 0.3482 -0.90051
-0.024904 -0.0088141 0.397 -0.28572 0.35115 -0.89166
-0.024904 -0.0080796 0.397 -0.32912 0.34601 -0.87861
-0.024904 -0.0073451 0.397 -0.35634 0.34067 -0.87004
-0.024967 -0.0066272 0.398 -0.38696 0.34461 -0.85528
-0.024967 -0.0058908 0.398 -0.41756 0.34665 -0.83993
-0.024967 -0.0051545 0.398 -0.4412 0.34212 -0.82964
-0.02503 -0.0044292 0.399 -0.48313 0.35933 -0.79842
-0.02503 -0.003691 0.399 -0.49044 0.3524 -0.79705
-0.025092 -0.0029602 0.4 -0.50873 0.35837 -0.78279
-0.025092 -0.0022202 0.4 -0.48982 0.34917 -0.79884
-0.025155 -0.0014838 0.401 -0.52955 0.3708 -0.76295
-0.025218 -0.00074376 0.402 -0.57041 0.40326 -0.71555
-0.025218 0 0.402 -0.56338 0.35899 -0.74413
-0.028292 0.020026 0.451 0.48173 0.42235 -0.76782
-0.028229 0.020814 0.45 0.37892 0.44234 -0.81287
-0.028229 0.021647 0.45 0.46683 0.40939 -0.78388
-0.028166 0.022429 0.449 0.39954 0.40606 -0.82188
-0.028166 0.02326 0.449 0.43329 0.39287 -0.81112
-0.028103 0.024037 0.448 0.42629 0.33184 -0.84152
-0.028103 0.024866 0.448 0.39605 0.34685 -0.8502
-0.028041 0.025637 0.447 0.43764 0.28807 -0.85176
-0.028041 0.026464 0.447 0.34281 0.31079 -0.88651
-0.028041 0.027291 0.447 0.25028 0.33463 -0.90851
-0.028041 0.029772 0.447 0.0082141 0.33081 -0.94366
-0.028041 0.030599 0.447 -0.053882 0.3042 -0.95108
-0.028041 0.031426 0.447 -0.09004 0.2926 -0.95199
-0.024537 -0.097674 0.403 0.40518 -0.48218 -0.77675
-0.024537 -0.096929 0.403 0.38606 -0.56402 -0.72996
-0.024476 -0.095944 0.402 0.42216 -0.43815 -0.79361
-0.024476 -0.094457 0.402 0.42104 -0.57906 -0.69815
-0.024415 -0.09348 0.401 0.43527 -0.47759 -0.76318
-0.024354 -0.092507 0.4 0.42349 -0.35658 -0.83277
-0.024354 -0.091767 0.4 0.42868 -0.42304 -0.7983
-0.024293 -0.090799 0.399 0.40469 -0.30273 -0.86289
-0.024293 -0.090061 0.399 0.42088 -0.38408 -0.82179
-0.024232 -0.089099 0.398 0.38065 -0.26999 -0.88443
-0.024232 -0.088363 0.398 0.37579 -0.33591 -0.86368
-0.024232 -0.087626 0.398 0.37541 -0.39062 -0.84053
-0.024172 -0.086672 0.397 0.36775 -0.27502 -0.88833
-0.024172 -0.085937 0.397 0.37286 -0.31955 -0.87113
-0.024172 -0.085203 0.397 0.3586 -0.34055 -0.86916
-0.024111 -0.084255 0.396 0.36301 -0.20609 -0.90871
-0.02405 -0.083312 0.395 0.33753 -0.041921 -0.94038
-0.02405 -0.082581 0.395 0.32543 -0.081374 -0.94206
-0.023989 -0.081643 0.394 0.2641 0.079701 -0.9612
-0.02405 -0.081119 0.395 0.31449 -0.14494 -0.93813
-0.023989 -0.080185 0.394 0.34148 -0.024548 -0.93957
-0.023989 -0.079456 0.394 0.3721 -0.041113 -0.92728
-0.023989 -0.078727 0.394 0.41405 -0.054112 -0.90864
-0.023989 -0.077998 0.394 0.41291 -0.071837 -0.90794
-0.023989 -0.077269 0.394 0.42613 -0.080189 -0.9011
-0.023867 -0.076152 0.392 0.54092 0.18418 -0.82066
-0.023928 -0.075619 0.393 0.45421 0.035551 -0.89018
-0.023867 -0.074701 0.392 0.51275 0.16263 -0.84299
-0.023806 -0.073787 0.391 0.49199 0.36473 -0.79052
-0.023806 -0.073064 0.391 0.45787 0.3669 -0.80978
-0.023745 -0.072155 0.39 0.32718 0.63261 -0.70197
-0.023867 -0.0718 0.392 0.33088 0.17568 -0.92718
-0.023806 -0.070894 0.391 0.35287 0.36249 -0.8626
-0.023745 -0.069991 0.39 0.48448 0.42148 -0.76657
-0.023745 -0.069269 0.39 0.44035 0.44425 -0.78021
-0.023685 -0.068372 0.389 0.58966 0.41027 -0.69569
-0.023137 -0.063978 0.38 0.78253 0.10442 -0.6138
-0.023015 -0.062242 0.378 0.76193 0.18394 -0.62099
-0.022893 -0.061217 0.376 0.65241 0.18575 -0.73475
-0.022893 -0.060522 0.376 0.72223 0.18663 -0.666
-0.022832 -0.059667 0.375 0.67859 0.19764 -0.70743
-0.022771 -0.058816 0.374 0.63553 0.17829 -0.75121
-0.022771 -0.058124 0.374 0.69017 0.19068 -0.69807
-0.02271 -0.057278 0.373 0.6553 0.17764 -0.73418
-0.02271 -0.056588 0.373 0.65644 0.2037 -0.72635
-0.022649 -0.055748 0.372 0.62926 0.20168 -0.75057
-0.022589 -0.054912 0.371 0.59227 0.1961 -0.78151
-0.022589 -0.054226 0.371 0.56886 0.21238 -0.79454
-0.022528 -0.053395 0.37 0.53918 0.21527 -0.81421
-0.022528 -0.05271 0.37 0.50714 0.21559 -0.83447
-0.022467 -0.051885 0.369 0.45194 0.22273 -0.8638
-0.022467 -0.051203 0.369 0.39741 0.22508 -0.88961
-0.022467 -0.05052 0.369 0.32917 0.24094 -0.91301
-0.022406 -0.049702 0.368 0.26584 0.24131 -0.93333
-0.022406 -0.049021 0.368 0.18943 0.25226 -0.94894
-0.022406 -0.04834 0.368 0.12269 0.2517 -0.96
-0.022406 -0.04766 0.368 0.042194 0.26649 -0.96291
-0.022406 -0.046979 0.368 -0.050005 0.29108 -0.95539
-0.022406 -0.046298 0.368 -0.13547 0.30339 -0.94319
-0.022406 -0.045617 0.368 -0.1974 0.30758 -0.93082
-0.022406 -0.044936 0.368 -0.25735 0.31425 -0.91379
-0.022467 -0.044376 0.369 -0.3414 0.34257 -0.87527
-0.022467 -0.043693 0.369 -0.37892 0.34627 -0.85821
-0.022467 -0.04301 0.369 -0.39889 0.32776 -0.85642
-0.022528 -0.042442 0.37 -0.43765 0.3701 -0.81944
-0.022528 -0.041758 0.37 -0.46359 0.36128 -0.80905
-0.022589 -0.041184 0.371 -0.50492 0.39558 -0.76719
-0.022589 -0.040498 0.371 -0.52387 0.37842 -0.76313
-0.022589 -0.039811 0.371 -0.52531 0.3391 -0.78042
-0.022649 -0.03923 0.372 -0.56518 0.38308 -0.73063
-0.02271 -0.038646 0.373 -0.57144 0.39597 -0.7188
-0.02271 -0.037956 0.373 -0.56231 0.38754 -0.73049
-0.022771 -0.037365 0.374 -0.54441 0.38039 -0.74761
-0.022832 -0.036772 0.375 -0.49954 0.37942 -0.77878
-0.022832 -0.036078 0.375 -0.44707 0.37925 -0.81012
-0.022832 -0.035384 0.375 -0.38659 0.36433 -0.84724
-0.022893 -0.034783 0.376 -0.33016 0.34904 -0.87702
-0.022893 -0.034087 0.376 -0.27354 0.32863 -0.90398
-0.022893 -0.033391 0.376 -0.23854 0.31536 -0.9185
-0.022893 -0.032696 0.376 -0.21714 0.31108 -0.92525
-0.022893 -0.032 0.376 -0.21181 0.31244 -0.92602
-0.022893 -0.031304 0.376 -0.20675 0.30981 -0.92805
-0.022954 -0.03069 0.377 -0.20774 0.31787 -0.9251
-0.022954 -0.029993 0.377 -0.22687 0.32523 -0.91802
-0.022954 -0.029295 0.377 -0.23958 0.33189 -0.91239
-0.022954 -0.028598 0.377 -0.27217 0.34486 -0.89833
-0.022954 -0.0279 0.377 -0.30028 0.35913 -0.88366
-0.023015 -0.027275 0.378 -0.31652 0.37134 -0.87288
-0.023015 -0.026575 0.378 -0.33614 0.37902 -0.86218
-0.023015 -0.025876 0.378 -0.35578 0.38201 -0.85293
-0.023076 -0.025243 0.379 -0.37852 0.39088 -0.83901
-0.023076 -0.024542 0.379 -0.41409 0.38995 -0.82248
-0.023076 -0.023841 0.379 -0.44675 0.3867 -0.80677
-0.023076 -0.02314 0.379 -0.45088 0.38053 -0.8074
-0.023137 -0.022498 0.38 -0.5113 0.38641 -0.76763
-0.023137 -0.021795 0.38 -0.51181 0.39603 -0.76237
-0.023197 -0.021147 0.381 -0.54793 0.38965 -0.74023
-0.023258 -0.020496 0.382 -0.58694 0.35359 -0.72834
-0.023319 -0.019132 0.383 -0.60067 0.35735 -0.71519
-0.02338 -0.018472 0.384 -0.66158 0.30511 -0.685
-0.02338 -0.017761 0.384 -0.56972 0.37454 -0.73153
-0.02405 -0.015347 0.395 -0.22127 0.29575 -0.92929
-0.02405 -0.014616 0.395 -0.23544 0.30403 -0.92311
-0.02405 -0.013885 0.395 -0.22955 0.31042 -0.92247
-0.024111 -0.012455 0.396 -0.18786 0.30813 -0.93261
-0.024111 -0.011722 0.396 -0.21282 0.31407 -0.92524
-0.024111 -0.01099 0.396 -0.22864 0.3212 -0.919
-0.024111 -0.010257 0.396 -0.26249 0.32621 -0.90812
-0.024111 -0.0095245 0.396 -0.2773 0.3217 -0.90533
-0.024111 -0.0087919 0.396 -0.29214 0.32381 -0.89989
-0.024172 -0.0080796 0.397 -0.33429 0.31839 -0.88706
-0.024172 -0.0073451 0.397 -0.36067 0.31422 -0.87817
-0.024172 -0.0066105 0.397 -0.38741 0.31919 -0.86489
-0.024232 -0.0058908 0.398 -0.42016 0.32186 -0.84845
-0.024232 -0.0051545 0.398 -0.44636 0.3214 -0.83514
-0.024293 -0.0044292 0.399 -0.4815 0.32527 -0.81385
-0.024293 -0.003691 0.399 -0.49201 0.325 -0.80765
-0.024293 -0.0029528 0.399 -0.47966 0.31128 -0.82039
-0.024354 -0.0022202 0.4 -0.5115 0.3284 -0.79405
-0.024354 -0.0014801 0.4 -0.4803 0.30567 -0.82212
-0.024415 -0.00074191 0.401 -0.52077 0.33464 -0.78537
-0.024476 0 0.402 -0.58263 0.37164 -0.72279
-0.024537 0.0022368 0.403 -0.55326 0.26321 -0.79033
-0.024598 0.0029898 0.404 -0.61329 0.28039 -0.73841
-0.027399 0.019981 0.45 0.36 0.411 -0.83754
-0.027399 0.020814 0.45 0.46076 0.37028 -0.80659
-0.027338 0.021599 0.449 0.37471 0.37455 -0.84811
-0.027338 0.022429 0.449 0.4418 0.35289 -0.82479
-0.027277 0.023208 0.448 0.39255 0.3176 -0.86315
-0.027277 0.024037 0.448 0.4177 0.30912 -0.85439
-0.027216 0.02481 0.447 0.42411 0.24018 -0.87318
-0.027216 0.025637 0.447 0.39645 0.28032 -0.87421
-0.027216 0.026464 0.447 0.30917 0.30659 -0.90023
-0.027216 0.027291 0.447 0.21736 0.32772 -0.91943
-0.027155 0.028056 0.446 0.19568 0.24384 -0.94987
-0.027216 0.030599 0.447 -0.064243 0.32408 -0.94385
-0.027216 0.031426 0.447 -0.10687 0.31415 -0.94334
-0.023675 -0.092738 0.401 0.42791 -0.49645 -0.75527
-0.023616 -0.091767 0.4 0.42604 -0.35516 -0.83208
-0.023616 -0.091027 0.4 0.43046 -0.45193 -0.78132
-0.023616 -0.090287 0.4 0.43329 -0.52096 -0.73543
-0.023557 -0.089323 0.399 0.4027 -0.41875 -0.81393
-0.023557 -0.088585 0.399 0.38484 -0.48833 -0.78322
-0.023498 -0.087626 0.398 0.38512 -0.36313 -0.84842
-0.023439 -0.086672 0.397 0.38454 -0.21015 -0.89887
-0.023439 -0.085937 0.397 0.39717 -0.29468 -0.86915
-0.023439 -0.085203 0.397 0.37891 -0.35481 -0.85471
-0.023439 -0.084468 0.397 0.37277 -0.40091 -0.83685
-0.023439 -0.083734 0.397 0.35079 -0.442 -0.82558
-0.02338 -0.08279 0.396 0.3469 -0.2893 -0.89217
-0.02338 -0.082057 0.396 0.32634 -0.32628 -0.88715
-0.02338 -0.081325 0.396 0.33385 -0.36169 -0.87047
-0.02338 -0.080592 0.396 0.32444 -0.39936 -0.85747
-0.023321 -0.079658 0.395 0.34134 -0.249 -0.90636
-0.023321 -0.078927 0.395 0.35043 -0.28854 -0.89104
-0.023321 -0.078196 0.395 0.33973 -0.33038 -0.88059
-0.023262 -0.077269 0.394 0.41787 -0.12404 -0.9
-0.023262 -0.07654 0.394 0.40329 -0.17232 -0.8987
-0.023203 -0.075619 0.393 0.44363 0.030217 -0.8957
-0.023144 -0.073976 0.392 0.4841 0.14132 -0.86353
-0.023085 -0.073064 0.391 0.42179 0.39544 -0.81591
-0.023085 -0.07234 0.391 0.36893 0.37815 -0.84905
-0.023085 -0.071617 0.391 0.38822 0.29454 -0.87323
-0.023085 -0.07017 0.391 0.35477 0.15539 -0.92195
-0.022967 -0.068372 0.389 0.54369 0.36145 -0.75747
-0.022435 -0.064681 0.38 0.69994 0.19621 -0.68672
-0.022494 -0.064146 0.381 0.83399 -0.066549 -0.54776
-0.022317 -0.061543 0.378 0.8207 0.11622 -0.55942
-0.022199 -0.060522 0.376 0.73657 0.17672 -0.65286
-0.02214 -0.059667 0.375 0.69919 0.18768 -0.68986
-0.022081 -0.058816 0.374 0.65156 0.17799 -0.73742
-0.022081 -0.058124 0.374 0.69931 0.17225 -0.69375
-0.022022 -0.057278 0.373 0.6594 0.16468 -0.73354
-0.021963 -0.056437 0.372 0.64018 0.17134 -0.74888
-0.021963 -0.055748 0.372 0.63114 0.17632 -0.75536
-0.021904 -0.054912 0.371 0.59575 0.17077 -0.78481
-0.021845 -0.05408 0.37 0.56551 0.1758 -0.80579
-0.021845 -0.053395 0.37 0.54219 0.18221 -0.82026
-0.021786 -0.052568 0.369 0.51375 0.17586 -0.83972
-0.021786 -0.051885 0.369 0.46394 0.18359 -0.86663
-0.021786 -0.051203 0.369 0.41199 0.18056 -0.89312
-0.021786 -0.05052 0.369 0.34099 0.18842 -0.92099
-0.021727 -0.049702 0.368 0.27325 0.18891 -0.94321
-0.021727 -0.049021 0.368 0.192 0.19497 -0.96183
-0.021727 -0.04834 0.368 0.1256 0.19142 -0.97344
-0.021727 -0.04766 0.368 0.051168 0.20411 -0.97761
-0.021727 -0.046979 0.368 -0.043819 0.22676 -0.97297
-0.021727 -0.046298 0.368 -0.12196 0.23857 -0.96344
-0.021727 -0.045617 0.368 -0.19593 0.25515 -0.94684
-0.021727 -0.044936 0.368 -0.26321 0.27706 -0.9241
-0.021727 -0.044255 0.368 -0.31205 0.27588 -0.90913
-0.021786 -0.043693 0.369 -0.37042 0.29913 -0.87938
-0.021786 -0.04301 0.369 -0.40349 0.28667 -0.86892
-0.021786 -0.042327 0.369 -0.43179 0.29057 -0.85389
-0.021845 -0.041758 0.37 -0.48179 0.30151 -0.82278
-0.021845 -0.041073 0.37 -0.50051 0.29561 -0.8137
-0.021904 -0.040498 0.371 -0.54974 0.32259 -0.77054
-0.021904 -0.039811 0.371 -0.56573 0.29513 -0.76997
-0.021904 -0.039125 0.371 -0.56506 0.25967 -0.78312
-0.021963 -0.038542 0.372 -0.59662 0.3061 -0.74186
-0.022022 -0.037956 0.373 -0.59713 0.30706 -0.74104
-0.022081 -0.037365 0.374 -0.57922 0.30282 -0.75684
-0.022081 -0.036673 0.374 -0.53747 0.30922 -0.78454
-0.02214 -0.036078 0.375 -0.48166 0.31892 -0.81627
-0.02214 -0.035384 0.375 -0.41241 0.31557 -0.8546
-0.02214 -0.03469 0.375 -0.35065 0.3086 -0.8842
-0.022199 -0.034087 0.376 -0.27935 0.29917 -0.9124
-0.022199 -0.033391 0.376 -0.23398 0.29496 -0.92642
-0.022199 -0.032696 0.376 -0.21295 0.29642 -0.93101
-0.022199 -0.032 0.376 -0.20219 0.29913 -0.93255
-0.022199 -0.031304 0.376 -0.19786 0.3004 -0.93306
