-0.027832 -0.062995 0.431 0.53418 -0.0035046 -0.84537
-0.027832 -0.062198 0.431 0.51162 -0.011575 -0.85913
-0.027768 -0.061258 0.43 0.50516 -0.016135 -0.86287
-0.027768 -0.060463 0.43 0.47552 -0.016447 -0.87955
-0.027703 -0.059528 0.429 0.46403 -0.03042 -0.8853
-0.027703 -0.058735 0.429 0.4387 -0.039262 -0.89777
-0.027638 -0.057806 0.428 0.41951 -0.039753 -0.90688
-0.027638 -0.057014 0.428 0.37263 -0.037741 -0.92721
-0.027638 -0.056222 0.428 0.36742 -0.049435 -0.92874
-0.027574 -0.055301 0.427 0.35201 -0.048891 -0.93472
-0.027574 -0.054511 0.427 0.34242 -0.053969 -0.93799
-0.027574 -0.053721 0.427 0.30879 -0.054634 -0.94956
-0.027574 -0.052931 0.427 0.28153 -0.045121 -0.95849
-0.027509 -0.052019 0.426 0.27946 -0.036219 -0.95947
-0.027509 -0.05123 0.426 0.25985 -0.024294 -0.96534
-0.027509 -0.050442 0.426 0.25042 0 -0.96814
-0.027509 -0.049654 0.426 0.23406 0.018347 -0.97205
-0.027509 -0.048866 0.426 0.20769 0.027683 -0.9778
-0.027445 -0.047965 0.425 0.16111 0.037317 -0.98623
-0.027445 -0.047179 0.425 0.14164 0.059199 -0.98815
-0.027445 -0.046392 0.425 0.12205 0.073861 -0.98977
-0.027445 -0.045606 0.425 0.091989 0.088607 -0.99181
-0.027445 -0.04482 0.425 0.052354 0.10129 -0.99348
-0.027445 -0.044033 0.425 -0.026204 0.10139 -0.9945
-0.027445 -0.043247 0.425 -0.078468 0.091815 -0.99268
-0.027445 -0.042461 0.425 -0.11681 0.084247 -0.98957
-0.027445 -0.041674 0.425 -0.14948 0.086958 -0.98493
-0.027445 -0.040888 0.425 -0.20458 0.082016 -0.97541
-0.027509 -0.040196 0.426 -0.24405 0.071999 -0.96709
-0.027509 -0.039408 0.426 -0.26874 0.067504 -0.96084
-0.027509 -0.03862 0.426 -0.27808 0.067318 -0.9582
-0.027509 -0.037832 0.426 -0.29925 0.06687 -0.95183
-0.027574 -0.03713 0.427 -0.30242 0.057728 -0.95143
-0.027574 -0.03634 0.427 -0.28337 0.046096 -0.9579
-0.027574 -0.03555 0.427 -0.27503 0.04521 -0.96037
-0.027574 -0.03476 0.427 -0.26467 0.051377 -0.96297
-0.027638 -0.03405 0.428 -0.2593 0.058356 -0.96403
-0.027638 -0.033258 0.428 -0.23842 0.05868 -0.96939
-0.027638 -0.032466 0.428 -0.2316 0.065843 -0.97058
-0.027638 -0.031674 0.428 -0.19635 0.081585 -0.97713
-0.027638 -0.030883 0.428 -0.14025 0.096672 -0.98538
-0.027703 -0.030161 0.429 -0.054922 0.10954 -0.99246
-0.027703 -0.029367 0.429 0.016571 0.126 -0.99189
-0.027703 -0.028574 0.429 0.087408 0.14972 -0.98486
-0.027638 -0.027715 0.428 0.16855 0.17416 -0.97018
-0.027638 -0.026923 0.428 0.24326 0.20199 -0.9487
-0.027638 -0.026131 0.428 0.30702 0.22214 -0.92541
-0.027638 -0.02534 0.428 0.32711 0.24036 -0.91391
-0.027574 -0.02449 0.427 0.32782 0.25944 -0.90842
-0.027574 -0.0237 0.427 0.30765 0.27536 -0.91079
-0.027574 -0.02291 0.427 0.27683 0.28948 -0.91628
-0.027509 -0.022068 0.426 0.22744 0.30629 -0.92437
-0.027509 -0.02128 0.426 0.18086 0.32074 -0.92974
-0.027509 -0.020492 0.426 0.13169 0.33028 -0.93465
-0.027509 -0.019704 0.426 0.068957 0.34285 -0.93686
-0.027509 -0.018916 0.426 0.0049405 0.34192 -0.93972
-0.027509 -0.018128 0.426 -0.060266 0.33695 -0.93959
-0.027509 -0.01734 0.426 -0.1141 0.33449 -0.93547
-0.027509 -0.016551 0.426 -0.17601 0.32277 -0.92997
-0.027509 -0.015763 0.426 -0.23437 0.31099 -0.92106
-0.027509 -0.014975 0.426 -0.28364 0.30762 -0.90825
-0.027574 -0.01422 0.427 -0.32518 0.30272 -0.89589
-0.027574 -0.01343 0.427 -0.36289 0.29247 -0.88474
-0.027574 -0.01264 0.427 -0.39189 0.28464 -0.87488
-0.027638 -0.011878 0.428 -0.41225 0.27799 -0.86762
-0.027638 -0.011086 0.428 -0.43188 0.27276 -0.8597
-0.027703 -0.010318 0.429 -0.44285 0.28023 -0.85168
-0.027703 -0.0095245 0.429 -0.4441 0.28641 -0.84897
-0.027768 -0.0087512 0.43 -0.44834 0.28987 -0.84556
-0.027768 -0.0079556 0.43 -0.45173 0.29945 -0.8404
-0.027832 -0.0071767 0.431 -0.46046 0.30727 -0.8328
-0.027832 -0.0063793 0.431 -0.47106 0.31061 -0.8256
-0.027832 -0.0055819 0.431 -0.48061 0.31195 -0.81958
-0.027897 -0.0047956 0.432 -0.48611 0.32177 -0.8125
-0.027897 -0.0039963 0.432 -0.49228 0.32201 -0.80869
-0.027961 -0.0032044 0.433 -0.50407 0.32521 -0.8001
-0.027961 -0.0024033 0.433 -0.51901 0.31693 -0.79384
-0.028026 -0.0016059 0.434 -0.53848 0.3013 -0.78693
-0.028026 -0.00080296 0.434 -0.55773 0.28131 -0.7809
-0.02809 0 0.435 -0.57802 0.26403 -0.77212
-0.02809 0.00080481 0.435 -0.58488 0.24193 -0.7742
-0.028155 0.0016133 0.436 -0.61099 0.23121 -0.75712
-0.02822 0.0024255 0.437 -0.63355 0.2293 -0.73894
-0.028284 0.0032414 0.438 -0.64781 0.21698 -0.73025
-0.028284 0.0040518 0.438 -0.65626 0.20488 -0.72619
-0.028349 0.0048733 0.439 -0.67212 0.19292 -0.71487
-0.028413 0.0056984 0.44 -0.68016 0.18413 -0.70956
-0.028478 0.0065273 0.441 -0.6818 0.17763 -0.70965
-0.028478 0.0073432 0.441 -0.67923 0.17189 -0.71351
-0.028542 0.0081776 0.442 -0.66884 0.18006 -0.72127
-0.028607 0.0090157 0.443 -0.65638 0.17992 -0.73267
-0.028672 0.0098575 0.444 -0.64477 0.16601 -0.74613
-0.028736 0.010703 0.445 -0.62371 0.14898 -0.76732
-0.028736 0.011526 0.445 -0.63157 0.1563 -0.7594
-0.028801 0.012377 0.446 -0.62584 0.14892 -0.76561
-0.028801 0.013203 0.446 -0.6103 0.13212 -0.78107
-0.028865 0.014059 0.447 -0.62923 0.13509 -0.76539
-0.02893 0.01492 0.448 -0.66627 0.13419 -0.73354
-0.028994 0.015784 0.449 -0.70964 0.12801 -0.69284
-0.028994 0.016614 0.449 -0.6411 0.11811 -0.75832
-0.029188 0.017562 0.452 -0.8682 0.16337 -0.46855
-0.029253 0.018438 0.453 -0.87561 0.14165 -0.46179
-0.029382 0.019362 0.455 -0.83758 0.08871 -0.53906
-0.029511 0.020292 0.457 -0.72294 0.052054 -0.68895
-0.028166 -0.078087 0.449 0.95471 0.064547 -0.29044
-0.027978 -0.07674 0.446 0.93746 0.023844 -0.34727
-0.02779 -0.075404 0.443 0.86641 0 -0.49934
-0.027664 -0.074248 0.441 0.80395 -0.029897 -0.59395
-0.027601 -0.073265 0.44 0.81158 -0.03016 -0.58347
-0.027539 -0.072287 0.439 0.81928 -0.034533 -0.57235
-0.027476 -0.071312 0.438 0.8089 -0.033748 -0.58698
-0.027413 -0.07034 0.437 0.76871 -0.034 -0.63869
-0.027288 -0.069214 0.435 0.67717 -0.013433 -0.7357
-0.027225 -0.068252 0.434 0.62105 -0.032509 -0.78309
-0.027225 -0.067449 0.434 0.66771 -0.027794 -0.74391
-0.027162 -0.066492 0.433 0.61537 -0.025271 -0.78784
-0.0271 -0.065539 0.432 0.57411 -0.013971 -0.81866
-0.0271 -0.06474 0.432 0.58163 -0.028581 -0.81295
-0.027037 -0.063793 0.431 0.55663 -0.025818 -0.83036
-0.027037 -0.062995 0.431 0.53158 -0.017553 -0.84683
-0.027037 -0.062198 0.431 0.5081 -0.031223 -0.86073
-0.026974 -0.061258 0.43 0.50498 -0.031362 -0.86256
-0.026974 -0.060463 0.43 0.47539 -0.02923 -0.87929
-0.026911 -0.059528 0.429 0.46017 -0.043397 -0.88677
-0.026911 -0.058735 0.429 0.43159 -0.05251 -0.90054
-0.026849 -0.057806 0.428 0.41376 -0.053118 -0.90884
-0.026849 -0.057014 0.428 0.36826 -0.049417 -0.92841
-0.026849 -0.056222 0.428 0.36038 -0.063135 -0.93067
-0.026849 -0.05543 0.428 0.34239 -0.063593 -0.9374
-0.026786 -0.054511 0.427 0.33242 -0.072793 -0.94032
-0.026786 -0.053721 0.427 0.30301 -0.073554 -0.95015
-0.026786 -0.052931 0.427 0.2804 -0.059133 -0.95806
-0.026723 -0.052019 0.426 0.28291 -0.056225 -0.9575
-0.026723 -0.05123 0.426 0.26805 -0.052453 -0.96198
-0.026723 -0.050442 0.426 0.26263 -0.032358 -0.96435
-0.026723 -0.049654 0.426 0.24849 -0.015233 -0.96852
-0.026661 -0.048751 0.425 0.22879 -0.010231 -0.97342
-0.026661 -0.047965 0.425 0.18739 -0.0051621 -0.98227
-0.026661 -0.047179 0.425 0.16627 0.014508 -0.98597
-0.026661 -0.046392 0.425 0.14285 0.029115 -0.98932
-0.026661 -0.045606 0.425 0.10679 0.043849 -0.99331
-0.026661 -0.04482 0.425 0.065113 0.053413 -0.99645
-0.026661 -0.044033 0.425 -0.022096 0.053513 -0.99832
-0.026661 -0.043247 0.425 -0.082871 0.050213 -0.99529
-0.026661 -0.042461 0.425 -0.12432 0.045838 -0.99118
-0.026661 -0.041674 0.425 -0.15495 0.049778 -0.98667
-0.026661 -0.040888 0.425 -0.20794 0.05338 -0.97668
-0.026661 -0.040102 0.425 -0.25069 0.047763 -0.96689
-0.026723 -0.039408 0.426 -0.27193 0.04234 -0.96139
-0.026723 -0.03862 0.426 -0.27846 0.042257 -0.95952
-0.026723 -0.037832 0.426 -0.29682 0.049 -0.95367
-0.026786 -0.03713 0.427 -0.2971 0.048881 -0.95359
-0.026786 -0.03634 0.427 -0.27974 0.040139 -0.95924
-0.026786 -0.03555 0.427 -0.27788 0.040162 -0.95977
-0.026786 -0.03476 0.427 -0.27405 0.049233 -0.96045
-0.026849 -0.03405 0.428 -0.26485 0.063267 -0.96221
-0.026849 -0.033258 0.428 -0.24017 0.06872 -0.96829
-0.026849 -0.032466 0.428 -0.22954 0.07394 -0.97049
-0.026849 -0.031674 0.428 -0.19623 0.08867 -0.97654
-0.026849 -0.030883 0.428 -0.13195 0.11103 -0.98502
-0.026911 -0.030161 0.429 -0.03933 0.12592 -0.99126
-0.026911 -0.029367 0.429 0.043392 0.13806 -0.98947
-0.026911 -0.028574 0.429 0.11772 0.15822 -0.98036
-0.026849 -0.027715 0.428 0.19942 0.1848 -0.96233
-0.026849 -0.026923 0.428 0.27116 0.21261 -0.93876
-0.026849 -0.026131 0.428 0.32999 0.22576 -0.91659
-0.026786 -0.02528 0.427 0.3498 0.23792 -0.90611
-0.026786 -0.02449 0.427 0.34792 0.24958 -0.9037
-0.026786 -0.0237 0.427 0.32368 0.26772 -0.9075
-0.026723 -0.022857 0.426 0.28727 0.28743 -0.91371
-0.026723 -0.022068 0.426 0.23972 0.301 -0.923
-0.026723 -0.02128 0.426 0.18899 0.3115 -0.93126
-0.026723 -0.020492 0.426 0.14007 0.31675 -0.93811
-0.026723 -0.019704 0.426 0.071385 0.32529 -0.94292
-0.026723 -0.018916 0.426 0.0059735 0.32168 -0.94683
-0.026723 -0.018128 0.426 -0.065754 0.31296 -0.94749
-0.026661 -0.017299 0.425 -0.12026 0.31023 -0.94302
-0.026723 -0.016551 0.426 -0.18202 0.3022 -0.93571
-0.026723 -0.015763 0.426 -0.24478 0.29447 -0.92378
-0.026723 -0.014975 0.426 -0.29358 0.28511 -0.91243
-0.026723 -0.014187 0.426 -0.33505 0.27843 -0.90012
-0.026786 -0.01343 0.427 -0.3703 0.26882 -0.88916
-0.026786 -0.01264 0.427 -0.39621 0.26739 -0.87836
-0.026849 -0.011878 0.428 -0.40999 0.26589 -0.87248
-0.026849 -0.011086 0.428 -0.42807 0.26263 -0.86474
-0.026911 -0.010318 0.429 -0.43447 0.26855 -0.85972
-0.026911 -0.0095245 0.429 -0.43952 0.2735 -0.85558
-0.026911 -0.0087308 0.429 -0.44092 0.27892 -0.8531
-0.026974 -0.0079556 0.43 -0.445 0.28408 -0.84928
-0.026974 -0.00716 0.43 -0.45649 0.29009 -0.84111
-0.027037 -0.0063793 0.431 -0.46862 0.29283 -0.83346
-0.027037 -0.0055819 0.431 -0.48047 0.29604 -0.82554
-0.027037 -0.0047845 0.431 -0.48753 0.29545 -0.8216
-0.0271 -0.0039963 0.432 -0.49903 0.3001 -0.81297
-0.0271 -0.003197 0.432 -0.50672 0.29693 -0.80936
-0.027162 -0.0024033 0.433 -0.52929 0.29105 -0.79696
-0.027225 -0.0016059 0.434 -0.55 0.27586 -0.78829
-0.027225 -0.00080296 0.434 -0.5714 0.2625 -0.77756
-0.027288 0 0.435 -0.59025 0.25058 -0.76734
-0.027288 0.00080481 0.435 -0.60341 0.23468 -0.76212
-0.027351 0.0016133 0.436 -0.62264 0.2323 -0.74723
-0.027413 0.0024255 0.437 -0.64001 0.23241 -0.73238
-0.027413 0.003234 0.437 -0.64664 0.21629 -0.73149
-0.027476 0.0040518 0.438 -0.66118 0.21441 -0.71893
-0.027539 0.0048733 0.439 -0.6702 0.20117 -0.7144
-0.027601 0.0056984 0.44 -0.67699 0.19146 -0.71065
-0.027601 0.0065125 0.44 -0.67162 0.17613 -0.71966
-0.027664 0.0073432 0.441 -0.68193 0.18394 -0.70791
-0.027727 0.0081776 0.442 -0.67175 0.18345 -0.7177
-0.02779 0.0090157 0.443 -0.65694 0.17696 -0.73288
-0.027852 0.0098575 0.444 -0.64209 0.15647 -0.75049
-0.027915 0.010703 0.445 -0.61723 0.13497 -0.77512
-0.027915 0.011526 0.445 -0.6352 0.14803 -0.75803
-0.027978 0.012377 0.446 -0.6288 0.14185 -0.76452
-0.027978 0.013203 0.446 -0.62109 0.13394 -0.77221
-0.028041 0.014059 0.447 -0.63697 0.13822 -0.75839
-0.028103 0.01492 0.448 -0.67522 0.13968 -0.72427
-0.028103 0.015748 0.448 -0.6177 0.14077 -0.77371
-0.028166 0.016614 0.449 -0.66987 0.12087 -0.73257
-0.028292 0.017523 0.451 -0.78915 0.15739 -0.5937
-0.028417 0.018438 0.453 -0.88343 0.10488 -0.45668
-0.028542 0.019362 0.455 -0.84072 0.016128 -0.54123
-0.028668 0.020292 0.457 -0.71578 -0.010932 -0.69824
-0.027277 -0.077913 0.448 0.92424 0.059511 -0.37714
-0.027155 -0.07674 0.446 0.93801 0.013767 -0.34634
-0.026972 -0.075404 0.443 0.85468 -0.032944 -0.51811
-0.026911 -0.074416 0.442 0.875 -0.028857 -0.48326
-0.02679 -0.073265 0.44 0.81256 -0.04917 -0.5808
-0.026729 -0.072287 0.439 0.82119 -0.055826 -0.56792
-0.026668 -0.071312 0.438 0.80964 -0.055714 -0.58427
-0.026607 -0.07034 0.437 0.77161 -0.056111 -0.63362
-0.026546 -0.069373 0.436 0.75045 -0.046234 -0.65931
-0.026485 -0.068409 0.435 0.71014 -0.035702 -0.70316
-0.026424 -0.067449 0.434 0.66769 -0.035647 -0.74359
-0.026363 -0.066492 0.433 0.62049 -0.031423 -0.78358
-0.026363 -0.065691 0.433 0.62269 -0.033871 -0.78173
-0.026303 -0.06474 0.432 0.58371 -0.036066 -0.81116
-0.026303 -0.063941 0.432 0.55684 -0.030898 -0.83004
-0.026242 -0.062995 0.431 0.53157 -0.018431 -0.84681
-0.026242 -0.062198 0.431 0.50342 -0.032216 -0.86344
-0.026181 -0.061258 0.43 0.49958 -0.032374 -0.86566
-0.026181 -0.060463 0.43 0.46899 -0.027511 -0.88277
-0.02612 -0.059528 0.429 0.44918 -0.04089 -0.89251
-0.02612 -0.058735 0.429 0.42077 -0.053747 -0.90558
-0.02612 -0.057941 0.429 0.39931 -0.059064 -0.91491
-0.026059 -0.057014 0.428 0.36134 -0.058276 -0.93061
-0.026059 -0.056222 0.428 0.35249 -0.073028 -0.93296
-0.026059 -0.05543 0.428 0.33434 -0.073546 -0.93958
-0.025998 -0.054511 0.427 0.32959 -0.080693 -0.94067
-0.025998 -0.053721 0.427 0.30553 -0.081381 -0.9487
-0.025998 -0.052931 0.427 0.28302 -0.068056 -0.9567
-0.025937 -0.052019 0.426 0.29002 -0.071053 -0.95438
-0.025937 -0.05123 0.426 0.27978 -0.07527 -0.95711
-0.025937 -0.050442 0.426 0.27819 -0.061313 -0.95857
-0.025937 -0.049654 0.426 0.26624 -0.047447 -0.96274
-0.025937 -0.048866 0.426 0.24638 -0.042641 -0.96824
-0.025876 -0.047965 0.425 0.21001 -0.043117 -0.97675
-0.025876 -0.047179 0.425 0.18632 -0.02787 -0.98209
-0.025876 -0.046392 0.425 0.15817 -0.015565 -0.98729
-0.025876 -0.045606 0.425 0.12135 -0.0083459 -0.99257
-0.025876 -0.04482 0.425 0.077757 -0.0031436 -0.99697
-0.025876 -0.044033 0.425 -0.017914 -0.0031526 -0.99983
-0.025876 -0.043247 0.425 -0.087146 0 -0.9962
-0.025876 -0.042461 0.425 -0.13677 0.0041646 -0.99059
-0.025876 -0.041674 0.425 -0.16426 0.0093305 -0.98637
-0.025876 -0.040888 0.425 -0.21409 0.021555 -0.97658
-0.025937 -0.040196 0.426 -0.25798 0.02127 -0.96592
-0.025937 -0.039408 0.426 -0.28051 0.021131 -0.95962
-0.025937 -0.03862 0.426 -0.28237 0.021119 -0.95907
-0.025937 -0.037832 0.426 -0.29608 0.035031 -0.95452
-0.025998 -0.03713 0.427 -0.29168 0.043981 -0.9555
-0.025998 -0.03634 0.427 -0.27417 0.039203 -0.96088
-0.025998 -0.03555 0.427 -0.27696 0.040173 -0.96004
-0.025998 -0.03476 0.427 -0.27773 0.052181 -0.95924
-0.026059 -0.03405 0.428 -0.26852 0.067194 -0.96093
-0.026059 -0.033258 0.428 -0.23906 0.077782 -0.96788
-0.026059 -0.032466 0.428 -0.22364 0.081097 -0.97129
-0.026059 -0.031674 0.428 -0.18619 0.098961 -0.97752
-0.026059 -0.030883 0.428 -0.11963 0.12135 -0.98537
-0.02612 -0.030161 0.429 -0.015501 0.14221 -0.98971
-0.02612 -0.029367 0.429 0.071003 0.15393 -0.98553
-0.02612 -0.028574 0.429 0.14753 0.16944 -0.97444
-0.026059 -0.027715 0.428 0.22859 0.1951 -0.95377
-0.026059 -0.026923 0.428 0.29663 0.22016 -0.92927
-0.026059 -0.026131 0.428 0.34564 0.22979 -0.9098
-0.025998 -0.02528 0.427 0.36033 0.23955 -0.90154
-0.025998 -0.02449 0.427 0.35669 0.25219 -0.89954
-0.025937 -0.023645 0.426 0.32992 0.27117 -0.90422
-0.025937 -0.022857 0.426 0.29326 0.28862 -0.91143
-0.025937 -0.022068 0.426 0.24498 0.30321 -0.9209
-0.025876 -0.02123 0.425 0.19862 0.31419 -0.92835
-0.025876 -0.020444 0.425 0.14335 0.31549 -0.93804
-0.025876 -0.019658 0.425 0.072709 0.31884 -0.94502
-0.025876 -0.018871 0.425 0.010011 0.31249 -0.94987
-0.025876 -0.018085 0.425 -0.059094 0.30564 -0.95031
-0.025876 -0.017299 0.425 -0.12161 0.3012 -0.94578
-0.025876 -0.016512 0.425 -0.1868 0.29273 -0.93777
-0.025937 -0.015763 0.426 -0.25227 0.27974 -0.92634
-0.025937 -0.014975 0.426 -0.3028 0.26937 -0.9142
-0.025937 -0.014187 0.426 -0.34097 0.26047 -0.90327
-0.025998 -0.01343 0.427 -0.37274 0.2531 -0.89275
-0.025998 -0.01264 0.427 -0.39595 0.24875 -0.88394
-0.026059 -0.011878 0.428 -0.41097 0.25065 -0.87651
-0.026059 -0.011086 0.428 -0.42669 0.2495 -0.8693
-0.026059 -0.010294 0.428 -0.43153 0.25802 -0.86441
-0.02612 -0.0095245 0.429 -0.43444 0.25707 -0.86324
-0.02612 -0.0087308 0.429 -0.4381 0.26231 -0.8598
-0.026181 -0.0079556 0.43 -0.44137 0.26373 -0.85769
-0.026181 -0.00716 0.43 -0.45581 0.27044 -0.84799
-0.026181 -0.0063645 0.43 -0.46898 0.2731 -0.83993
-0.026242 -0.0055819 0.431 -0.48066 0.2776 -0.83181
-0.026242 -0.0047845 0.431 -0.49272 0.27393 -0.82595
-0.026242 -0.003987 0.431 -0.499 0.27254 -0.82263
-0.026303 -0.003197 0.432 -0.51321 0.27189 -0.81406
-0.026363 -0.0024033 0.433 -0.53652 0.2638 -0.8016
-0.026363 -0.0016022 0.433 -0.56092 0.24625 -0.7904
-0.026424 -0.00080296 0.434 -0.58522 0.23632 -0.77567
-0.026424 0 0.434 -0.59882 0.2202 -0.77002
-0.026485 0.00080481 0.435 -0.61977 0.21848 -0.75376
-0.026546 0.0016133 0.436 -0.63373 0.21802 -0.7422
-0.026607 0.0024255 0.437 -0.64274 0.21393 -0.7356
-0.026668 0.0032414 0.438 -0.64295 0.19304 -0.74118
-0.026668 0.0040518 0.438 -0.66114 0.20449 -0.72186
-0.026729 0.0048733 0.439 -0.66552 0.19445 -0.7206
-0.026729 0.0056855 0.439 -0.66351 0.18625 -0.72462
-0.02679 0.0065125 0.44 -0.67636 0.17644 -0.71513
-0.026851 0.0073432 0.441 -0.68304 0.18558 -0.70642
-0.026911 0.0081776 0.442 -0.67717 0.18366 -0.71254
-0.026972 0.0090157 0.443 -0.66135 0.17446 -0.72951
-0.027033 0.0098575 0.444 -0.64041 0.1556 -0.7521
-0.027033 0.010679 0.444 -0.64903 0.16143 -0.74344
-0.027094 0.011526 0.445 -0.63488 0.14173 -0.7595
-0.027094 0.01235 0.445 -0.63379 0.13535 -0.76157
-0.027155 0.013203 0.446 -0.62727 0.12424 -0.76883
-0.027216 0.014059 0.447 -0.64366 0.13483 -0.75335
-0.027216 0.014886 0.447 -0.60274 0.12 -0.78886
-0.027277 0.015748 0.448 -0.6372 0.14265 -0.75738
-0.027338 0.016614 0.449 -0.68376 0.12401 -0.71909
-0.027459 0.017523 0.451 -0.80303 0.16109 -0.57375
-0.02752 0.018398 0.452 -0.83236 0.13142 -0.53843
-0.027764 0.019404 0.456 -0.71128 -0.085816 -0.69765
-0.027825 0.020292 0.457 -0.69732 -0.05671 -0.71451
-0.02645 -0.077913 0.448 0.92271 0.057212 -0.38124
-0.026332 -0.07674 0.446 0.92982 -0.0018322 -0.36801
-0.026155 -0.075404 0.443 0.83948 -0.066581 -0.53929
-0.026096 -0.074416 0.442 0.86675 -0.060198 -0.4951
-0.025978 -0.073265 0.44 0.80168 -0.093873 -0.59034
-0.025919 -0.072287 0.439 0.81397 -0.089003 -0.57405
-0.02586 -0.071312 0.438 0.80156 -0.090209 -0.59107
-0.025801 -0.07034 0.437 0.76937 -0.084484 -0.63319
-0.025742 -0.069373 0.436 0.74833 -0.065785 -0.66006
-0.025683 -0.068409 0.435 0.71022 -0.061244 -0.70131
-0.025624 -0.067449 0.434 0.66871 -0.056671 -0.74136
-0.025565 -0.066492 0.433 0.62797 -0.054424 -0.77633
-0.025565 -0.065691 0.433 0.63083 -0.056681 -0.77385
-0.025506 -0.06474 0.432 0.58533 -0.052465 -0.80909
-0.025506 -0.063941 0.432 0.56409 -0.048582 -0.82428
-0.025446 -0.062995 0.431 0.53514 -0.033244 -0.84411
-0.025446 -0.062198 0.431 0.50533 -0.037527 -0.86211
-0.025387 -0.061258 0.43 0.49889 -0.033287 -0.86603
-0.025387 -0.060463 0.43 0.46901 -0.025679 -0.88282
-0.025328 -0.059528 0.429 0.44626 -0.03724 -0.89413
-0.025328 -0.058735 0.429 0.41544 -0.047293 -0.90839
-0.025328 -0.057941 0.429 0.39211 -0.056407 -0.91819
-0.025269 -0.057014 0.428 0.35721 -0.052557 -0.93255
-0.025269 -0.056222 0.428 0.34748 -0.067352 -0.93526
-0.025269 -0.05543 0.428 0.32382 -0.072854 -0.94331
-0.02521 -0.054511 0.427 0.31892 -0.082966 -0.94414
-0.02521 -0.053721 0.427 0.30005 -0.083504 -0.95026
-0.02521 -0.052931 0.427 0.28283 -0.077013 -0.95607
-0.02521 -0.052141 0.427 0.29454 -0.08563 -0.95179
-0.025151 -0.05123 0.426 0.29027 -0.097821 -0.95193
-0.025151 -0.050442 0.426 0.28403 -0.091077 -0.95448
-0.025151 -0.049654 0.426 0.27231 -0.076438 -0.95917
-0.025151 -0.048866 0.426 0.25175 -0.067825 -0.96541
-0.025092 -0.047965 0.425 0.2195 -0.068533 -0.9732
-0.025092 -0.047179 0.425 0.19409 -0.053535 -0.97952
-0.025092 -0.046392 0.425 0.16313 -0.039373 -0.98582
-0.025092 -0.045606 0.425 0.12233 -0.029196 -0.99206
-0.025092 -0.04482 0.425 0.085025 -0.02931 -0.99595
-0.025092 -0.044033 0.425 -0.0052682 -0.024167 -0.99969
-0.025092 -0.043247 0.425 -0.07566 -0.014671 -0.99703
-0.025092 -0.042461 0.425 -0.1265 -0.0020852 -0.99196
-0.025092 -0.041674 0.425 -0.15615 0.0031144 -0.98773
-0.025092 -0.040888 0.425 -0.20425 0.017488 -0.97876
-0.025151 -0.040196 0.426 -0.2475 0.022345 -0.96863
-0.025151 -0.039408 0.426 -0.27491 0.022174 -0.96121
-0.025151 -0.03862 0.426 -0.28143 0.02213 -0.95933
-0.025151 -0.037832 0.426 -0.29514 0.037041 -0.95473
-0.02521 -0.03713 0.427 -0.29162 0.048968 -0.95528
-0.02521 -0.03634 0.427 -0.27498 0.049219 -0.96019
-0.02521 -0.03555 0.427 -0.27781 0.046174 -0.95953
-0.02521 -0.03476 0.427 -0.27861 0.055167 -0.95882
-0.025269 -0.03405 0.428 -0.27033 0.07015 -0.96021
-0.025269 -0.033258 0.428 -0.23699 0.085848 -0.96771
-0.025269 -0.032466 0.428 -0.21772 0.087252 -0.9721
-0.025269 -0.031674 0.428 -0.17128 0.10126 -0.98
-0.025269 -0.030883 0.428 -0.10229 0.12159 -0.9873
-0.025269 -0.030091 0.428 0.0020705 0.1466 -0.98919
-0.025269 -0.029299 0.428 0.092614 0.15701 -0.98325
-0.025269 -0.028507 0.428 0.17649 0.17195 -0.96917
-0.025269 -0.027715 0.428 0.25574 0.19375 -0.94713
-0.025269 -0.026923 0.428 0.31976 0.21387 -0.92305
-0.02521 -0.02607 0.427 0.36414 0.22412 -0.90397
-0.02521 -0.02528 0.427 0.37695 0.23436 -0.89609
-0.02521 -0.02449 0.427 0.37101 0.24634 -0.89536
-0.025151 -0.023645 0.426 0.34063 0.26399 -0.90237
-0.025151 -0.022857 0.426 0.30367 0.27894 -0.91103
-0.025092 -0.022017 0.425 0.25438 0.29435 -0.92122
-0.025092 -0.02123 0.425 0.20524 0.29966 -0.93171
-0.025092 -0.020444 0.425 0.14134 0.2968 -0.94442
-0.025092 -0.019658 0.425 0.067315 0.29456 -0.95326
-0.025092 -0.018871 0.425 0.0020169 0.29064 -0.95683
-0.025092 -0.018085 0.425 -0.063497 0.28545 -0.95629
-0.025092 -0.017299 0.425 -0.13327 0.2798 -0.95076
-0.025092 -0.016512 0.425 -0.19953 0.27026 -0.94188
-0.025092 -0.015726 0.425 -0.26073 0.25903 -0.93001
-0.025151 -0.014975 0.426 -0.30592 0.25311 -0.9178
-0.025151 -0.014187 0.426 -0.34389 0.24699 -0.90595
-0.025151 -0.013399 0.426 -0.37132 0.24247 -0.89629
-0.02521 -0.01264 0.427 -0.38862 0.24442 -0.88839
-0.02521 -0.01185 0.427 -0.40431 0.24946 -0.87994
-0.025269 -0.011086 0.428 -0.41957 0.25378 -0.87153
-0.025269 -0.010294 0.428 -0.42635 0.25872 -0.86677
-0.025269 -0.0095023 0.428 -0.42743 0.26189 -0.86528
-0.025328 -0.0087308 0.429 -0.43269 0.26554 -0.86155
-0.025328 -0.0079371 0.429 -0.43965 0.26699 -0.85757
-0.025387 -0.00716 0.43 -0.45322 0.26924 -0.84976
-0.025387 -0.0063645 0.43 -0.466 0.27042 -0.84245
-0.025387 -0.0055689 0.43 -0.47827 0.26658 -0.83678
-0.025446 -0.0047845 0.431 -0.49341 0.26917 -0.8271
-0.025446 -0.003987 0.431 -0.50405 0.26496 -0.82203
-0.025506 -0.003197 0.432 -0.51804 0.25957 -0.81502
-0.025506 -0.0023978 0.432 -0.53908 0.24607 -0.80551
-0.025565 -0.0016022 0.433 -0.56638 0.23846 -0.7889
-0.025565 -0.00080111 0.433 -0.58363 0.21719 -0.78244
-0.025624 0 0.434 -0.61114 0.21498 -0.76176
-0.025683 0.00080481 0.435 -0.6311 0.21144 -0.74633
-0.025683 0.0016096 0.435 -0.63029 0.19859 -0.75053
-0.025742 0.00242 0.436 -0.64594 0.20143 -0.73633
-0.025801 0.003234 0.437 -0.65618 0.20123 -0.72728
-0.02586 0.0040518 0.438 -0.65769 0.19949 -0.72639
-0.025919 0.0048733 0.439 -0.65786 0.19316 -0.72795
-0.025919 0.0056855 0.439 -0.66412 0.19242 -0.72244
-0.025978 0.0065125 0.44 -0.67495 0.18731 -0.71369
-0.026037 0.0073432 0.441 -0.68028 0.18913 -0.70813
-0.026096 0.0081776 0.442 -0.67678 0.18985 -0.71129
-0.026155 0.0090157 0.443 -0.66003 0.17881 -0.72965
-0.026214 0.0098575 0.444 -0.63303 0.15073 -0.75931
-0.026214 0.010679 0.444 -0.65511 0.1593 -0.73855
-0.026273 0.011526 0.445 -0.63775 0.13855 -0.75768
-0.026273 0.01235 0.445 -0.64272 0.14114 -0.75299
-0.026332 0.013203 0.446 -0.63655 0.1304 -0.76013
-0.026391 0.014059 0.447 -0.64857 0.13577 -0.74895
-0.02645 0.01492 0.448 -0.68499 0.14613 -0.71374
-0.02645 0.015748 0.448 -0.65126 0.14337 -0.74518
-0.026509 0.016614 0.449 -0.69523 0.13883 -0.70525
-0.026627 0.017523 0.451 -0.8116 0.15956 -0.562
-0.026745 0.018438 0.453 -0.89562 0.094057 -0.43477
-0.026923 0.019404 0.456 -0.70837 -0.12134 -0.69533
-0.026982 0.020292 0.457 -0.6888 -0.089478 -0.71941
-0.025624 -0.077913 0.448 0.92242 0.034047 -0.38469
-0.025452 -0.076568 0.445 0.86627 -0.052222 -0.49684
-0.025452 -0.075745 0.445 0.90448 -0.055201 -0.42293
-0.02528 -0.074416 0.442 0.85502 -0.090227 -0.51068
-0.025166 -0.073265 0.44 0.78455 -0.11399 -0.6095
-0.025109 -0.072287 0.439 0.80145 -0.11082 -0.58771
-0.025052 -0.071312 0.438 0.79301 -0.1121 -0.5988
-0.024994 -0.07034 0.437 0.76818 -0.10321 -0.63186
-0.024937 -0.069373 0.436 0.74811 -0.076221 -0.65918
-0.02488 -0.068409 0.435 0.71056 -0.066656 -0.70047
-0.024823 -0.067449 0.434 0.6726 -0.060939 -0.7375
-0.024766 -0.066492 0.433 0.63135 -0.058226 -0.77331
-0.024766 -0.065691 0.433 0.64032 -0.059453 -0.76581
-0.024708 -0.06474 0.432 0.59017 -0.051111 -0.80566
-0.024708 -0.063941 0.432 0.57147 -0.052501 -0.81894
-0.024651 -0.062995 0.431 0.53883 -0.035764 -0.84166
-0.024651 -0.062198 0.431 0.50744 -0.031237 -0.86112
-0.024594 -0.061258 0.43 0.49835 -0.023408 -0.86666
-0.024594 -0.060463 0.43 0.46913 -0.012842 -0.88304
-0.024537 -0.059528 0.429 0.44347 -0.021459 -0.89603
-0.024537 -0.058735 0.429 0.41023 -0.027526 -0.91157
-0.024537 -0.057941 0.429 0.38509 -0.039363 -0.92204
-0.02448 -0.057014 0.428 0.3531 -0.042919 -0.9346
-0.02448 -0.056222 0.428 0.34253 -0.056768 -0.93779
-0.02448 -0.05543 0.428 0.31328 -0.067228 -0.94728
-0.02448 -0.054638 0.428 0.30763 -0.07917 -0.94821
-0.024423 -0.053721 0.427 0.29 -0.084765 -0.95327
-0.024423 -0.052931 0.427 0.27895 -0.085055 -0.95653
-0.024423 -0.052141 0.427 0.29689 -0.099353 -0.94973
-0.024365 -0.05123 0.426 0.29435 -0.11343 -0.94894
-0.024365 -0.050442 0.426 0.2852 -0.11376 -0.95169
-0.024365 -0.049654 0.426 0.27069 -0.10436 -0.95699
-0.024365 -0.048866 0.426 0.24732 -0.098046 -0.96396
-0.024308 -0.047965 0.425 0.21785 -0.10404 -0.97042
-0.024308 -0.047179 0.425 0.19555 -0.090321 -0.97653
-0.024308 -0.046392 0.425 0.16682 -0.075429 -0.9831
-0.024308 -0.045606 0.425 0.12728 -0.063462 -0.98983
-0.024308 -0.04482 0.425 0.090116 -0.058518 -0.99421
-0.024308 -0.044033 0.425 0.010526 -0.049336 -0.99873
-0.024308 -0.043247 0.425 -0.055742 -0.033562 -0.99788
-0.024308 -0.042461 0.425 -0.10894 -0.018803 -0.99387
-0.024308 -0.041674 0.425 -0.14188 -0.0093633 -0.98984
-0.024308 -0.040888 0.425 -0.18937 0.011352 -0.98184
-0.024365 -0.040196 0.426 -0.23402 0.025478 -0.9719
-0.024365 -0.039408 0.426 -0.26923 0.030281 -0.9626
-0.024365 -0.03862 0.426 -0.27858 0.030197 -0.95994
-0.024365 -0.037832 0.426 -0.29046 0.045102 -0.95582
-0.024423 -0.03713 0.427 -0.28594 0.059032 -0.95643
-0.024423 -0.03634 0.427 -0.26915 0.064337 -0.96095
-0.024423 -0.03555 0.427 -0.27205 0.058279 -0.96052
-0.024423 -0.03476 0.427 -0.2729 0.063267 -0.95996
-0.024423 -0.03397 0.427 -0.2661 0.077397 -0.96083
-0.02448 -0.033258 0.428 -0.23399 0.091924 -0.96788
-0.02448 -0.032466 0.428 -0.21182 0.091397 -0.97303
-0.02448 -0.031674 0.428 -0.15731 0.10048 -0.98242
-0.02448 -0.030883 0.428 -0.086976 0.11668 -0.98935
-0.02448 -0.030091 0.428 0.016569 0.14355 -0.9895
-0.02448 -0.029299 0.428 0.11 0.15173 -0.98228
-0.02448 -0.028507 0.428 0.20015 0.16432 -0.96589
-0.02448 -0.027715 0.428 0.27838 0.18114 -0.94324
-0.02448 -0.026923 0.428 0.33531 0.19986 -0.92066
-0.024423 -0.02607 0.427 0.3804 0.21368 -0.8998
-0.024423 -0.02528 0.427 0.39304 0.22304 -0.89206
-0.024365 -0.024433 0.426 0.38657 0.23299 -0.89234
-0.024365 -0.023645 0.426 0.35299 0.24698 -0.90244
-0.024365 -0.022857 0.426 0.31668 0.25839 -0.91266
-0.024308 -0.022017 0.425 0.26691 0.27297 -0.92425
-0.024308 -0.02123 0.425 0.21642 0.272 -0.93764
-0.024308 -0.020444 0.425 0.14942 0.26901 -0.95148
-0.024308 -0.019658 0.425 0.072016 0.26198 -0.96238
-0.024308 -0.018871 0.425 -0.0020377 0.25603 -0.96667
-0.024308 -0.018085 0.425 -0.076249 0.25245 -0.9646
-0.024308 -0.017299 0.425 -0.14347 0.24585 -0.95863
-0.024308 -0.016512 0.425 -0.21189 0.23622 -0.94831
-0.024308 -0.015726 0.425 -0.27354 0.23157 -0.93357
-0.024365 -0.014975 0.426 -0.31377 0.23082 -0.92102
-0.024365 -0.014187 0.426 -0.34675 0.23338 -0.90846
-0.024365 -0.013399 0.426 -0.36995 0.23117 -0.89983
-0.024423 -0.01264 0.427 -0.38278 0.23986 -0.89216
-0.024423 -0.01185 0.427 -0.39838 0.24761 -0.88317
-0.024423 -0.01106 0.427 -0.41398 0.25757 -0.87309
-0.02448 -0.010294 0.428 -0.42447 0.2623 -0.86662
-0.02448 -0.0095023 0.428 -0.42649 0.26367 -0.86521
-0.024537 -0.0087308 0.429 -0.43259 0.26637 -0.86134
-0.024537 -0.0079371 0.429 -0.44037 0.26688 -0.85723
-0.024537 -0.0071434 0.429 -0.46013 0.26473 -0.84747
-0.024594 -0.0063645 0.43 -0.46951 0.2643 -0.84244
-0.024594 -0.0055689 0.43 -0.48034 0.26254 -0.83686
-0.024651 -0.0047845 0.431 -0.4893 0.26208 -0.83181
-0.024651 -0.003987 0.431 -0.50166 0.25528 -0.82654
-0.024708 -0.003197 0.432 -0.52065 0.24523 -0.8178
-0.024708 -0.0023978 0.432 -0.54573 0.22919 -0.80601
-0.024766 -0.0016022 0.433 -0.57637 0.21625 -0.78806
-0.024766 -0.00080111 0.433 -0.59626 0.1997 -0.77756
-0.024823 0 0.434 -0.62308 0.19763 -0.75678
-0.024823 0.00080296 0.434 -0.62761 0.17872 -0.75774
-0.02488 0.0016096 0.435 -0.64532 0.1857 -0.741
-0.024937 0.00242 0.436 -0.65511 0.18372 -0.73286
-0.024994 0.003234 0.437 -0.65631 0.18101 -0.73246
-0.025052 0.0040518 0.438 -0.65129 0.17985 -0.73721
-0.025052 0.0048622 0.438 -0.65119 0.17709 -0.73796
-0.025109 0.0056855 0.439 -0.66325 0.18152 -0.72605
-0.025166 0.0065125 0.44 -0.67361 0.18493 -0.71557
-0.025166 0.0073265 0.44 -0.66419 0.1687 -0.72828
-0.025223 0.0081591 0.441 -0.68086 0.187 -0.70814
-0.025338 0.0090157 0.443 -0.65721 0.17309 -0.73357
-0.025338 0.0098353 0.443 -0.67165 0.18229 -0.7181
-0.025395 0.010679 0.444 -0.65735 0.15792 -0.73685
-0.025452 0.011526 0.445 -0.63844 0.13418 -0.75789
-0.025452 0.01235 0.445 -0.64886 0.1444 -0.74708
-0.025509 0.013203 0.446 -0.6382 0.13757 -0.75748
-0.025566 0.014059 0.447 -0.64924 0.14584 -0.74647
-0.025566 0.014886 0.447 -0.62923 0.12745 -0.7667
-0.025624 0.015748 0.448 -0.66109 0.14578 -0.73601
-0.025681 0.016614 0.449 -0.7042 0.15504 -0.69287
-0.025738 0.017484 0.45 -0.72198 0.16507 -0.67194
-0.02591 0.018438 0.453 -0.90112 0.086132 -0.42493
-0.026081 0.019404 0.456 -0.70929 -0.13534 -0.69181
-0.026138 0.020292 0.457 -0.6832 -0.10547 -0.72258
-0.024852 -0.078087 0.449 0.95392 -0.03127 -0.29842
-0.024631 -0.076568 0.445 0.85431 -0.029038 -0.51896
-0.024576 -0.075574 0.444 0.88177 -0.095184 -0.46197
-0.024465 -0.074416 0.442 0.84698 -0.097472 -0.52262
-0.02441 -0.073432 0.441 0.83787 -0.12125 -0.53223
-0.024354 -0.072451 0.44 0.82692 -0.12095 -0.54915
-0.024244 -0.071312 0.438 0.79114 -0.11339 -0.60103
-0.024188 -0.07034 0.437 0.76671 -0.092563 -0.63528
-0.024133 -0.069373 0.436 0.74873 -0.07237 -0.65891
-0.024077 -0.068409 0.435 0.70931 -0.061891 -0.70217
-0.024022 -0.067449 0.434 0.67256 -0.052312 -0.73819
-0.023967 -0.066492 0.433 0.62574 -0.044162 -0.77878
-0.023967 -0.065691 0.433 0.6419 -0.045075 -0.76546
-0.023911 -0.06474 0.432 0.58659 -0.026765 -0.80944
-0.023911 -0.063941 0.432 0.57372 -0.029622 -0.81851
-0.023856 -0.062995 0.431 0.53972 -0.016574 -0.84168
-0.023856 -0.062198 0.431 0.50698 -0.012505 -0.86187
-0.023801 -0.061258 0.43 0.50051 -0.0062952 -0.86571
-0.023801 -0.060463 0.43 0.46989 0.001834 -0.88273
-0.023745 -0.059528 0.429 0.44281 -0.0028008 -0.89661
-0.023745 -0.058735 0.429 0.404 -0.0095244 -0.91471
-0.023745 -0.057941 0.429 0.37787 -0.02313 -0.92557
-0.02369 -0.057014 0.428 0.34979 -0.034198 -0.9362
-0.02369 -0.056222 0.428 0.33925 -0.046088 -0.93957
-0.02369 -0.05543 0.428 0.30532 -0.06149 -0.95026
-0.02369 -0.054638 0.428 0.30053 -0.07443 -0.95086
-0.023635 -0.053721 0.427 0.28451 -0.083919 -0.95499
-0.023635 -0.052931 0.427 0.27522 -0.086144 -0.95751
-0.023635 -0.052141 0.427 0.29505 -0.1004 -0.95019
-0.023635 -0.051351 0.427 0.29457 -0.11512 -0.94867
-0.023635 -0.050561 0.427 0.28337 -0.12239 -0.95117
-0.023579 -0.049654 0.426 0.26747 -0.11832 -0.95627
-0.023579 -0.048866 0.426 0.24213 -0.11416 -0.9635
-0.023579 -0.048078 0.426 0.2159 -0.1239 -0.96852
-0.023524 -0.047179 0.425 0.19301 -0.11774 -0.97411
-0.023524 -0.046392 0.425 0.1633 -0.10822 -0.98062
-0.023524 -0.045606 0.425 0.12797 -0.095456 -0.98717
-0.023524 -0.04482 0.425 0.094079 -0.086521 -0.9918
-0.023524 -0.044033 0.425 0.028367 -0.074387 -0.99683
-0.023524 -0.043247 0.425 -0.031558 -0.0535 -0.99807
-0.023524 -0.042461 0.425 -0.086043 -0.03767 -0.99558
-0.023524 -0.041674 0.425 -0.12132 -0.025031 -0.9923
-0.023524 -0.040888 0.425 -0.1673 0 -0.98591
-0.023579 -0.040196 0.426 -0.21263 0.021511 -0.9769
-0.023579 -0.039408 0.426 -0.25027 0.035508 -0.96753
-0.023579 -0.03862 0.426 -0.2682 0.040371 -0.96252
-0.023579 -0.037832 0.426 -0.28471 0.059192 -0.95678
-0.023579 -0.037043 0.426 -0.28165 0.07423 -0.95664
-0.023635 -0.03634 0.427 -0.26597 0.083387 -0.96037
-0.023635 -0.03555 0.427 -0.27081 0.075296 -0.95968
-0.023635 -0.03476 0.427 -0.26811 0.070359 -0.96082
-0.023635 -0.03397 0.427 -0.26318 0.082455 -0.96122
-0.02369 -0.033258 0.428 -0.23393 0.094928 -0.96761
-0.02369 -0.032466 0.428 -0.20487 0.097579 -0.97391
-0.02369 -0.031674 0.428 -0.14424 0.10069 -0.98441
-0.02369 -0.030883 0.428 -0.068438 0.11685 -0.99079
-0.02369 -0.030091 0.428 0.033125 0.14349 -0.9891
-0.02369 -0.029299 0.428 0.12828 0.14839 -0.98057
-0.02369 -0.028507 0.428 0.22352 0.15663 -0.96203
-0.02369 -0.027715 0.428 0.29979 0.16761 -0.93917
-0.023635 -0.02686 0.427 0.34982 0.18356 -0.91866
-0.023635 -0.02607 0.427 0.39434 0.19897 -0.89717
-0.023579 -0.025221 0.426 0.40701 0.20621 -0.88984
-0.023579 -0.024433 0.426 0.39354 0.2173 -0.89325
-0.023579 -0.023645 0.426 0.35807 0.22697 -0.90569
-0.023524 -0.022803 0.425 0.31977 0.23989 -0.91662
-0.023524 -0.022017 0.425 0.26699 0.24766 -0.93133
-0.023524 -0.02123 0.425 0.21334 0.24456 -0.94587
-0.023524 -0.020444 0.425 0.14248 0.24588 -0.95877
-0.023524 -0.019658 0.425 0.072457 0.23916 -0.96827
-0.023524 -0.018871 0.425 -0.0051271 0.2311 -0.97292
-0.023524 -0.018085 0.425 -0.082794 0.22935 -0.96982
-0.023524 -0.017299 0.425 -0.1471 0.22763 -0.96257
-0.023524 -0.016512 0.425 -0.20677 0.22422 -0.95235
-0.023524 -0.015726 0.425 -0.27055 0.22155 -0.93686
-0.023579 -0.014975 0.426 -0.30845 0.22027 -0.92539
-0.023579 -0.014187 0.426 -0.33982 0.22592 -0.91295
-0.023579 -0.013399 0.426 -0.3619 0.23018 -0.90335
-0.023635 -0.01264 0.427 -0.37484 0.23983 -0.89553
-0.023635 -0.01185 0.427 -0.39115 0.25016 -0.88568
-0.023635 -0.01106 0.427 -0.40385 0.26054 -0.87694
-0.023635 -0.01027 0.427 -0.41616 0.27062 -0.86809
-0.02369 -0.0095023 0.428 -0.42314 0.27319 -0.8639
-0.02369 -0.0087105 0.428 -0.43229 0.27515 -0.85873
-0.023745 -0.0079371 0.429 -0.44158 0.274 -0.85436
-0.023745 -0.0071434 0.429 -0.46332 0.27142 -0.8436
-0.023745 -0.0063497 0.429 -0.47224 0.26998 -0.83911
-0.023801 -0.0055689 0.43 -0.48091 0.26797 -0.83482
-0.023801 -0.0047734 0.43 -0.49031 0.26089 -0.83159
-0.023856 -0.003987 0.431 -0.50027 0.2563 -0.82707
-0.023856 -0.0031896 0.431 -0.5194 0.24285 -0.81929
-0.023911 -0.0023978 0.432 -0.54515 0.2293 -0.80637
-0.023911 -0.0015985 0.432 -0.56829 0.2063 -0.79655
-0.023967 -0.00080111 0.433 -0.60382 0.20063 -0.77146
-0.023967 0 0.433 -0.61027 0.17426 -0.77279
-0.024022 0.00080296 0.434 -0.64134 0.18168 -0.74544
-0.024077 0.0016096 0.435 -0.65472 0.18262 -0.73348
-0.024133 0.00242 0.436 -0.65815 0.1796 -0.73115
-0.024188 0.003234 0.437 -0.6547 0.16963 -0.73661
-0.024188 0.0040426 0.437 -0.65354 0.17397 -0.73663
-0.024244 0.0048622 0.438 -0.65418 0.17272 -0.73635
-0.024299 0.0056855 0.439 -0.66264 0.1766 -0.72782
-0.024299 0.0064977 0.439 -0.64126 0.16614 -0.74912
-0.024354 0.0073265 0.44 -0.6709 0.17474 -0.72067
-0.02441 0.0081591 0.441 -0.68275 0.18481 -0.70689
-0.024465 0.0089954 0.442 -0.6784 0.18591 -0.71078
-0.02452 0.0098353 0.443 -0.67409 0.17655 -0.71724
-0.024576 0.010679 0.444 -0.66203 0.1535 -0.73359
-0.024631 0.011526 0.445 -0.64228 0.12926 -0.7555
-0.024631 0.01235 0.445 -0.65792 0.14456 -0.73908
-0.024686 0.013203 0.446 -0.64656 0.13965 -0.74997
-0.024686 0.014028 0.446 -0.63011 0.1285 -0.7658
-0.024742 0.014886 0.447 -0.64297 0.13529 -0.75385
-0.024797 0.015748 0.448 -0.66976 0.14276 -0.72873
-0.024852 0.016614 0.449 -0.71296 0.15552 -0.68374
-0.024908 0.017484 0.45 -0.73117 0.15353 -0.6647
-0.024963 0.018357 0.451 -0.74505 0.183 -0.64141
-0.02524 0.019404 0.456 -0.71144 -0.12613 -0.69133
-0.025351 0.020337 0.458 -0.51171 -0.099875 -0.85333
-0.02397 -0.077913 0.448 0.9165 -0.0075249 -0.39996
-0.023863 -0.07674 0.446 0.90424 -0.059408 -0.42286
-0.023703 -0.075404 0.443 0.79324 -0.1 -0.60064
-0.023649 -0.074416 0.442 0.83662 -0.10309 -0.538
-0.023542 -0.073265 0.44 0.76042 -0.11276 -0.63957
-0.023542 -0.072451 0.44 0.82513 -0.12451 -0.55105
-0.023435 -0.071312 0.438 0.78752 -0.1039 -0.60747
-0.023382 -0.07034 0.437 0.7618 -0.080521 -0.64279
-0.023328 -0.069373 0.436 0.74883 -0.064448 -0.65963
-0.023275 -0.068409 0.435 0.70705 -0.036971 -0.7062
-0.023221 -0.067449 0.434 0.67329 -0.027892 -0.73885
-0.023168 -0.066492 0.433 0.62895 -0.0073075 -0.77741
-0.023168 -0.065691 0.433 0.64885 -0.017999 -0.7607
-0.023114 -0.06474 0.432 0.59507 -0.0011406 -0.80367
-0.023114 -0.063941 0.432 0.58351 -0.0092364 -0.81205
-0.023061 -0.062995 0.431 0.54717 -0.0008675 -0.83702
-0.023061 -0.062198 0.431 0.51096 0.012471 -0.85951
-0.023007 -0.061258 0.43 0.50381 0.017046 -0.86364
-0.023007 -0.060463 0.43 0.46834 0.022022 -0.88328
-0.022954 -0.059528 0.429 0.43589 0.022484 -0.89972
-0.022954 -0.058735 0.429 0.3919 0.010537 -0.91995
-0.022954 -0.057941 0.429 0.36122 -0.0038837 -0.93247
-0.0229 -0.057014 0.428 0.33429 -0.021634 -0.94222
-0.0229 -0.056222 0.428 0.32187 -0.030616 -0.94629
-0.0229 -0.05543 0.428 0.29189 -0.049844 -0.95515
-0.0229 -0.054638 0.428 0.28802 -0.06283 -0.95556
-0.022847 -0.053721 0.427 0.27361 -0.075234 -0.95889
-0.022847 -0.052931 0.427 0.27152 -0.085243 -0.95865
-0.022847 -0.052141 0.427 0.29419 -0.098456 -0.95066
-0.022847 -0.051351 0.427 0.29736 -0.11306 -0.94805
-0.022847 -0.050561 0.427 0.28503 -0.12721 -0.95004
-0.022793 -0.049654 0.426 0.26807 -0.12816 -0.95484
-0.022793 -0.048866 0.426 0.24178 -0.1261 -0.9621
-0.022793 -0.048078 0.426 0.21465 -0.13391 -0.96747
-0.022793 -0.04729 0.426 0.19019 -0.1346 -0.97248
-0.02274 -0.046392 0.425 0.15985 -0.13061 -0.97846
-0.02274 -0.045606 0.425 0.12868 -0.11798 -0.98464
-0.02274 -0.04482 0.425 0.098033 -0.10608 -0.98951
-0.02274 -0.044033 0.425 0.046128 -0.092001 -0.99469
-0.02274 -0.043247 0.425 -0.0073604 -0.068157 -0.99765
-0.02274 -0.042461 0.425 -0.063025 -0.052376 -0.99664
-0.02274 -0.041674 0.425 -0.1006 -0.037619 -0.99422
-0.02274 -0.040888 0.425 -0.14495 -0.010399 -0.98938
-0.022793 -0.040196 0.426 -0.19092 0.016466 -0.98147
-0.022793 -0.039408 0.426 -0.23103 0.037719 -0.97221
-0.022793 -0.03862 0.426 -0.25294 0.051665 -0.9661
-0.022793 -0.037832 0.426 -0.27519 0.072377 -0.95866
-0.022793 -0.037043 0.426 -0.27393 0.087374 -0.95777
-0.022847 -0.03634 0.427 -0.26089 0.099447 -0.96023
-0.022847 -0.03555 0.427 -0.26861 0.090292 -0.95901
-0.022847 -0.03476 0.427 -0.26788 0.081347 -0.96001
-0.022847 -0.03397 0.427 -0.26487 0.090389 -0.96004
-0.022847 -0.03318 0.427 -0.23911 0.10003 -0.96583
-0.0229 -0.032466 0.428 -0.20277 0.10466 -0.97362
-0.0229 -0.031674 0.428 -0.14112 0.10683 -0.98421
-0.0229 -0.030883 0.428 -0.059104 0.12202 -0.99077
-0.0229 -0.030091 0.428 0.047604 0.14138 -0.98881
-0.0229 -0.029299 0.428 0.15141 0.14691 -0.97749
-0.0229 -0.028507 0.428 0.24726 0.15474 -0.95651
-0.0229 -0.027715 0.428 0.32318 0.15871 -0.93293
-0.022847 -0.02686 0.427 0.37126 0.17367 -0.91214
-0.022847 -0.02607 0.427 0.40761 0.18969 -0.89324
-0.022793 -0.025221 0.426 0.41617 0.1982 -0.88742
-0.022793 -0.024433 0.426 0.39814 0.20975 -0.89302
-0.02274 -0.023589 0.425 0.36307 0.21534 -0.90654
-0.02274 -0.022803 0.425 0.31845 0.22365 -0.92118
-0.02274 -0.022017 0.425 0.26395 0.22478 -0.93798
-0.02274 -0.02123 0.425 0.20796 0.21941 -0.95321
-0.02274 -0.020444 0.425 0.1404 0.22016 -0.96531
-0.022686 -0.019611 0.424 0.068962 0.21452 -0.97428
-0.022686 -0.018827 0.424 -0.010317 0.21502 -0.97655
-0.022686 -0.018043 0.424 -0.078155 0.21536 -0.9734
-0.02274 -0.017299 0.425 -0.14361 0.2133 -0.96637
-0.02274 -0.016512 0.425 -0.20429 0.21577 -0.95483
-0.02274 -0.015726 0.425 -0.26424 0.22009 -0.93901
-0.02274 -0.01494 0.425 -0.30452 0.22289 -0.92606
-0.022793 -0.014187 0.426 -0.33271 0.23015 -0.91451
-0.022793 -0.013399 0.426 -0.35281 0.23993 -0.90441
-0.022793 -0.012611 0.426 -0.36123 0.25489 -0.89697
-0.022847 -0.01185 0.427 -0.3777 0.26626 -0.88682
-0.022847 -0.01106 0.427 -0.38831 0.27594 -0.87925
-0.022847 -0.01027 0.427 -0.40452 0.28047 -0.87046
-0.0229 -0.0095023 0.428 -0.41484 0.28091 -0.86545
-0.0229 -0.0087105 0.428 -0.42725 0.28075 -0.85944
-0.0229 -0.0079186 0.428 -0.4452 0.27403 -0.85247
-0.022954 -0.0071434 0.429 -0.46605 0.2662 -0.84376
-0.022954 -0.0063497 0.429 -0.48191 0.26205 -0.83612
-0.023007 -0.0055689 0.43 -0.48976 0.26019 -0.83213
-0.023007 -0.0047734 0.43 -0.50194 0.25027 -0.8279
-0.023061 -0.003987 0.431 -0.5068 0.24499 -0.82652
-0.023061 -0.0031896 0.431 -0.52685 0.23219 -0.81763
-0.023114 -0.0023978 0.432 -0.5493 0.21928 -0.80634
-0.023114 -0.0015985 0.432 -0.5755 0.2003 -0.79289
-0.023168 -0.00080111 0.433 -0.61129 0.19315 -0.76748
-0.023168 0 0.433 -0.62171 0.17549 -0.76333
-0.023221 0.00080296 0.434 -0.64834 0.18111 -0.7395
-0.023275 0.0016096 0.435 -0.6588 0.18079 -0.73027
-0.023328 0.00242 0.436 -0.65891 0.17622 -0.73129
-0.023328 0.0032266 0.436 -0.65744 0.17265 -0.73346
-0.023382 0.0040426 0.437 -0.6529 0.17591 -0.73673
-0.023435 0.0048622 0.438 -0.65253 0.17483 -0.73732
-0.023435 0.0056725 0.438 -0.63112 0.16146 -0.7587
-0.023489 0.0064977 0.439 -0.64674 0.17651 -0.742
-0.023542 0.0073265 0.44 -0.67162 0.18797 -0.71666
-0.023596 0.0081591 0.441 -0.68088 0.19486 -0.706
-0.023649 0.0089954 0.442 -0.67967 0.19128 -0.70814
-0.023703 0.0098353 0.443 -0.67572 0.17763 -0.71544
-0.023756 0.010679 0.444 -0.66007 0.14723 -0.73663
-0.023756 0.0115 0.444 -0.67865 0.15358 -0.71823
-0.02381 0.01235 0.445 -0.66439 0.1448 -0.73322
-0.02381 0.013173 0.445 -0.65147 0.14249 -0.74517
-0.023863 0.014028 0.446 -0.64253 0.13436 -0.75439
-0.023917 0.014886 0.447 -0.65317 0.13978 -0.7442
-0.02397 0.015748 0.448 -0.67558 0.13701 -0.72445
-0.024024 0.016614 0.449 -0.71803 0.14598 -0.68053
-0.024024 0.017445 0.449 -0.62332 0.16377 -0.76462
-0.024238 0.018438 0.453 -0.92017 0.064793 -0.38612
-0.024399 0.019404 0.456 -0.71367 -0.10287 -0.69289
-0.024506 0.020337 0.458 -0.50937 -0.077011 -0.85709
-0.022989 -0.076568 0.445 0.82576 0.0075266 -0.56398
-0.022937 -0.075574 0.444 0.85929 -0.073019 -0.50625
-0.022834 -0.074416 0.442 0.82544 -0.086627 -0.5578
-0.022782 -0.073432 0.441 0.83368 -0.11617 -0.5399
-0.022731 -0.072451 0.44 0.82357 -0.12236 -0.55386
-0.022679 -0.071475 0.439 0.81698 -0.12127 -0.56377
-0.022576 -0.07034 0.437 0.75411 -0.070388 -0.65296
-0.022524 -0.069373 0.436 0.74646 -0.056825 -0.663
-0.022472 -0.068409 0.435 0.69684 -0.012978 -0.71711
-0.022421 -0.067449 0.434 0.66454 -0.0020164 -0.74725
-0.022369 -0.066492 0.433 0.62472 0.022404 -0.78053
-0.022369 -0.065691 0.433 0.65239 -0.00105 -0.75789
-0.022317 -0.06474 0.432 0.60236 0.0193 -0.79799
-0.022266 -0.063793 0.431 0.57984 0.014162 -0.81461
-0.022266 -0.062995 0.431 0.5574 0.0060232 -0.83022
-0.022214 -0.062054 0.43 0.52019 0.027489 -0.85361
-0.022214 -0.061258 0.43 0.50892 0.034847 -0.86011
-0.022214 -0.060463 0.43 0.46959 0.03574 -0.88216
-0.022162 -0.059528 0.429 0.43647 0.036506 -0.89898
-0.022162 -0.058735 0.429 0.38281 0.025001 -0.92349
-0.022162 -0.057941 0.429 0.34668 0.010743 -0.93792
-0.022111 -0.057014 0.428 0.32467 -0.0069098 -0.9458
-0.022111 -0.056222 0.428 0.30858 -0.011912 -0.95112
-0.022111 -0.05543 0.428 0.28106 -0.033033 -0.95912
-0.022111 -0.054638 0.428 0.2763 -0.045088 -0.96001
-0.022111 -0.053846 0.428 0.26116 -0.059328 -0.96347
-0.022059 -0.052931 0.427 0.25577 -0.076619 -0.9637
-0.022059 -0.052141 0.427 0.28165 -0.08796 -0.95548
-0.022059 -0.051351 0.427 0.28863 -0.10159 -0.95204
-0.022007 -0.050442 0.426 0.28142 -0.11685 -0.95244
-0.022007 -0.049654 0.426 0.2636 -0.1224 -0.95683
-0.022007 -0.048866 0.426 0.23713 -0.12228 -0.96375
-0.022007 -0.048078 0.426 0.21565 -0.13288 -0.96739
-0.022007 -0.04729 0.426 0.192 -0.14055 -0.97128
-0.021956 -0.046392 0.425 0.16261 -0.14163 -0.97647
-0.021956 -0.045606 0.425 0.13247 -0.1352 -0.98192
-0.021956 -0.04482 0.425 0.10815 -0.12134 -0.9867
-0.021956 -0.044033 0.425 0.055486 -0.10127 -0.99331
-0.021956 -0.043247 0.425 0.010508 -0.076497 -0.99701
-0.021956 -0.042461 0.425 -0.044138 -0.061832 -0.99711
-0.021956 -0.041674 0.425 -0.081846 -0.046042 -0.99558
-0.021956 -0.040888 0.425 -0.12236 -0.018773 -0.99231
-0.022007 -0.040196 0.426 -0.1669 0.011372 -0.98591
-0.022007 -0.039408 0.426 -0.20762 0.037923 -0.97747
-0.022007 -0.03862 0.426 -0.23176 0.059053 -0.97098
-0.022007 -0.037832 0.426 -0.25816 0.079757 -0.96281
-0.022007 -0.037043 0.426 -0.26242 0.09864 -0.9599
-0.022059 -0.03634 0.427 -0.25112 0.11264 -0.96138
-0.022059 -0.03555 0.427 -0.26656 0.097303 -0.95889
-0.022059 -0.03476 0.427 -0.26779 0.085336 -0.95969
-0.022059 -0.03397 0.427 -0.26674 0.09034 -0.95953
-0.022059 -0.03318 0.427 -0.24397 0.095906 -0.96503
-0.022111 -0.032466 0.428 -0.20088 0.10169 -0.97432
-0.022111 -0.031674 0.428 -0.13815 0.10281 -0.98506
-0.022111 -0.030883 0.428 -0.049834 0.11596 -0.992
-0.022111 -0.030091 0.428 0.062163 0.12708 -0.98994
-0.022111 -0.029299 0.428 0.16954 0.1375 -0.97588
-0.022111 -0.028507 0.428 0.26724 0.14419 -0.95278
-0.022059 -0.02765 0.427 0.3487 0.14529 -0.92591
-0.022059 -0.02686 0.427 0.38988 0.16216 -0.90648
-0.022007 -0.026009 0.426 0.42016 0.17731 -0.88996
-0.022007 -0.025221 0.426 0.42482 0.18581 -0.886
-0.022007 -0.024433 0.426 0.40315 0.1968 -0.89372
-0.021956 -0.023589 0.425 0.36858 0.19763 -0.90834
-0.021956 -0.022803 0.425 0.31922 0.20054 -0.92622
-0.021956 -0.022017 0.425 0.26386 0.19462 -0.94472
-0.021956 -0.02123 0.425 0.20142 0.19279 -0.96034
-0.021904 -0.020396 0.424 0.13362 0.1886 -0.97292
-0.021904 -0.019611 0.424 0.061159 0.18297 -0.98121
-0.021904 -0.018827 0.424 -0.012452 0.1873 -0.98222
-0.021904 -0.018043 0.424 -0.079606 0.1897 -0.97861
-0.021904 -0.017258 0.424 -0.13953 0.19337 -0.97115
-0.021956 -0.016512 0.425 -0.20009 0.20155 -0.95882
-0.021956 -0.015726 0.425 -0.2555 0.21216 -0.94325
-0.021956 -0.01494 0.425 -0.29205 0.2238 -0.92985
-0.021956 -0.014154 0.425 -0.31862 0.23275 -0.91886
-0.022007 -0.013399 0.426 -0.33637 0.24682 -0.90881
-0.022007 -0.012611 0.426 -0.34889 0.26401 -0.89921
-0.022059 -0.01185 0.427 -0.36633 0.27608 -0.88858
-0.022059 -0.01106 0.427 -0.37836 0.28805 -0.8797
-0.022059 -0.01027 0.427 -0.39776 0.28633 -0.87167
-0.022059 -0.0094801 0.427 -0.41213 0.28516 -0.86535
-0.022111 -0.0087105 0.428 -0.42703 0.28241 -0.85901
-0.022111 -0.0079186 0.428 -0.45203 0.26976 -0.85023
-0.022162 -0.0071434 0.429 -0.4747 0.26163 -0.84036
-0.022162 -0.0063497 0.429 -0.49241 0.2516 -0.83321
-0.022214 -0.0055689 0.43 -0.49751 0.25022 -0.83059
-0.022214 -0.0047734 0.43 -0.51037 0.2386 -0.82619
-0.022266 -0.003987 0.431 -0.51635 0.22362 -0.82667
-0.022266 -0.0031896 0.431 -0.53525 0.21266 -0.81749
-0.022266 -0.0023922 0.431 -0.55412 0.1925 -0.80987
-0.022317 -0.0015985 0.432 -0.5835 0.18351 -0.79111
-0.022369 -0.00080111 0.433 -0.61683 0.17312 -0.76782
-0.022369 0 0.433 -0.62985 0.15721 -0.76064
-0.022421 0.00080296 0.434 -0.65435 0.16732 -0.73744
-0.022472 0.0016096 0.435 -0.66176 0.16592 -0.73112
-0.022524 0.00242 0.436 -0.65869 0.16191 -0.73479
-0.022576 0.003234 0.437 -0.64213 0.15533 -0.75069
-0.022576 0.0040426 0.437 -0.64849 0.17421 -0.74102
-0.022627 0.0048622 0.438 -0.64531 0.18016 -0.74238
-0.022627 0.0056725 0.438 -0.63344 0.17307 -0.75419
-0.022679 0.0064977 0.439 -0.64678 0.19077 -0.73844
-0.022731 0.0073265 0.44 -0.66823 0.20239 -0.7159
-0.022731 0.0081406 0.44 -0.66542 0.18777 -0.72247
-0.022782 0.008975 0.441 -0.68178 0.19304 -0.70563
-0.022886 0.0098353 0.443 -0.67476 0.16747 -0.71879
-0.022937 0.010679 0.444 -0.65485 0.13488 -0.74363
-0.022937 0.0115 0.444 -0.68755 0.14529 -0.71145
-0.022989 0.01235 0.445 -0.67265 0.13537 -0.72748
-0.022989 0.013173 0.445 -0.66473 0.14001 -0.73385
-0.023041 0.014028 0.446 -0.65409 0.13185 -0.74484
-0.023092 0.014886 0.447 -0.65815 0.13504 -0.74068
-0.023144 0.015748 0.448 -0.67809 0.13523 -0.72243
