-0.017865 -0.021809 0.421 0.23109 0.50928 -0.82899
-0.017865 -0.021031 0.421 0.20155 0.48761 -0.84948
-0.017865 -0.020252 0.421 0.17371 0.4644 -0.86842
-0.017823 -0.019426 0.42 0.152 0.43967 -0.88521
-0.017823 -0.018649 0.42 0.12832 0.42113 -0.89788
-0.017823 -0.017872 0.42 0.10176 0.40493 -0.90867
-0.017823 -0.017095 0.42 0.064513 0.39478 -0.91651
-0.017823 -0.016318 0.42 0.036357 0.38706 -0.92134
-0.017823 -0.015541 0.42 0.0049219 0.38481 -0.92298
-0.017823 -0.014764 0.42 -0.026599 0.38216 -0.92371
-0.017823 -0.013987 0.42 -0.056106 0.38086 -0.92293
-0.017823 -0.01321 0.42 -0.076441 0.38701 -0.9189
-0.017823 -0.012433 0.42 -0.090753 0.39315 -0.91499
-0.017823 -0.011656 0.42 -0.11747 0.39694 -0.9103
-0.017823 -0.010879 0.42 -0.14219 0.39646 -0.90697
-0.017823 -0.010102 0.42 -0.17131 0.39541 -0.90239
-0.017823 -0.0093247 0.42 -0.21606 0.38706 -0.89638
-0.017823 -0.0085476 0.42 -0.26154 0.37704 -0.8885
-0.017865 -0.0077891 0.421 -0.31681 0.36425 -0.87576
-0.017865 -0.0070102 0.421 -0.37233 0.34941 -0.85982
-0.017865 -0.0062313 0.421 -0.41867 0.32971 -0.84617
-0.017908 -0.0054653 0.422 -0.4797 0.3317 -0.81232
-0.017908 -0.0046846 0.422 -0.50067 0.31507 -0.80626
-0.01795 -0.003913 0.423 -0.52502 0.33228 -0.78355
-0.017993 -0.0031378 0.424 -0.53771 0.35314 -0.76561
-0.017993 -0.0023534 0.424 -0.52556 0.36345 -0.76921
-0.018035 -0.0015726 0.425 -0.51745 0.38949 -0.76193
-0.018035 -0.00078631 0.425 -0.49662 0.40392 -0.76826
-0.018077 0 0.426 -0.47776 0.42801 -0.76717
-0.018077 0.00078816 0.426 -0.45682 0.43438 -0.77629
-0.018077 0.0015763 0.426 -0.43647 0.42861 -0.79107
-0.01812 0.00237 0.427 -0.46583 0.43706 -0.76941
-0.01812 0.00316 0.427 -0.4743 0.40749 -0.78038
-0.018162 0.0039593 0.428 -0.52348 0.40945 -0.74721
-0.018162 0.0047512 0.428 -0.51662 0.35955 -0.77706
-0.018205 0.005556 0.429 -0.56274 0.36997 -0.73922
-0.018247 0.0063645 0.43 -0.60673 0.37197 -0.7025
-0.01829 0.0071767 0.431 -0.63317 0.37473 -0.67725
-0.018417 0.010438 0.434 -0.66668 0.31501 -0.67551
-0.018459 0.011267 0.435 -0.68084 0.3214 -0.65815
-0.018629 0.01462 0.439 -0.71896 0.36557 -0.59115
-0.018672 0.015467 0.44 -0.68289 0.38426 -0.62129
-0.018799 0.018851 0.443 -0.5854 0.4096 -0.69966
-0.018841 0.019715 0.444 -0.50949 0.48128 -0.7133
-0.019435 0.021184 0.458 -0.31327 0.43767 -0.84279
-0.019435 0.022031 0.458 -0.39214 0.43181 -0.81226
-0.019435 0.022879 0.458 -0.43088 0.42384 -0.79668
-0.019478 0.023778 0.459 -0.3631 0.4371 -0.82286
-0.019478 0.024627 0.459 -0.30475 0.4375 -0.846
-0.01952 0.025532 0.46 -0.43442 0.42885 -0.79206
-0.01952 0.026383 0.46 -0.37509 0.44564 -0.81284
-0.019443 -0.15597 0.479 0.41339 0.22039 -0.88348
-0.019402 -0.15476 0.478 0.37166 0.11532 -0.92118
-0.019402 -0.15388 0.478 0.39903 0.13828 -0.90645
-0.019362 -0.15268 0.477 0.37367 0.049019 -0.92626
-0.019362 -0.15179 0.477 0.40594 0.037418 -0.91313
-0.019321 -0.15059 0.476 0.41317 -0.018957 -0.91046
-0.019321 -0.14971 0.476 0.43959 -0.017729 -0.89803
-0.019321 -0.14883 0.476 0.43785 -0.032741 -0.89845
-0.01928 -0.14764 0.475 0.47723 -0.051785 -0.87725
-0.01928 -0.14676 0.475 0.46534 -0.10096 -0.87935
-0.01928 -0.14588 0.475 0.39204 -0.18025 -0.90212
-0.01924 -0.1447 0.474 0.41803 -0.19884 -0.88641
-0.01924 -0.14382 0.474 0.34554 -0.26262 -0.90091
-0.019199 -0.14264 0.473 0.45674 -0.22204 -0.86144
-0.019159 -0.13536 0.472 0.2581 -0.43397 -0.86317
-0.017494 -0.12121 0.431 -0.51258 0.01649 -0.85848
-0.01786 -0.12292 0.44 -0.89892 -0.34905 -0.26478
-0.017535 -0.11989 0.432 -0.51187 0.022827 -0.85876
-0.017576 -0.11696 0.433 -0.53847 -0.075262 -0.83927
-0.017616 -0.11643 0.434 -0.56 -0.10319 -0.82204
-0.017616 -0.11563 0.434 -0.61719 -0.13537 -0.77508
-0.017657 -0.11509 0.435 -0.58607 -0.12008 -0.80131
-0.017697 -0.11455 0.436 -0.5509 -0.083487 -0.83038
-0.017738 -0.114 0.437 -0.51374 -0.034104 -0.85727
-0.017738 -0.11319 0.437 -0.47792 -0.015704 -0.87826
-0.017779 -0.11264 0.438 -0.41957 0.010183 -0.90767
-0.017779 -0.11183 0.438 -0.31315 0.057042 -0.94799
-0.017819 -0.11127 0.439 -0.1998 0.10507 -0.97419
-0.017819 -0.11046 0.439 -0.15016 0.1284 -0.98029
-0.017819 -0.10965 0.439 -0.14504 0.15254 -0.9776
-0.017779 -0.10859 0.438 0.032469 0.21253 -0.97661
-0.017779 -0.10778 0.438 0.075332 0.23933 -0.96801
-0.017779 -0.10697 0.438 0.11067 0.26301 -0.95842
-0.017779 -0.10616 0.438 0.086423 0.2756 -0.95738
-0.01717 -0.054 0.423 0.43035 0.52124 -0.73696
-0.017129 -0.053092 0.422 0.33538 0.51886 -0.78632
-0.017129 -0.052311 0.422 0.3773 0.52304 -0.76425
-0.017089 -0.051408 0.421 0.29061 0.51228 -0.80815
-0.017089 -0.050629 0.421 0.29052 0.52813 -0.79792
-0.017089 -0.04985 0.421 0.27757 0.54076 -0.79406
-0.017089 -0.049071 0.421 0.24851 0.54786 -0.79881
-0.017048 -0.048178 0.42 0.20485 0.54659 -0.81196
-0.017048 -0.047401 0.42 0.18456 0.55037 -0.81427
-0.017048 -0.046623 0.42 0.1599 0.55723 -0.81482
-0.017048 -0.045846 0.42 0.13948 0.55897 -0.81737
-0.017048 -0.045069 0.42 0.13184 0.55897 -0.81864
-0.017048 -0.044292 0.42 0.11526 0.56251 -0.81872
-0.017048 -0.043515 0.42 0.11117 0.5604 -0.82073
-0.017007 -0.042636 0.419 0.087793 0.56382 -0.82122
-0.017007 -0.041861 0.419 0.066054 0.56298 -0.82383
-0.017007 -0.041086 0.419 0.047727 0.56056 -0.82674
-0.017007 -0.040311 0.419 0.025753 0.55615 -0.83068
-0.017007 -0.039536 0.419 -0.011576 0.55323 -0.83295
-0.017007 -0.03876 0.419 -0.051582 0.55253 -0.8319
-0.017007 -0.037985 0.419 -0.096248 0.54389 -0.83362
-0.017007 -0.03721 0.419 -0.14007 0.54104 -0.82925
-0.017007 -0.036435 0.419 -0.17269 0.52845 -0.83122
-0.017048 -0.035745 0.42 -0.21501 0.52598 -0.82287
-0.017048 -0.034968 0.42 -0.2481 0.52174 -0.81623
-0.017048 -0.034191 0.42 -0.28904 0.50826 -0.81125
-0.017089 -0.033493 0.421 -0.31809 0.50974 -0.79937
-0.017089 -0.032714 0.421 -0.3217 0.51475 -0.79469
-0.017089 -0.031935 0.421 -0.29863 0.5279 -0.79508
-0.017129 -0.03123 0.422 -0.26478 0.5466 -0.79443
-0.017129 -0.03045 0.422 -0.2001 0.56735 -0.79879
-0.017129 -0.029669 0.422 -0.11562 0.58751 -0.80091
-0.01717 -0.028957 0.423 -0.063108 0.57117 -0.8184
-0.01717 -0.028174 0.423 0.030292 0.57418 -0.81817
-0.01717 -0.027391 0.423 0.12001 0.56733 -0.8147
-0.017129 -0.026546 0.422 0.22717 0.60091 -0.76636
-0.017129 -0.025765 0.422 0.25719 0.59347 -0.76266
-0.017089 -0.024925 0.421 0.27907 0.59679 -0.7523
-0.017089 -0.024146 0.421 0.27172 0.59032 -0.76006
-0.017089 -0.023367 0.421 0.26113 0.57978 -0.77179
-0.017089 -0.022588 0.421 0.22845 0.56576 -0.79229
-0.017089 -0.021809 0.421 0.19492 0.54686 -0.81422
-0.017048 -0.020981 0.42 0.16288 0.52633 -0.83453
-0.017048 -0.020204 0.42 0.13034 0.50264 -0.85461
-0.017048 -0.019426 0.42 0.11174 0.47452 -0.87312
-0.017048 -0.018649 0.42 0.089989 0.45059 -0.88818
-0.017048 -0.017872 0.42 0.073068 0.42665 -0.90146
-0.017048 -0.017095 0.42 0.047604 0.40981 -0.91093
-0.017048 -0.016318 0.42 0.027426 0.39463 -0.91843
-0.017007 -0.015504 0.419 0.0049281 0.38726 -0.92196
-0.017007 -0.014729 0.419 -0.016792 0.38218 -0.92393
-0.017007 -0.013954 0.419 -0.04144 0.38275 -0.92292
-0.017048 -0.01321 0.42 -0.067792 0.38309 -0.92122
-0.017048 -0.012433 0.42 -0.088149 0.38581 -0.91836
-0.017048 -0.011656 0.42 -0.11622 0.38469 -0.9157
-0.017048 -0.010879 0.42 -0.14814 0.37808 -0.91384
-0.017048 -0.010102 0.42 -0.18418 0.37411 -0.90891
-0.017048 -0.0093247 0.42 -0.23015 0.363 -0.90292
-0.017048 -0.0085476 0.42 -0.2756 0.35283 -0.89418
-0.017048 -0.0077706 0.42 -0.32624 0.34127 -0.88153
-0.017089 -0.0070102 0.421 -0.38032 0.326 -0.86549
-0.017089 -0.0062313 0.421 -0.42821 0.31174 -0.84821
-0.017129 -0.0054653 0.422 -0.47808 0.31724 -0.81902
-0.017129 -0.0046846 0.422 -0.50328 0.30865 -0.80712
-0.01717 -0.003913 0.423 -0.52049 0.32537 -0.78945
-0.01717 -0.0031304 0.423 -0.51743 0.32835 -0.79022
-0.01721 -0.0023534 0.424 -0.51545 0.36181 -0.77679
-0.017251 -0.0015726 0.425 -0.50171 0.38115 -0.77654
-0.017251 -0.00078631 0.425 -0.48573 0.40113 -0.77663
-0.017251 0 0.425 -0.46398 0.41239 -0.784
-0.017292 0.00078816 0.426 -0.45484 0.42903 -0.78042
-0.017292 0.0015763 0.426 -0.4508 0.42821 -0.78321
-0.017332 0.00237 0.427 -0.4799 0.42556 -0.7672
-0.017332 0.00316 0.427 -0.50534 0.40181 -0.76366
-0.017373 0.0039593 0.428 -0.55323 0.39383 -0.73406
-0.017373 0.0047512 0.428 -0.56541 0.35566 -0.74419
-0.017413 0.005556 0.429 -0.60405 0.36114 -0.71043
-0.017413 0.0063497 0.429 -0.59019 0.3023 -0.74853
-0.017454 0.00716 0.43 -0.62459 0.31354 -0.71525
-0.017494 0.0079741 0.431 -0.6425 0.32063 -0.69599
-0.017576 0.0096133 0.433 -0.65716 0.34061 -0.6724
-0.017616 0.010438 0.434 -0.66819 0.3464 -0.65843
-0.017616 0.011241 0.434 -0.68027 0.23804 -0.69323
-0.017657 0.012072 0.435 -0.7135 0.23522 -0.65999
-0.017738 0.013745 0.437 -0.71897 0.26783 -0.64137
-0.017779 0.014586 0.438 -0.71342 0.29969 -0.63342
-0.01786 0.015467 0.44 -0.64328 0.4125 -0.64501
-0.0179 0.016318 0.441 -0.61056 0.43672 -0.66068
-0.017982 0.018031 0.443 -0.65771 0.41084 -0.63137
-0.017982 0.018851 0.443 -0.63563 0.41434 -0.65139
-0.017982 0.019671 0.443 -0.44013 0.50621 -0.74164
-0.01859 0.021184 0.458 -0.18283 0.46644 -0.86545
-0.01859 0.022031 0.458 -0.27436 0.45587 -0.8467
-0.01859 0.022879 0.458 -0.34172 0.44489 -0.82783
-0.01859 0.023726 0.458 -0.32341 0.43549 -0.84009
-0.018631 0.024627 0.459 -0.36036 0.45075 -0.81668
-0.018631 0.025476 0.459 -0.30084 0.44938 -0.84116
-0.018672 0.026383 0.46 -0.45497 0.45215 -0.76718
-0.01852 -0.15565 0.478 0.30977 0.098565 -0.94569
-0.01852 -0.15476 0.478 0.36271 0.11073 -0.9253
-0.018482 -0.15356 0.477 0.33686 0.046791 -0.94039
-0.018482 -0.15268 0.477 0.36128 0.039928 -0.9316
-0.018482 -0.15179 0.477 0.38902 0.018113 -0.92105
-0.018443 -0.15059 0.476 0.40897 -0.0056063 -0.91253
-0.018443 -0.14971 0.476 0.43061 -0.023859 -0.90222
-0.018443 -0.14883 0.476 0.42163 -0.06177 -0.90466
-0.018404 -0.14764 0.475 0.47095 -0.049374 -0.88077
-0.018404 -0.14676 0.475 0.44793 -0.11574 -0.88654
-0.018404 -0.14588 0.475 0.37664 -0.19333 -0.90596
-0.018365 -0.1447 0.474 0.44614 -0.1631 -0.87997
-0.018365 -0.14382 0.474 0.38091 -0.22752 -0.89618
-0.016661 -0.12172 0.43 -0.59786 -0.020467 -0.80134
-0.016661 -0.12093 0.43 -0.67694 -0.067084 -0.73298
-0.016738 -0.12069 0.432 -0.44541 0.028663 -0.89487
-0.016815 -0.11723 0.434 -0.53629 -0.083683 -0.83988
-0.016815 -0.11643 0.434 -0.58471 -0.12491 -0.80156
-0.016854 -0.11589 0.435 -0.56636 -0.099626 -0.81812
-0.016893 -0.11535 0.436 -0.51819 -0.06181 -0.85303
-0.016893 -0.11455 0.436 -0.52693 -0.0586 -0.84789
-0.016932 -0.114 0.437 -0.48408 -0.0064917 -0.875
-0.016932 -0.11319 0.437 -0.44622 0.012286 -0.89484
-0.01697 -0.11264 0.438 -0.38073 0.040512 -0.9238
-0.01697 -0.11183 0.438 -0.26765 0.09679 -0.95864
-0.01697 -0.11102 0.438 -0.15947 0.13614 -0.97777
-0.01697 -0.11021 0.438 -0.091349 0.17271 -0.98073
-0.01697 -0.1094 0.438 -0.030604 0.2104 -0.97714
-0.01697 -0.10859 0.438 0.033046 0.24207 -0.9697
-0.01697 -0.10778 0.438 0.047634 0.26049 -0.9643
-0.016932 -0.10672 0.437 0.34922 0.29671 -0.88882
-0.016932 -0.10591 0.437 0.32362 0.30036 -0.89725
-0.016351 -0.053092 0.422 0.40211 0.50696 -0.76243
-0.016312 -0.052187 0.421 0.33195 0.49546 -0.8027
-0.016312 -0.051408 0.421 0.33056 0.51674 -0.78975
-0.016312 -0.050629 0.421 0.3171 0.52396 -0.79052
-0.016273 -0.049732 0.42 0.27009 0.52282 -0.80853
-0.016273 -0.048955 0.42 0.24759 0.53197 -0.80976
-0.016273 -0.048178 0.42 0.2182 0.53663 -0.81512
-0.016273 -0.047401 0.42 0.18979 0.53988 -0.82006
-0.016273 -0.046623 0.42 0.16089 0.54271 -0.82436
-0.016234 -0.045737 0.419 0.13807 0.54367 -0.82786
-0.016234 -0.044962 0.419 0.1285 0.54438 -0.82894
-0.016234 -0.044187 0.419 0.10574 0.54585 -0.83118
-0.016234 -0.043412 0.419 0.10095 0.53988 -0.83566
-0.016234 -0.042636 0.419 0.077069 0.53978 -0.83827
-0.016234 -0.041861 0.419 0.055776 0.53737 -0.8415
-0.016234 -0.041086 0.419 0.038808 0.53461 -0.84421
-0.016234 -0.040311 0.419 0.019 0.53233 -0.84632
-0.016234 -0.039536 0.419 -0.010879 0.5298 -0.84805
-0.016234 -0.03876 0.419 -0.053595 0.52451 -0.84972
-0.016234 -0.037985 0.419 -0.095445 0.5176 -0.85028
-0.016234 -0.03721 0.419 -0.14083 0.51676 -0.84447
-0.016234 -0.036435 0.419 -0.1773 0.50977 -0.84184
-0.016234 -0.03566 0.419 -0.21571 0.50251 -0.83723
-0.016234 -0.034884 0.419 -0.24494 0.49717 -0.83236
-0.016273 -0.034191 0.42 -0.29282 0.49249 -0.81958
-0.016273 -0.033414 0.42 -0.31288 0.49253 -0.81211
-0.016273 -0.032636 0.42 -0.3114 0.49785 -0.80943
-0.016312 -0.031935 0.421 -0.29072 0.52288 -0.8013
-0.016312 -0.031156 0.421 -0.2463 0.54563 -0.80101
-0.016351 -0.03045 0.422 -0.18877 0.56245 -0.80499
-0.016351 -0.029669 0.422 -0.11198 0.58241 -0.80515
-0.016351 -0.028888 0.422 -0.024331 0.59457 -0.80368
-0.016351 -0.028107 0.422 0.069601 0.60004 -0.79694
-0.016351 -0.027327 0.422 0.14788 0.60051 -0.78582
-0.016351 -0.026546 0.422 0.20727 0.5932 -0.77791
-0.016312 -0.025704 0.421 0.25075 0.62279 -0.74112
-0.016312 -0.024925 0.421 0.2574 0.61889 -0.7421
-0.016273 -0.024089 0.42 0.24069 0.61194 -0.75339
-0.016273 -0.023312 0.42 0.22516 0.6036 -0.76483
-0.016273 -0.022535 0.42 0.19031 0.59266 -0.78265
-0.016273 -0.021758 0.42 0.1594 0.57347 -0.80357
-0.016273 -0.020981 0.42 0.12847 0.55021 -0.82508
-0.016273 -0.020204 0.42 0.099917 0.52693 -0.84402
-0.016273 -0.019426 0.42 0.08371 0.49904 -0.86253
-0.016234 -0.018605 0.419 0.062942 0.4731 -0.87876
-0.016234 -0.01783 0.419 0.049618 0.44818 -0.89256
-0.016234 -0.017055 0.419 0.025125 0.42691 -0.90394
-0.016234 -0.016279 0.419 0.0077992 0.41027 -0.91193
-0.016234 -0.015504 0.419 -0.0049054 0.39722 -0.91771
-0.016234 -0.014729 0.419 -0.021695 0.3855 -0.92245
-0.016234 -0.013954 0.419 -0.041517 0.37854 -0.92465
-0.016234 -0.013179 0.419 -0.068334 0.37035 -0.92637
-0.016234 -0.012403 0.419 -0.088164 0.36551 -0.92662
-0.016234 -0.011628 0.419 -0.11485 0.35938 -0.9261
-0.016234 -0.010853 0.419 -0.15497 0.35141 -0.92331
-0.016234 -0.010078 0.419 -0.19345 0.3447 -0.91856
-0.016234 -0.0093025 0.419 -0.24139 0.33584 -0.91046
-0.016273 -0.0085476 0.42 -0.29252 0.32518 -0.89927
-0.016273 -0.0077706 0.42 -0.34365 0.31351 -0.88522
-0.016273 -0.0069935 0.42 -0.38931 0.30504 -0.86913
-0.016312 -0.0062313 0.421 -0.43478 0.29739 -0.85001
-0.016312 -0.0054524 0.421 -0.45894 0.28905 -0.84013
-0.016351 -0.0046846 0.422 -0.49493 0.30965 -0.81189
-0.016351 -0.0039038 0.422 -0.49622 0.31203 -0.81019
-0.016389 -0.0031304 0.423 -0.50253 0.33537 -0.79686
-0.016428 -0.0023534 0.424 -0.4947 0.36 -0.79099
-0.016428 -0.0015689 0.424 -0.4794 0.37882 -0.79163
-0.016467 -0.00078631 0.425 -0.4699 0.39562 -0.7891
-0.016467 0 0.425 -0.45954 0.40768 -0.78906
-0.016467 0.00078631 0.425 -0.45139 0.41086 -0.79211
-0.016506 0.0015763 0.426 -0.46228 0.41498 -0.78364
-0.016506 0.0023645 0.426 -0.48941 0.39504 -0.77744
-0.016544 0.00316 0.427 -0.5306 0.38009 -0.75762
-0.016544 0.00395 0.427 -0.55703 0.35122 -0.75257
-0.016583 0.0047512 0.428 -0.59625 0.34156 -0.72651
-0.016583 0.005543 0.428 -0.59996 0.29836 -0.74232
-0.016622 0.0063497 0.429 -0.63074 0.29319 -0.71848
-0.016661 0.00716 0.43 -0.65308 0.29712 -0.69657
-0.016699 0.0079741 0.431 -0.66082 0.3044 -0.68604
-0.016738 0.0087919 0.432 -0.66434 0.31627 -0.67722
-0.016738 0.0095911 0.432 -0.66153 0.25385 -0.70565
-0.016777 0.010414 0.433 -0.67443 0.25272 -0.69374
-0.016815 0.011241 0.434 -0.7004 0.25073 -0.66826
-0.016854 0.012072 0.435 -0.71891 0.25509 -0.6466
-0.016854 0.012877 0.435 -0.7078 0.16147 -0.68771
-0.016932 0.013745 0.437 -0.72313 0.28978 -0.62699
-0.01697 0.014586 0.438 -0.71585 0.30686 -0.62721
-0.017009 0.015432 0.439 -0.69406 0.32786 -0.64094
-0.017048 0.016281 0.44 -0.65262 0.36418 -0.66443
-0.017087 0.017134 0.441 -0.65187 0.37502 -0.65911
-0.017125 0.017991 0.442 -0.66965 0.37759 -0.63952
-0.017164 0.018851 0.443 -0.69497 0.38151 -0.60948
-0.017164 0.019671 0.443 -0.55499 0.45526 -0.69623
-0.017707 0.021138 0.457 -0.28689 0.46783 -0.83596
-0.017707 0.021983 0.457 -0.36516 0.4584 -0.81026
-0.017745 0.022879 0.458 -0.22694 0.4873 -0.84323
-0.017745 0.023726 0.458 -0.29477 0.47732 -0.82781
-0.017745 0.024574 0.458 -0.2609 0.46939 -0.84357
-0.017784 0.025476 0.459 -0.38406 0.47626 -0.791
-0.017784 0.026326 0.459 -0.34952 0.48008 -0.80459
-0.017638 -0.15565 0.478 0.31006 0.092179 -0.94624
-0.017638 -0.15476 0.478 0.3458 0.088995 -0.93408
-0.017601 -0.15356 0.477 0.33174 0.052824 -0.94189
-0.017601 -0.15268 0.477 0.35068 0.033735 -0.93589
-0.017601 -0.15179 0.477 0.36899 0.003663 -0.92943
-0.017601 -0.15091 0.477 0.38045 -0.030209 -0.92431
-0.017565 -0.14971 0.476 0.41404 -0.029599 -0.90978
-0.017565 -0.14883 0.476 0.39144 -0.084856 -0.91628
-0.017565 -0.14795 0.476 0.35493 -0.15796 -0.92145
-0.017528 -0.14676 0.475 0.44013 -0.10485 -0.89179
-0.017528 -0.14588 0.475 0.38134 -0.18257 -0.90623
-0.017528 -0.145 0.475 0.28146 -0.27022 -0.92074
-0.015867 -0.12252 0.43 -0.49063 -0.0094664 -0.87132
-0.015867 -0.12172 0.43 -0.6007 -0.049287 -0.79795
-0.016199 -0.12346 0.439 -0.88983 -0.31544 -0.32969
-0.015904 -0.12041 0.431 -0.59407 -0.048753 -0.80293
-0.016015 -0.11804 0.434 -0.52144 -0.051236 -0.85175
-0.016015 -0.11723 0.434 -0.56245 -0.10371 -0.8203
-0.016015 -0.11643 0.434 -0.58851 -0.13517 -0.79711
-0.016052 -0.11589 0.435 -0.55595 -0.093916 -0.82589
-0.016089 -0.11535 0.436 -0.50351 -0.048613 -0.86262
-0.016125 -0.11481 0.437 -0.46065 0.0043665 -0.88757
-0.016125 -0.114 0.437 -0.45808 0.0079693 -0.88888
-0.016162 -0.11345 0.438 -0.40388 0.042375 -0.91383
-0.016162 -0.11264 0.438 -0.33622 0.068016 -0.93932
-0.016162 -0.11183 0.438 -0.22051 0.1282 -0.96692
-0.016162 -0.11102 0.438 -0.12037 0.15781 -0.9801
-0.016162 -0.11021 0.438 -0.063204 0.18331 -0.98102
-0.016162 -0.1094 0.438 -0.024249 0.21763 -0.97573
-0.016162 -0.10859 0.438 0.01315 0.24723 -0.96887
-0.016125 -0.10753 0.437 0.27424 0.29011 -0.91686
-0.016125 -0.10672 0.437 0.29832 0.30579 -0.90416
-0.015572 -0.055434 0.422 0.29588 0.507 -0.80957
-0.015572 -0.053872 0.422 0.4411 0.50206 -0.74388
-0.015535 -0.052966 0.421 0.34794 0.49085 -0.79875
-0.015535 -0.052187 0.421 0.37388 0.50302 -0.77922
-0.015498 -0.051286 0.42 0.31079 0.49173 -0.8134
-0.015498 -0.050509 0.42 0.30349 0.5075 -0.80644
-0.015498 -0.049732 0.42 0.27803 0.5179 -0.809
-0.015498 -0.048955 0.42 0.25032 0.52266 -0.81497
-0.015461 -0.048063 0.419 0.21851 0.52769 -0.82085
-0.015461 -0.047288 0.419 0.19238 0.53066 -0.82547
-0.015461 -0.046512 0.419 0.16583 0.53327 -0.82953
-0.015461 -0.045737 0.419 0.1402 0.53163 -0.83529
-0.015461 -0.044962 0.419 0.13256 0.52965 -0.83779
-0.015461 -0.044187 0.419 0.11156 0.52846 -0.84159
-0.015461 -0.043412 0.419 0.10375 0.52633 -0.84393
-0.015424 -0.042535 0.418 0.082407 0.52829 -0.84505
-0.015424 -0.041761 0.418 0.053841 0.52145 -0.85158
-0.015424 -0.040988 0.418 0.029371 0.51531 -0.8565
-0.015424 -0.040215 0.418 0.0073803 0.50875 -0.86088
-0.015424 -0.039441 0.418 -0.024069 0.50313 -0.86387
-0.015424 -0.038668 0.418 -0.067694 0.49659 -0.86534
-0.015424 -0.037895 0.418 -0.10922 0.49197 -0.86373
-0.015424 -0.037121 0.418 -0.15359 0.48975 -0.85823
-0.015424 -0.036348 0.418 -0.18783 0.48336 -0.85503
-0.015461 -0.03566 0.419 -0.22242 0.47892 -0.84921
-0.015461 -0.034884 0.419 -0.25439 0.47779 -0.84084
-0.015461 -0.034109 0.419 -0.28889 0.46795 -0.83521
-0.015498 -0.033414 0.42 -0.30946 0.48208 -0.81966
-0.015498 -0.032636 0.42 -0.30462 0.49881 -0.81142
-0.015498 -0.031859 0.42 -0.27243 0.52186 -0.80836
-0.015535 -0.031156 0.421 -0.21972 0.54864 -0.80667
-0.015535 -0.030377 0.421 -0.1468 0.57877 -0.80217
-0.015535 -0.029599 0.421 -0.064354 0.60207 -0.79585
-0.015572 -0.028888 0.422 -0.03951 0.56779 -0.82222
-0.015535 -0.028041 0.421 0.11764 0.62976 -0.76783
-0.015535 -0.027262 0.421 0.18628 0.63302 -0.75139
-0.015498 -0.02642 0.42 0.23347 0.6342 -0.73708
-0.015498 -0.025643 0.42 0.24043 0.63755 -0.73193
-0.015498 -0.024866 0.42 0.24323 0.63487 -0.73333
-0.015461 -0.024031 0.419 0.20125 0.61726 -0.76058
-0.015461 -0.023256 0.419 0.17643 0.61434 -0.76907
-0.015461 -0.022481 0.419 0.13993 0.60526 -0.78363
-0.015461 -0.021706 0.419 0.11449 0.59093 -0.79856
-0.015461 -0.020931 0.419 0.087229 0.57151 -0.81595
-0.015461 -0.020155 0.419 0.064237 0.54717 -0.83455
-0.015461 -0.01938 0.419 0.052029 0.51794 -0.85383
-0.015461 -0.018605 0.419 0.038168 0.49017 -0.87079
-0.015461 -0.01783 0.419 0.024693 0.45841 -0.8884
-0.015461 -0.017055 0.419 0.0028952 0.43019 -0.90273
-0.015461 -0.016279 0.419 -0.0087776 0.40946 -0.91229
-0.015461 -0.015504 0.419 -0.018717 0.38803 -0.92146
-0.015461 -0.014729 0.419 -0.03665 0.37437 -0.92655
-0.015461 -0.013954 0.419 -0.056636 0.36464 -0.92943
-0.015461 -0.013179 0.419 -0.077779 0.35202 -0.93276
-0.015461 -0.012403 0.419 -0.096998 0.34005 -0.93539
-0.015461 -0.011628 0.419 -0.12211 0.32939 -0.93626
-0.015461 -0.010853 0.419 -0.15965 0.32141 -0.93338
-0.015461 -0.010078 0.419 -0.19954 0.31284 -0.92861
-0.015461 -0.0093025 0.419 -0.24759 0.30668 -0.91905
-0.015461 -0.0085273 0.419 -0.30376 0.2981 -0.90491
-0.015498 -0.0077706 0.42 -0.35337 0.28608 -0.89067
-0.015498 -0.0069935 0.42 -0.39749 0.28313 -0.87283
-0.015535 -0.0062313 0.421 -0.43982 0.28306 -0.85231
-0.015535 -0.0054524 0.421 -0.46612 0.28151 -0.83874
-0.015572 -0.0046846 0.422 -0.48643 0.29818 -0.82127
-0.015572 -0.0039038 0.422 -0.48577 0.31435 -0.8156
-0.015609 -0.0031304 0.423 -0.4846 0.33384 -0.80853
-0.015609 -0.0023478 0.423 -0.47076 0.35335 -0.80841
-0.015646 -0.0015689 0.424 -0.45878 0.37787 -0.8042
-0.015646 -0.00078446 0.424 -0.44976 0.39361 -0.80174
-0.015683 0 0.425 -0.44832 0.40262 -0.79806
-0.015683 0.00078631 0.425 -0.45142 0.40591 -0.79464
-0.015683 0.0015726 0.425 -0.46951 0.39606 -0.78911
-0.01572 0.0023645 0.426 -0.50147 0.38206 -0.77624
-0.01572 0.0031526 0.426 -0.53691 0.35583 -0.76493
-0.015756 0.00395 0.427 -0.57829 0.34227 -0.74056
-0.015793 0.0047512 0.428 -0.61397 0.3197 -0.72168
-0.015793 0.005543 0.428 -0.63082 0.29187 -0.71894
-0.01583 0.0063497 0.429 -0.65322 0.28109 -0.70306
-0.015867 0.00716 0.43 -0.6653 0.28462 -0.6902
-0.015904 0.0079741 0.431 -0.66658 0.28696 -0.68799
-0.015904 0.0087715 0.431 -0.67016 0.25558 -0.69683
-0.015941 0.0095911 0.432 -0.68002 0.25159 -0.68868
-0.015978 0.010414 0.433 -0.69364 0.25087 -0.67522
-0.016015 0.011241 0.434 -0.71322 0.2516 -0.65423
-0.016015 0.012044 0.434 -0.71736 0.14697 -0.68103
-0.016052 0.012877 0.435 -0.72173 0.18222 -0.66776
-0.016089 0.013713 0.436 -0.71888 0.21484 -0.6611
-0.016125 0.014553 0.437 -0.71278 0.22828 -0.66319
-0.016162 0.015397 0.438 -0.69988 0.24963 -0.66922
-0.016236 0.016281 0.44 -0.60989 0.38666 -0.69175
-0.016273 0.017134 0.441 -0.61003 0.4005 -0.68371
-0.016273 0.01795 0.441 -0.62053 0.37217 -0.69024
-0.01631 0.018809 0.442 -0.62622 0.39349 -0.67306
-0.01631 0.019626 0.442 -0.48214 0.45336 -0.74967
-0.016863 0.021138 0.457 -0.14233 0.50368 -0.85209
-0.016863 0.021983 0.457 -0.22932 0.50461 -0.83234
-0.016863 0.022829 0.457 -0.30144 0.49669 -0.8139
-0.016863 0.023674 0.457 -0.30678 0.49171 -0.81493
-0.0169 0.024574 0.458 -0.3094 0.50345 -0.80673
-0.0169 0.025421 0.458 -0.28036 0.49828 -0.82043
-0.016937 0.026326 0.459 -0.44048 0.4931 -0.75022
-0.016756 -0.15565 0.478 0.30336 0.078299 -0.94965
-0.016756 -0.15476 0.478 0.32621 0.064897 -0.94307
-0.016721 -0.15356 0.477 0.32453 0.046718 -0.94472
-0.016721 -0.15268 0.477 0.33752 0.017577 -0.94115
-0.016721 -0.15179 0.477 0.34545 -0.018219 -0.93826
-0.016721 -0.15091 0.477 0.34771 -0.059735 -0.9357
-0.016686 -0.14971 0.476 0.38973 -0.043997 -0.91988
-0.016686 -0.14883 0.476 0.3665 -0.096332 -0.92542
-0.016686 -0.14795 0.476 0.32698 -0.1609 -0.93123
-0.016686 -0.14707 0.476 0.26268 -0.23837 -0.93498
-0.016651 -0.14588 0.475 0.38395 -0.15653 -0.90999
-0.015039 -0.12223 0.429 -0.66656 -0.08789 -0.74025
-0.015039 -0.12144 0.429 -0.71067 -0.12602 -0.69215
-0.015074 -0.12093 0.43 -0.59996 -0.204 -0.77358
-0.015109 -0.12041 0.431 -0.55137 -0.17898 -0.81484
-0.015179 -0.11856 0.433 -0.56228 -0.11231 -0.81929
-0.015214 -0.11804 0.434 -0.54429 -0.077594 -0.8353
-0.015214 -0.11723 0.434 -0.56907 -0.10562 -0.81548
-0.015249 -0.1167 0.435 -0.53352 -0.073963 -0.84255
-0.015249 -0.11589 0.435 -0.54953 -0.085148 -0.83113
-0.015284 -0.11535 0.436 -0.48879 -0.028992 -0.87192
-0.015319 -0.11481 0.437 -0.4481 0.017333 -0.89382
-0.015319 -0.114 0.437 -0.429 0.029378 -0.90283
-0.015354 -0.11345 0.438 -0.36835 0.069485 -0.92709
-0.015354 -0.11264 0.438 -0.28456 0.10496 -0.9529
-0.015354 -0.11183 0.438 -0.18041 0.15303 -0.97161
-0.015354 -0.11102 0.438 -0.087309 0.17409 -0.98085
-0.015354 -0.11021 0.438 -0.050697 0.19218 -0.98005
-0.015354 -0.1094 0.438 -0.031501 0.21666 -0.97574
-0.015319 -0.10834 0.437 0.20638 0.2871 -0.9354
-0.015319 -0.10753 0.437 0.22945 0.29905 -0.92624
-0.015319 -0.10672 0.437 0.22975 0.31499 -0.92087
-0.014828 -0.056348 0.423 0.50846 0.49137 -0.70712
-0.014793 -0.055434 0.422 0.40827 0.49292 -0.76834
-0.014793 -0.054653 0.422 0.46472 0.49496 -0.7342
-0.014758 -0.053745 0.421 0.37292 0.4919 -0.78674
-0.014758 -0.052966 0.421 0.39571 0.50132 -0.76948
-0.014723 -0.052063 0.42 0.34541 0.48402 -0.804
-0.014723 -0.051286 0.42 0.33872 0.49998 -0.79705
-0.014723 -0.050509 0.42 0.31871 0.51039 -0.7987
-0.014688 -0.049613 0.419 0.27762 0.5111 -0.81345
-0.014688 -0.048838 0.419 0.25058 0.5198 -0.81671
-0.014688 -0.048063 0.419 0.21827 0.52399 -0.82328
-0.014688 -0.047288 0.419 0.1878 0.52738 -0.82862
-0.014653 -0.046401 0.418 0.16263 0.52752 -0.83383
-0.014688 -0.045737 0.419 0.13848 0.52279 -0.84114
-0.014653 -0.044855 0.418 0.12857 0.51919 -0.84493
-0.014653 -0.044081 0.418 0.10482 0.51536 -0.85054
-0.014653 -0.043308 0.418 0.094114 0.51391 -0.85266
-0.014653 -0.042535 0.418 0.075153 0.51273 -0.85525
-0.014653 -0.041761 0.418 0.049872 0.50471 -0.86185
-0.014653 -0.040988 0.418 0.029702 0.4989 -0.86615
-0.014653 -0.040215 0.418 0.0074627 0.49211 -0.8705
-0.014653 -0.039441 0.418 -0.029052 0.4841 -0.87453
-0.014653 -0.038668 0.418 -0.072456 0.47295 -0.87811
-0.014653 -0.037895 0.418 -0.11367 0.46748 -0.87666
-0.014653 -0.037121 0.418 -0.15746 0.46828 -0.86944
-0.014653 -0.036348 0.418 -0.19549 0.46289 -0.86459
-0.014653 -0.035574 0.418 -0.22899 0.45946 -0.85817
-0.014688 -0.034884 0.419 -0.25868 0.46071 -0.84902
-0.014688 -0.034109 0.419 -0.29253 0.45816 -0.83936
-0.014688 -0.033334 0.419 -0.29873 0.46733 -0.83208
-0.014723 -0.032636 0.42 -0.28937 0.49431 -0.81971
-0.014723 -0.031859 0.42 -0.24996 0.52024 -0.81662
-0.014723 -0.031082 0.42 -0.19652 0.54995 -0.81175
-0.014758 -0.030377 0.421 -0.11547 0.58343 -0.80391
-0.014758 -0.029599 0.421 -0.028749 0.60628 -0.79473
-0.014758 -0.02882 0.421 0.057439 0.62012 -0.7824
-0.014723 -0.027974 0.42 0.14008 0.63025 -0.76365
-0.014723 -0.027197 0.42 0.19728 0.63621 -0.74587
-0.014723 -0.02642 0.42 0.2334 0.63734 -0.73438
-0.014688 -0.025582 0.419 0.2278 0.6321 -0.74065
-0.014688 -0.024807 0.419 0.22001 0.63511 -0.74043
-0.014688 -0.024031 0.419 0.19401 0.63393 -0.74866
-0.014688 -0.023256 0.419 0.16321 0.62764 -0.7612
-0.014653 -0.022427 0.418 0.090171 0.59733 -0.79691
-0.014688 -0.021706 0.419 0.093497 0.59927 -0.79507
-0.014653 -0.020881 0.418 0.048829 0.57257 -0.8184
-0.014653 -0.020107 0.418 0.031174 0.55514 -0.83117
-0.014653 -0.019334 0.418 0.019078 0.53 -0.84778
-0.014688 -0.018605 0.419 0.0036974 0.50238 -0.86464
-0.014688 -0.01783 0.419 -0.0084714 0.47403 -0.88047
-0.014688 -0.017055 0.419 -0.025765 0.45011 -0.8926
-0.014688 -0.016279 0.419 -0.035803 0.42362 -0.90513
-0.014688 -0.015504 0.419 -0.042166 0.39605 -0.91726
-0.014688 -0.014729 0.419 -0.054355 0.37746 -0.92443
-0.014688 -0.013954 0.419 -0.066603 0.36183 -0.92986
-0.014688 -0.013179 0.419 -0.077968 0.3459 -0.93503
-0.014688 -0.012403 0.419 -0.10242 0.32745 -0.9393
-0.014688 -0.011628 0.419 -0.13173 0.31287 -0.94062
-0.014688 -0.010853 0.419 -0.16764 0.30032 -0.93899
-0.014688 -0.010078 0.419 -0.21085 0.286 -0.93474
-0.014688 -0.0093025 0.419 -0.26092 0.27794 -0.92449
-0.014688 -0.0085273 0.419 -0.31366 0.26714 -0.91118
-0.014723 -0.0077706 0.42 -0.36344 0.26065 -0.89441
-0.014723 -0.0069935 0.42 -0.40286 0.26379 -0.87642
-0.014723 -0.0062165 0.42 -0.43216 0.2621 -0.86287
-0.014758 -0.0054524 0.421 -0.45817 0.27773 -0.84436
-0.014758 -0.0046735 0.421 -0.4662 0.2864 -0.83704
-0.014793 -0.0039038 0.422 -0.46887 0.31376 -0.82566
-0.014793 -0.003123 0.422 -0.46003 0.32959 -0.82447
-0.014828 -0.0023478 0.423 -0.44838 0.35442 -0.82058
-0.014828 -0.0015652 0.423 -0.43581 0.37855 -0.81656
-0.014863 -0.00078446 0.424 -0.43379 0.39155 -0.81149
-0.014863 0 0.424 -0.43721 0.40383 -0.8036
-0.014863 0.00078446 0.424 -0.44957 0.40643 -0.79542
-0.014899 0.0015726 0.425 -0.47524 0.39631 -0.78555
-0.014899 0.0023589 0.425 -0.50716 0.37697 -0.77504
-0.014934 0.0031526 0.426 -0.55019 0.35771 -0.75454
-0.014934 0.0039408 0.426 -0.57644 0.32756 -0.74862
-0.014969 0.0047401 0.427 -0.61685 0.31495 -0.72132
-0.015004 0.005543 0.428 -0.64402 0.3004 -0.70356
-0.015039 0.0063497 0.429 -0.65827 0.28852 -0.6953
-0.015074 0.00716 0.43 -0.66147 0.28157 -0.6951
-0.015074 0.0079556 0.43 -0.66774 0.26301 -0.69638
-0.015109 0.0087715 0.431 -0.67406 0.2659 -0.68916
-0.015144 0.0095911 0.432 -0.68561 0.26313 -0.67875
-0.015179 0.010414 0.433 -0.70186 0.26025 -0.66307
-0.015179 0.011216 0.433 -0.69649 0.19682 -0.69005
-0.015214 0.012044 0.434 -0.72741 0.1921 -0.65876
-0.015249 0.012877 0.435 -0.729 0.21315 -0.65048
-0.015284 0.013713 0.436 -0.72662 0.24024 -0.64367
-0.015354 0.014586 0.438 -0.68353 0.28761 -0.67087
-0.015354 0.015397 0.438 -0.69298 0.26167 -0.6718
-0.015389 0.016244 0.439 -0.6636 0.29665 -0.68676
-0.015424 0.017095 0.44 -0.62662 0.34595 -0.69833
-0.015459 0.01795 0.441 -0.64271 0.35247 -0.68021
-0.015459 0.018766 0.441 -0.55907 0.36535 -0.74429
-0.015494 0.019626 0.442 -0.56803 0.40685 -0.71542
-0.01602 0.021138 0.457 0.0073332 0.50209 -0.86479
-0.01602 0.021983 0.457 -0.081679 0.51674 -0.85224
-0.01602 0.022829 0.457 -0.17319 0.51586 -0.83898
-0.01602 0.023674 0.457 -0.25404 0.51892 -0.8162
-0.01602 0.02452 0.457 -0.25725 0.51863 -0.81538
-0.016055 0.025421 0.458 -0.36905 0.52354 -0.76793
-0.016055 0.026268 0.458 -0.35293 0.52623 -0.77364
-0.015875 -0.15565 0.478 0.2847 0.050638 -0.95728
-0.015875 -0.15476 0.478 0.30123 0.032765 -0.95299
-0.015841 -0.15356 0.477 0.30972 0.027117 -0.95044
-0.015841 -0.15268 0.477 0.31803 -0.010757 -0.94802
-0.015841 -0.15179 0.477 0.30939 -0.057701 -0.94918
-0.015841 -0.15091 0.477 0.30463 -0.10309 -0.94688
-0.015808 -0.14971 0.476 0.37054 -0.071741 -0.92604
-0.015808 -0.14883 0.476 0.34993 -0.11583 -0.92959
-0.015808 -0.14795 0.476 0.31264 -0.17202 -0.93417
-0.015808 -0.14707 0.476 0.25454 -0.22392 -0.94078
-0.015775 -0.14588 0.475 0.3977 -0.14207 -0.90645
-0.01428 -0.12252 0.43 -0.3907 -0.22956 -0.89144
-0.01428 -0.12172 0.43 -0.47229 -0.27292 -0.83813
-0.014347 -0.12069 0.432 -0.42322 -0.14688 -0.89404
-0.014347 -0.11909 0.432 -0.58702 -0.14972 -0.7956
-0.01438 -0.11856 0.433 -0.57109 -0.11479 -0.81282
-0.014413 -0.11804 0.434 -0.5518 -0.073529 -0.83073
-0.014413 -0.11723 0.434 -0.57028 -0.096533 -0.81576
-0.014446 -0.1167 0.435 -0.52267 -0.045259 -0.85133
-0.014446 -0.11589 0.435 -0.52636 -0.052527 -0.84864
-0.01448 -0.11535 0.436 -0.46593 -0.0003426 -0.88482
-0.014513 -0.11481 0.437 -0.42502 0.041074 -0.90425
-0.014513 -0.114 0.437 -0.39428 0.057758 -0.91717
-0.014513 -0.11319 0.437 -0.33085 0.10071 -0.93829
-0.014546 -0.11264 0.438 -0.23113 0.14712 -0.96173
-0.014546 -0.11183 0.438 -0.14343 0.18141 -0.97289
-0.014546 -0.11102 0.438 -0.069392 0.19586 -0.97817
-0.014546 -0.11021 0.438 -0.04935 0.20377 -0.97777
-0.014513 -0.10915 0.437 0.10891 0.27497 -0.95526
-0.014513 -0.10834 0.437 0.16153 0.29579 -0.9415
-0.014513 -0.10753 0.437 0.16401 0.30032 -0.93963
-0.014513 -0.10672 0.437 0.14964 0.30695 -0.93989
-0.014015 -0.056215 0.422 0.44102 0.46573 -0.7672
-0.014015 -0.055434 0.422 0.49309 0.48843 -0.71993
-0.013982 -0.054524 0.421 0.39566 0.47751 -0.7845
-0.013982 -0.053745 0.421 0.43766 0.48849 -0.75487
-0.013948 -0.05284 0.42 0.36085 0.4787 -0.8004
-0.013948 -0.052063 0.42 0.37188 0.491 -0.7878
-0.013948 -0.051286 0.42 0.35004 0.5024 -0.79061
-0.013915 -0.050389 0.419 0.30408 0.50034 -0.81068
-0.013915 -0.049613 0.419 0.28131 0.51118 -0.81213
-0.013915 -0.048838 0.419 0.2529 0.51575 -0.81856
-0.013882 -0.047948 0.418 0.22091 0.52079 -0.8246
-0.013882 -0.047175 0.418 0.19463 0.52378 -0.82932
-0.013882 -0.046401 0.418 0.17344 0.52334 -0.83428
-0.013882 -0.045628 0.418 0.14414 0.52197 -0.84069
-0.013882 -0.044855 0.418 0.12827 0.52247 -0.84295
-0.013882 -0.044081 0.418 0.10021 0.51694 -0.85014
-0.013882 -0.043308 0.418 0.081489 0.51315 -0.85442
-0.013882 -0.042535 0.418 0.059915 0.50649 -0.86016
-0.013882 -0.041761 0.418 0.026932 0.49825 -0.86662
-0.013849 -0.04089 0.417 0.005615 0.49089 -0.87121
-0.013849 -0.040118 0.417 -0.011306 0.48013 -0.87713
-0.013849 -0.039347 0.417 -0.041665 0.47027 -0.88154
-0.013849 -0.038575 0.417 -0.082861 0.45495 -0.88665
-0.013882 -0.037895 0.418 -0.11959 0.44863 -0.88568
-0.013882 -0.037121 0.418 -0.1587 0.44465 -0.88153
-0.013882 -0.036348 0.418 -0.19204 0.43748 -0.87848
-0.013882 -0.035574 0.418 -0.22567 0.438 -0.87019
-0.013882 -0.034801 0.418 -0.25257 0.44307 -0.86018
-0.013915 -0.034109 0.419 -0.27842 0.45038 -0.84832
-0.013915 -0.033334 0.419 -0.285 0.46474 -0.83833
-0.013915 -0.032559 0.419 -0.26877 0.48917 -0.82974
-0.013915 -0.031784 0.419 -0.21888 0.52015 -0.82555
-0.013948 -0.031082 0.42 -0.15749 0.54969 -0.82039
-0.013948 -0.030305 0.42 -0.07684 0.58203 -0.80953
-0.013948 -0.029528 0.42 0.0017022 0.60261 -0.79803
-0.013948 -0.028751 0.42 0.086002 0.61617 -0.7829
-0.013948 -0.027974 0.42 0.15965 0.62546 -0.76375
-0.013915 -0.027132 0.419 0.20753 0.63202 -0.74665
-0.013915 -0.026357 0.419 0.23784 0.63302 -0.73669
-0.013915 -0.025582 0.419 0.22799 0.63816 -0.73537
-0.013882 -0.024747 0.418 0.19067 0.61968 -0.76134
-0.013882 -0.023974 0.418 0.15568 0.62135 -0.76791
-0.013882 -0.023201 0.418 0.12441 0.61575 -0.77806
-0.013882 -0.022427 0.418 0.086514 0.60727 -0.78977
-0.013882 -0.021654 0.418 0.053855 0.59349 -0.80304
-0.013882 -0.020881 0.418 0.020076 0.57974 -0.81456
-0.013882 -0.020107 0.418 -0.0035522 0.55969 -0.8287
-0.013882 -0.019334 0.418 -0.019023 0.53389 -0.84534
-0.013882 -0.018561 0.418 -0.034163 0.50642 -0.86161
-0.013882 -0.017787 0.418 -0.042266 0.47957 -0.87649
-0.013882 -0.017014 0.418 -0.05719 0.4534 -0.88947
-0.013882 -0.016241 0.418 -0.061869 0.42706 -0.9021
-0.013882 -0.015467 0.418 -0.070522 0.3995 -0.91402
-0.013882 -0.014694 0.418 -0.077127 0.37766 -0.92273
-0.013882 -0.01392 0.418 -0.081738 0.35786 -0.93019
-0.013882 -0.013147 0.418 -0.089463 0.33481 -0.93803
-0.013882 -0.012374 0.418 -0.11445 0.30603 -0.94512
-0.013882 -0.0116 0.418 -0.14227 0.28375 -0.94829
-0.013915 -0.010853 0.419 -0.17993 0.27117 -0.94556
-0.013915 -0.010078 0.419 -0.21936 0.25688 -0.94122
-0.013915 -0.0093025 0.419 -0.2705 0.24793 -0.93025
-0.013915 -0.0085273 0.419 -0.31901 0.23493 -0.91817
-0.013915 -0.0077521 0.419 -0.36539 0.23074 -0.90181
-0.013948 -0.0069935 0.42 -0.40528 0.23403 -0.88373
-0.013948 -0.0062165 0.42 -0.43388 0.24356 -0.86743
-0.013982 -0.0054524 0.421 -0.44777 0.26047 -0.85537
-0.013982 -0.0046735 0.421 -0.45152 0.28041 -0.84705
-0.014015 -0.0039038 0.422 -0.45031 0.30707 -0.83841
-0.014015 -0.003123 0.422 -0.44349 0.32839 -0.83396
-0.014015 -0.0023423 0.422 -0.42948 0.34986 -0.83255
-0.014048 -0.0015652 0.423 -0.41812 0.37413 -0.82777
-0.014048 -0.00078261 0.423 -0.42023 0.38876 -0.81992
-0.014048 0 0.423 -0.42089 0.39687 -0.81569
-0.014081 0.00078446 0.424 -0.44884 0.40393 -0.79711
-0.014081 0.0015689 0.424 -0.4785 0.39195 -0.78576
-0.014114 0.0023589 0.425 -0.51956 0.37976 -0.7654
-0.014114 0.0031452 0.425 -0.54561 0.35286 -0.76013
-0.014148 0.0039408 0.426 -0.59184 0.33902 -0.7313
-0.014181 0.0047401 0.427 -0.6276 0.32744 -0.70633
-0.014214 0.005543 0.428 -0.64576 0.30646 -0.69934
-0.014247 0.0063497 0.429 -0.65315 0.28784 -0.70039
-0.014247 0.0071434 0.429 -0.6674 0.27758 -0.69103
-0.01428 0.0079556 0.43 -0.66686 0.2774 -0.69163
-0.014314 0.0087715 0.431 -0.668 0.27058 -0.69322
-0.014314 0.0095689 0.431 -0.66862 0.24758 -0.70118
-0.014347 0.01039 0.432 -0.68326 0.23568 -0.6911
-0.01438 0.011216 0.433 -0.71032 0.21762 -0.66939
-0.014413 0.012044 0.434 -0.73495 0.20674 -0.64584
-0.014446 0.012877 0.435 -0.73621 0.21729 -0.64092
-0.01448 0.013713 0.436 -0.73158 0.24095 -0.63775
-0.014513 0.014553 0.437 -0.71189 0.25024 -0.6562
-0.014546 0.015397 0.438 -0.68191 0.26332 -0.6824
-0.014579 0.016244 0.439 -0.64491 0.30307 -0.7016
-0.014579 0.017056 0.439 -0.62136 0.2952 -0.72579
-0.014613 0.017909 0.44 -0.59827 0.32554 -0.73219
-0.014646 0.018766 0.441 -0.60044 0.34953 -0.71924
-0.015144 0.021092 0.456 -0.096775 0.55182 -0.82833
-0.015144 0.021935 0.456 -0.17663 0.56116 -0.80864
-0.015144 0.022779 0.456 -0.25232 0.55931 -0.78963
-0.015144 0.023623 0.456 -0.30211 0.55625 -0.77415
-0.015177 0.02452 0.457 -0.2745 0.55224 -0.7872
-0.015177 0.025365 0.457 -0.28432 0.55371 -0.78267
-0.015177 0.026211 0.457 -0.25552 0.55338 -0.79277
-0.01521 0.027116 0.458 -0.41405 0.54594 -0.72836
-0.014993 -0.15565 0.478 0.24679 0.021521 -0.96883
-0.014993 -0.15476 0.478 0.25536 0.00075943 -0.96685
-0.014993 -0.15388 0.478 0.24196 -0.030733 -0.9698
-0.014961 -0.15268 0.477 0.26393 -0.062911 -0.96249
-0.014961 -0.15179 0.477 0.25689 -0.11004 -0.96015
-0.014961 -0.15091 0.477 0.2633 -0.14083 -0.95438
-0.014961 -0.15003 0.477 0.24247 -0.18667 -0.95203
-0.01493 -0.14883 0.476 0.33773 -0.14425 -0.93012
-0.01493 -0.14795 0.476 0.31456 -0.18168 -0.93169
-0.01493 -0.14707 0.476 0.27099 -0.22012 -0.93708
-0.01493 -0.14091 0.476 0.15642 -0.5741 -0.8037
-0.013456 -0.12223 0.429 -0.67783 -0.11168 -0.72669
-0.013518 -0.122 0.431 -0.37973 -0.17745 -0.90792
-0.013518 -0.12121 0.431 -0.48047 -0.19521 -0.85501
-0.013518 -0.12041 0.431 -0.5591 -0.20123 -0.80431
-0.013581 -0.11937 0.433 -0.56769 -0.099928 -0.81716
-0.013581 -0.11856 0.433 -0.57844 -0.12242 -0.80648
-0.013613 -0.11804 0.434 -0.5577 -0.080602 -0.82612
-0.013613 -0.11723 0.434 -0.56161 -0.082707 -0.82326
-0.013644 -0.1167 0.435 -0.51341 -0.031791 -0.85755
-0.013675 -0.11616 0.436 -0.46688 0.01894 -0.88412
-0.013675 -0.11535 0.436 -0.44248 0.023719 -0.89646
-0.013707 -0.11481 0.437 -0.3988 0.060208 -0.91506
-0.013707 -0.114 0.437 -0.35517 0.079026 -0.93146
-0.013707 -0.11319 0.437 -0.27982 0.13028 -0.95117
-0.013707 -0.11238 0.437 -0.17879 0.17037 -0.96902
-0.013707 -0.11157 0.437 -0.097551 0.20672 -0.97352
-0.013707 -0.11077 0.437 -0.015538 0.23128 -0.97276
-0.013707 -0.10996 0.437 0.039271 0.25234 -0.96684
-0.013707 -0.10915 0.437 0.085538 0.26854 -0.95946
-0.013707 -0.10834 0.437 0.10912 0.28091 -0.95351
-0.013707 -0.10753 0.437 0.093428 0.27895 -0.95575
-0.013675 -0.10648 0.436 0.35147 0.32028 -0.87971
-0.013236 -0.056215 0.422 0.50408 0.49176 -0.70998
-0.013205 -0.055302 0.421 0.43088 0.45999 -0.77637
-0.013205 -0.054524 0.421 0.46246 0.48802 -0.74025
-0.013173 -0.053617 0.42 0.3891 0.46762 -0.79369
-0.013173 -0.05284 0.42 0.39621 0.48886 -0.7772
-0.013142 -0.051939 0.419 0.35728 0.4742 -0.80467
-0.013142 -0.051164 0.419 0.34121 0.49015 -0.80207
-0.013142 -0.050389 0.419 0.31707 0.50126 -0.80511
-0.013111 -0.049495 0.418 0.27746 0.5038 -0.81805
-0.013111 -0.048722 0.418 0.25223 0.51359 -0.82013
-0.013111 -0.047948 0.418 0.22142 0.51757 -0.82649
-0.013111 -0.047175 0.418 0.19251 0.52082 -0.83168
-0.013111 -0.046401 0.418 0.16855 0.52123 -0.83661
-0.013079 -0.045519 0.417 0.14214 0.51912 -0.8428
-0.013079 -0.044747 0.417 0.12462 0.51706 -0.84683
-0.013079 -0.043976 0.417 0.094587 0.51009 -0.8549
-0.013079 -0.043204 0.417 0.073769 0.5076 -0.85843
-0.013079 -0.042433 0.417 0.055729 0.49924 -0.86467
-0.013079 -0.041661 0.417 0.027117 0.49142 -0.8705
-0.013079 -0.04089 0.417 0.00094353 0.47798 -0.87837
-0.013079 -0.040118 0.417 -0.019978 0.46392 -0.88565
-0.013079 -0.039347 0.417 -0.053536 0.45284 -0.88998
-0.013079 -0.038575 0.417 -0.096943 0.43838 -0.89354
-0.013079 -0.037804 0.417 -0.13026 0.43363 -0.89163
-0.013079 -0.037032 0.417 -0.17059 0.42863 -0.88723
-0.013111 -0.036348 0.418 -0.20346 0.42278 -0.88309
-0.013111 -0.035574 0.418 -0.23185 0.42309 -0.87592
-0.013111 -0.034801 0.418 -0.25343 0.43048 -0.86629
-0.013111 -0.034028 0.418 -0.27055 0.44083 -0.85584
-0.013111 -0.033254 0.418 -0.26442 0.45942 -0.84795
-0.013142 -0.032559 0.419 -0.24099 0.48958 -0.838
-0.013142 -0.031784 0.419 -0.18678 0.52242 -0.83198
-0.013142 -0.031008 0.419 -0.12441 0.5508 -0.82532
-0.013173 -0.030305 0.42 -0.040849 0.57811 -0.81494
-0.013173 -0.029528 0.42 0.041945 0.59499 -0.80264
-0.013142 -0.028683 0.419 0.11837 0.60777 -0.78524
-0.013142 -0.027907 0.419 0.18235 0.61352 -0.76834
-0.013142 -0.027132 0.419 0.22323 0.618 -0.75382
-0.013111 -0.026294 0.418 0.23879 0.61087 -0.75487
-0.013111 -0.025521 0.418 0.21832 0.61893 -0.7545
-0.013111 -0.024747 0.418 0.19858 0.61903 -0.75985
-0.013079 -0.023917 0.417 0.12388 0.5863 -0.80057
-0.013079 -0.023145 0.417 0.086941 0.58662 -0.80518
-0.013079 -0.022374 0.417 0.041466 0.58203 -0.81211
-0.013079 -0.021602 0.417 0.018442 0.57485 -0.81805
-0.013079 -0.020831 0.417 -0.013308 0.56359 -0.82595
-0.013079 -0.020059 0.417 -0.037796 0.54473 -0.83776
-0.013079 -0.019288 0.417 -0.051175 0.5231 -0.85074
-0.013111 -0.018561 0.418 -0.065878 0.49595 -0.86585
-0.013111 -0.017787 0.418 -0.075463 0.46846 -0.88026
-0.013111 -0.017014 0.418 -0.08897 0.44171 -0.89274
-0.013111 -0.016241 0.418 -0.089154 0.41748 -0.9043
-0.013111 -0.015467 0.418 -0.090249 0.39228 -0.91541
-0.013111 -0.014694 0.418 -0.097269 0.36424 -0.92621
-0.013111 -0.01392 0.418 -0.1051 0.34137 -0.93404
-0.013111 -0.013147 0.418 -0.11402 0.31695 -0.94156
-0.013111 -0.012374 0.418 -0.14322 0.28464 -0.94788
-0.013111 -0.0116 0.418 -0.16731 0.25637 -0.95199
-0.013111 -0.010827 0.418 -0.19946 0.24154 -0.94967
-0.013111 -0.010054 0.418 -0.23654 0.23286 -0.9433
-0.013142 -0.0093025 0.419 -0.28407 0.22365 -0.93236
-0.013142 -0.0085273 0.419 -0.32849 0.21381 -0.91999
-0.013142 -0.0077521 0.419 -0.36619 0.21157 -0.90617
-0.013173 -0.0069935 0.42 -0.39441 0.21566 -0.89327
-0.013173 -0.0062165 0.42 -0.41699 0.23268 -0.87862
-0.013205 -0.0054524 0.421 -0.42695 0.25159 -0.86857
-0.013205 -0.0046735 0.421 -0.42782 0.27498 -0.86102
-0.013205 -0.0038945 0.421 -0.42675 0.30449 -0.85157
-0.013236 -0.003123 0.422 -0.42019 0.32859 -0.84585
-0.013236 -0.0023423 0.422 -0.4085 0.3521 -0.84211
-0.013236 -0.0015615 0.422 -0.39413 0.37169 -0.84054
-0.013268 -0.00078261 0.423 -0.40623 0.39291 -0.82498
-0.013268 0 0.423 -0.41975 0.40053 -0.81448
-0.013299 0.00078446 0.424 -0.45152 0.40332 -0.7959
-0.013299 0.0015689 0.424 -0.48772 0.39273 -0.77968
-0.013299 0.0023534 0.424 -0.50821 0.36988 -0.77776
-0.01333 0.0031452 0.425 -0.55681 0.36318 -0.74703
-0.013362 0.0039408 0.426 -0.59678 0.35107 -0.72153
-0.013362 0.004729 0.426 -0.60828 0.33023 -0.72176
-0.013393 0.0055301 0.427 -0.64748 0.32051 -0.69141
-0.013424 0.0063349 0.428 -0.66298 0.30379 -0.68423
-0.013456 0.0071434 0.429 -0.66704 0.2889 -0.68673
-0.013487 0.0079556 0.43 -0.66319 0.28053 -0.69389
-0.013518 0.0087715 0.431 -0.65955 0.2569 -0.70639
-0.013518 0.0095689 0.431 -0.68189 0.25569 -0.68531
-0.01355 0.01039 0.432 -0.69869 0.23595 -0.6754
-0.01355 0.01119 0.432 -0.6567 0.22606 -0.71947
-0.013581 0.012017 0.433 -0.69566 0.19235 -0.69214
-0.013613 0.012847 0.434 -0.7272 0.18233 -0.66177
-0.013675 0.013713 0.436 -0.72911 0.22195 -0.6474
-0.013707 0.014553 0.437 -0.70221 0.2225 -0.67631
-0.013738 0.015397 0.438 -0.66551 0.23369 -0.70886
-0.013738 0.016207 0.438 -0.6596 0.2481 -0.70949
-0.013769 0.017056 0.439 -0.62741 0.28927 -0.72297
-0.013769 0.017869 0.439 -0.52907 0.30636 -0.79135
-0.013801 0.018723 0.44 -0.50649 0.33536 -0.79435
-0.013832 0.019582 0.441 -0.53803 0.36026 -0.76206
-0.014303 0.021092 0.456 0.064149 0.56478 -0.82275
-0.014303 0.021935 0.456 -0.01907 0.57787 -0.81591
-0.014303 0.022779 0.456 -0.11566 0.57595 -0.80926
-0.014303 0.023623 0.456 -0.22448 0.57432 -0.78725
-0.014303 0.024466 0.456 -0.27656 0.57523 -0.76982
-0.014303 0.02531 0.456 -0.23228 0.57236 -0.78642
-0.014334 0.026211 0.457 -0.36966 0.56629 -0.73666
-0.014334 0.027056 0.457 -0.33057 0.56467 -0.75622
-0.014111 -0.15565 0.478 0.21567 0.0016062 -0.97646
-0.014111 -0.15476 0.478 0.21589 -0.020982 -0.97619
-0.014111 -0.15388 0.478 0.19485 -0.063603 -0.97877
-0.014081 -0.15268 0.477 0.21445 -0.099216 -0.97168
-0.014081 -0.15179 0.477 0.21219 -0.14058 -0.96706
-0.014081 -0.15091 0.477 0.22098 -0.17307 -0.9598
-0.014081 -0.15003 0.477 0.21379 -0.20282 -0.95559
-0.014081 -0.14915 0.477 0.16651 -0.24305 -0.95561
-0.014052 -0.14795 0.476 0.32399 -0.19877 -0.92494
-0.012871 -0.12503 0.436 0.5854 0.3127 -0.74802
-0.012723 -0.122 0.431 -0.40929 -0.1748 -0.89551
-0.012723 -0.12041 0.431 -0.5735 -0.17395 -0.80052
-0.012753 -0.11989 0.432 -0.54259 -0.11938 -0.83148
-0.012753 -0.11909 0.432 -0.60145 -0.12293 -0.78939
-0.012782 -0.11856 0.433 -0.58441 -0.10173 -0.80505
-0.012812 -0.11804 0.434 -0.5625 -0.05955 -0.82465
-0.012841 -0.1175 0.435 -0.52527 -0.0091163 -0.85089
-0.012841 -0.1167 0.435 -0.49868 0.002198 -0.86678
-0.012871 -0.11616 0.436 -0.4542 0.046792 -0.88967
-0.012871 -0.11535 0.436 -0.41658 0.058973 -0.90718
-0.0129 -0.11481 0.437 -0.36549 0.09189 -0.92627
-0.0129 -0.114 0.437 -0.30532 0.11213 -0.94562
-0.0129 -0.11319 0.437 -0.23045 0.15419 -0.96079
-0.0129 -0.11238 0.437 -0.13865 0.18495 -0.97292
-0.0129 -0.11157 0.437 -0.068019 0.20802 -0.97576
-0.0129 -0.11077 0.437 -0.002498 0.22267 -0.97489
-0.0129 -0.10996 0.437 0.030138 0.23342 -0.97191
-0.0129 -0.10915 0.437 0.052796 0.24378 -0.96839
-0.0129 -0.10834 0.437 0.048928 0.24599 -0.96804
-0.012871 -0.10729 0.436 0.30851 0.29585 -0.90404
-0.012458 -0.056995 0.422 0.51523 0.47721 -0.71191
-0.012428 -0.056081 0.421 0.46127 0.44673 -0.76659
-0.012399 -0.055171 0.42 0.38683 0.41752 -0.82222
-0.012399 -0.054394 0.42 0.4163 0.46205 -0.78307
-0.012399 -0.053617 0.42 0.42998 0.48292 -0.76283
-0.012369 -0.052714 0.419 0.37615 0.47484 -0.79564
-0.012369 -0.051939 0.419 0.37153 0.48714 -0.79036
-0.012369 -0.051164 0.419 0.34603 0.49819 -0.79503
-0.012339 -0.050268 0.418 0.30932 0.49819 -0.81001
-0.012339 -0.049495 0.418 0.2785 0.50699 -0.81572
-0.012339 -0.048722 0.418 0.24983 0.50885 -0.82381
-0.01231 -0.047833 0.417 0.218 0.51054 -0.83176
-0.01231 -0.047062 0.417 0.1927 0.51005 -0.83828
-0.01231 -0.04629 0.417 0.1635 0.50816 -0.8456
-0.01231 -0.045519 0.417 0.13198 0.50453 -0.85325
-0.01231 -0.044747 0.417 0.11043 0.50383 -0.85672
-0.01231 -0.043976 0.417 0.082662 0.49553 -0.86465
-0.01231 -0.043204 0.417 0.06069 0.4907 -0.86921
-0.01231 -0.042433 0.417 0.042325 0.48117 -0.8756
-0.01231 -0.041661 0.417 0.014183 0.4743 -0.88025
-0.01231 -0.04089 0.417 -0.010466 0.46399 -0.88578
-0.01231 -0.040118 0.417 -0.028672 0.45558 -0.88973
-0.01231 -0.039347 0.417 -0.058576 0.44433 -0.89395
-0.01231 -0.038575 0.417 -0.097267 0.43217 -0.89653
-0.01231 -0.037804 0.417 -0.13063 0.42817 -0.89421
-0.01231 -0.037032 0.417 -0.1665 0.42274 -0.89083
-0.01231 -0.036261 0.417 -0.19603 0.4204 -0.88591
-0.01231 -0.035489 0.417 -0.22164 0.42419 -0.87803
-0.012339 -0.034801 0.418 -0.23682 0.43235 -0.87005
-0.012339 -0.034028 0.418 -0.24946 0.44706 -0.85902
-0.012339 -0.033254 0.418 -0.24078 0.46657 -0.85108
-0.012339 -0.032481 0.418 -0.21321 0.49372 -0.84308
-0.012369 -0.031784 0.419 -0.15167 0.52177 -0.83949
-0.012369 -0.031008 0.419 -0.085305 0.5494 -0.83119
-0.012369 -0.030233 0.419 -0.0061262 0.57427 -0.81864
-0.012369 -0.029458 0.419 0.069902 0.58607 -0.80724
-0.012369 -0.028683 0.419 0.13783 0.59616 -0.79095
-0.012339 -0.027841 0.418 0.19403 0.59874 -0.77709
-0.012339 -0.027068 0.418 0.22711 0.59901 -0.76786
-0.01231 -0.026231 0.417 0.22712 0.56858 -0.79065
-0.01231 -0.02546 0.417 0.19997 0.57493 -0.79339
-0.01231 -0.024688 0.417 0.16915 0.57522 -0.80032
-0.01231 -0.023917 0.417 0.13117 0.57501 -0.80756
-0.01231 -0.023145 0.417 0.090139 0.56827 -0.81789
-0.01231 -0.022374 0.417 0.039987 0.55891 -0.82826
-0.01231 -0.021602 0.417 0.010774 0.54886 -0.83585
-0.01231 -0.020831 0.417 -0.031826 0.53139 -0.84653
-0.01231 -0.020059 0.417 -0.059852 0.51147 -0.85721
-0.01231 -0.019288 0.417 -0.078971 0.49568 -0.86491
-0.01231 -0.018516 0.417 -0.096684 0.47647 -0.87386
-0.01231 -0.017745 0.417 -0.10616 0.45842 -0.88237
