-0.013653 -0.034912 0.37 -0.16335 -0.057075 -0.98492
-0.01369 -0.03432 0.371 -0.2178 -0.042265 -0.97508
-0.01369 -0.033634 0.371 -0.25006 -0.027967 -0.96783
-0.01369 -0.032947 0.371 -0.26105 -0.013946 -0.96523
-0.01369 -0.032261 0.371 -0.25016 0.0023315 -0.9682
-0.01369 -0.031574 0.371 -0.24453 0.033836 -0.96905
-0.013727 -0.030971 0.372 -0.26668 0.04047 -0.96293
-0.013727 -0.030283 0.372 -0.30465 0.050253 -0.95114
-0.013727 -0.029595 0.372 -0.3219 0.063522 -0.94464
-0.013727 -0.028907 0.372 -0.32861 0.08023 -0.94105
-0.013727 -0.028218 0.372 -0.33265 0.08011 -0.93964
-0.013764 -0.027604 0.373 -0.32106 0.06675 -0.9447
-0.013764 -0.026914 0.373 -0.33306 0.072057 -0.94015
-0.013764 -0.026224 0.373 -0.33195 0.076564 -0.94019
-0.013801 -0.025602 0.374 -0.30986 0.076966 -0.94766
-0.013801 -0.02491 0.374 -0.27228 0.075615 -0.95924
-0.013801 -0.024218 0.374 -0.26405 0.058642 -0.96273
-0.013801 -0.023526 0.374 -0.25664 0.049572 -0.96523
-0.013801 -0.022834 0.374 -0.26437 0.031084 -0.96392
-0.013801 -0.022142 0.374 -0.28469 0.017171 -0.95847
-0.013801 -0.021451 0.374 -0.30355 -0.001138 -0.95281
-0.013838 -0.020814 0.375 -0.36454 -0.0036629 -0.93118
-0.013838 -0.02012 0.375 -0.39564 -0.003995 -0.9184
-0.013838 -0.019426 0.375 -0.42442 -0.0056768 -0.90545
-0.013838 -0.018733 0.375 -0.45386 -0.015264 -0.89094
-0.013875 -0.018087 0.376 -0.47977 -0.014138 -0.87728
-0.013911 -0.017438 0.377 -0.50455 -0.011587 -0.86331
-0.013911 -0.01674 0.377 -0.52908 -0.010914 -0.8485
-0.013911 -0.016043 0.377 -0.52293 0.0072928 -0.85235
-0.013948 -0.015386 0.378 -0.53711 0.0087418 -0.84347
-0.013948 -0.014686 0.378 -0.48193 0.02073 -0.87597
-0.013985 -0.014024 0.379 -0.5532 0.0094379 -0.83299
-0.01476 -0.012581 0.4 -0.043202 -0.31546 -0.94796
-0.01476 -0.011841 0.4 -0.12586 -0.30988 -0.94241
-0.01476 -0.011101 0.4 -0.20355 -0.30879 -0.9291
-0.01476 -0.010361 0.4 -0.24807 -0.31701 -0.9154
-0.01476 -0.0096207 0.4 -0.26927 -0.33035 -0.90463
-0.01476 -0.0088807 0.4 -0.27508 -0.32663 -0.90424
-0.01476 -0.0081406 0.4 -0.30748 -0.32952 -0.89268
-0.014797 -0.0074191 0.401 -0.3235 -0.32523 -0.88858
-0.014797 -0.0066772 0.401 -0.34942 -0.33234 -0.87604
-0.014797 -0.0059352 0.401 -0.37582 -0.32709 -0.86705
-0.014834 -0.0052063 0.402 -0.40301 -0.32095 -0.85707
-0.014834 -0.0044625 0.402 -0.42553 -0.30905 -0.85054
-0.014834 -0.0037188 0.402 -0.45001 -0.30415 -0.83963
-0.014871 -0.0029824 0.403 -0.46386 -0.29697 -0.83465
-0.014871 -0.0022368 0.403 -0.46974 -0.28106 -0.83687
-0.014908 -0.0014949 0.404 -0.47482 -0.26872 -0.83806
-0.014908 -0.00074746 0.404 -0.47646 -0.25331 -0.84191
-0.014945 0 0.405 -0.49096 -0.23307 -0.83943
-0.014945 0.00074931 0.405 -0.49687 -0.21527 -0.8407
-0.014945 0.0014986 0.405 -0.44734 -0.20693 -0.87009
-0.014982 0.0022535 0.406 -0.48877 -0.2205 -0.84409
-0.014982 0.0030046 0.406 -0.43264 -0.22648 -0.87266
-0.015055 0.0045291 0.408 -0.62913 -0.1894 -0.75387
-0.015018 0.005271 0.407 -0.31956 -0.24307 -0.91586
-0.01679 0.015153 0.455 0.13668 0.13948 -0.98075
-0.01679 0.015994 0.455 0.18315 0.13639 -0.97358
-0.01679 0.017678 0.455 0.30024 0.099554 -0.94866
-0.01679 0.01852 0.455 0.31194 0.082425 -0.94652
-0.01679 0.019362 0.455 0.27425 0.077512 -0.95853
-0.01679 0.020204 0.455 0.29351 0.02173 -0.95571
-0.016753 0.020999 0.454 0.32897 0.12285 -0.93631
-0.016753 0.021839 0.454 0.2457 0.12207 -0.96163
-0.016716 0.022629 0.453 0.40754 0.19021 -0.89316
-0.013391 -0.062194 0.382 0.76392 -0.31737 -0.56188
-0.013356 -0.061327 0.381 0.73156 -0.33146 -0.59578
-0.013321 -0.060463 0.38 0.69818 -0.33416 -0.63316
-0.013286 -0.059602 0.379 0.66565 -0.31784 -0.67519
-0.013251 -0.058746 0.378 0.65755 -0.27681 -0.70072
-0.013216 -0.057893 0.377 0.65406 -0.20547 -0.728
-0.013216 -0.057195 0.377 0.63474 -0.31256 -0.70669
-0.013181 -0.056348 0.376 0.61199 -0.24842 -0.75083
-0.013181 -0.055652 0.376 0.58244 -0.34594 -0.73559
-0.013146 -0.05481 0.375 0.57728 -0.26417 -0.77263
-0.013146 -0.054117 0.375 0.53289 -0.3475 -0.77154
-0.013111 -0.05328 0.374 0.53191 -0.24913 -0.80932
-0.013111 -0.052588 0.374 0.49927 -0.31989 -0.80523
-0.013076 -0.051758 0.373 0.47992 -0.22131 -0.84894
-0.013076 -0.051068 0.373 0.44872 -0.2625 -0.85425
-0.013076 -0.050377 0.373 0.41338 -0.31446 -0.85453
-0.013041 -0.049554 0.372 0.36196 -0.21907 -0.90609
-0.013041 -0.048866 0.372 0.32511 -0.25049 -0.9119
-0.013041 -0.048178 0.372 0.29783 -0.28016 -0.91258
-0.013006 -0.047362 0.371 0.24115 -0.20507 -0.94857
-0.013006 -0.046675 0.371 0.23646 -0.23092 -0.9438
-0.013006 -0.045989 0.371 0.22221 -0.24205 -0.94448
-0.013006 -0.045302 0.371 0.20338 -0.24602 -0.94769
-0.013006 -0.044616 0.371 0.19042 -0.24091 -0.95168
-0.013006 -0.04393 0.371 0.17613 -0.23401 -0.95615
-0.013006 -0.043243 0.371 0.15665 -0.22998 -0.96051
-0.01297 -0.042442 0.37 0.12651 -0.21845 -0.96761
-0.01297 -0.041758 0.37 0.096506 -0.2136 -0.97214
-0.01297 -0.041073 0.37 0.068539 -0.20623 -0.9761
-0.01297 -0.040389 0.37 0.04504 -0.19857 -0.97905
-0.01297 -0.039704 0.37 0.034443 -0.19069 -0.98105
-0.01297 -0.039019 0.37 0.019036 -0.1839 -0.98276
-0.01297 -0.038335 0.37 -0.0095376 -0.17358 -0.98477
-0.01297 -0.03765 0.37 -0.052541 -0.156 -0.98636
-0.01297 -0.036966 0.37 -0.088374 -0.13815 -0.98646
-0.01297 -0.036281 0.37 -0.10987 -0.12148 -0.98649
-0.01297 -0.035597 0.37 -0.12305 -0.10484 -0.98685
-0.013006 -0.035006 0.371 -0.14522 -0.083094 -0.9859
-0.013006 -0.03432 0.371 -0.20176 -0.065889 -0.97722
-0.013006 -0.033634 0.371 -0.23666 -0.04907 -0.97035
-0.013006 -0.032947 0.371 -0.25112 -0.032614 -0.96741
-0.013006 -0.032261 0.371 -0.23911 -0.018702 -0.97081
-0.013006 -0.031574 0.371 -0.24025 0.008181 -0.97068
-0.013041 -0.030971 0.372 -0.26363 0.016214 -0.96449
-0.013041 -0.030283 0.372 -0.29765 0.021775 -0.95443
-0.013041 -0.029595 0.372 -0.31213 0.031924 -0.9495
-0.013041 -0.028907 0.372 -0.31705 0.048905 -0.94715
-0.013041 -0.028218 0.372 -0.32522 0.048762 -0.94438
-0.013041 -0.02753 0.372 -0.31815 0.044349 -0.947
-0.013076 -0.026914 0.373 -0.32857 0.044064 -0.94345
-0.013076 -0.026224 0.373 -0.33266 0.039493 -0.94222
-0.013076 -0.025534 0.373 -0.31651 0.03179 -0.94806
-0.013111 -0.02491 0.374 -0.27721 0.028676 -0.96038
-0.013111 -0.024218 0.374 -0.27302 0.018381 -0.96183
-0.013111 -0.023526 0.374 -0.27519 0.0068894 -0.96137
-0.013111 -0.022834 0.374 -0.27941 -0.014907 -0.96006
-0.013111 -0.022142 0.374 -0.30029 -0.031881 -0.95332
-0.013111 -0.021451 0.374 -0.31748 -0.054275 -0.94671
-0.013146 -0.020814 0.375 -0.37505 -0.057509 -0.92522
-0.013146 -0.02012 0.375 -0.40832 -0.064107 -0.91059
-0.013146 -0.019426 0.375 -0.42712 -0.068651 -0.90158
-0.013181 -0.018783 0.376 -0.47098 -0.055222 -0.88041
-0.013216 -0.018135 0.377 -0.49222 -0.045083 -0.8693
-0.013216 -0.017438 0.377 -0.502 -0.047406 -0.86357
-0.013216 -0.01674 0.377 -0.52019 -0.051614 -0.85249
-0.013216 -0.016043 0.377 -0.5112 -0.032251 -0.85886
-0.013251 -0.015386 0.378 -0.52508 -0.023336 -0.85073
-0.013251 -0.014686 0.378 -0.46461 -0.0077748 -0.88548
-0.013286 -0.014024 0.379 -0.54677 -0.016345 -0.83712
-0.013286 -0.013323 0.379 -0.45854 0.0024208 -0.88867
-0.014022 -0.012581 0.4 -0.13195 -0.32038 -0.93805
-0.014022 -0.011841 0.4 -0.1932 -0.3198 -0.92758
-0.014022 -0.011101 0.4 -0.24508 -0.31952 -0.91534
-0.014022 -0.010361 0.4 -0.27179 -0.33204 -0.90326
-0.014022 -0.0096207 0.4 -0.27607 -0.34496 -0.8971
-0.014057 -0.0089029 0.401 -0.27063 -0.32248 -0.90707
-0.014057 -0.008161 0.401 -0.3035 -0.33007 -0.89384
-0.014057 -0.0074191 0.401 -0.32943 -0.33338 -0.88337
-0.014057 -0.0066772 0.401 -0.35367 -0.33513 -0.87327
-0.014092 -0.00595 0.402 -0.37372 -0.32191 -0.86989
-0.014092 -0.0052063 0.402 -0.40522 -0.31642 -0.85771
-0.014092 -0.0044625 0.402 -0.42664 -0.30132 -0.85275
-0.014127 -0.003728 0.403 -0.44535 -0.29514 -0.84531
-0.014127 -0.0029824 0.403 -0.45519 -0.28767 -0.84264
-0.014162 -0.0022424 0.404 -0.45926 -0.27292 -0.84534
-0.014162 -0.0014949 0.404 -0.46507 -0.26181 -0.84567
-0.014162 -0.00074746 0.404 -0.46512 -0.25565 -0.84753
-0.014197 0 0.405 -0.4836 -0.23653 -0.84273
-0.014197 0.00074931 0.405 -0.48536 -0.21835 -0.84661
-0.014232 0.0015023 0.406 -0.49273 -0.22909 -0.83948
-0.014232 0.0022535 0.406 -0.47556 -0.23619 -0.84738
-0.014232 0.0030046 0.406 -0.40895 -0.24655 -0.87862
-0.014268 0.003765 0.407 -0.49084 -0.25257 -0.83383
-0.015915 0.015119 0.454 -0.10109 0.29646 -0.94968
-0.01595 0.016836 0.455 0.26651 0.21778 -0.93891
-0.01595 0.01852 0.455 0.27726 0.17535 -0.94466
-0.01595 0.019362 0.455 0.20605 0.18088 -0.96168
-0.015915 0.020159 0.454 0.31583 0.22299 -0.92224
-0.015915 0.020999 0.454 0.26597 0.2291 -0.93636
-0.015915 0.021839 0.454 0.18112 0.22617 -0.9571
-0.01588 0.022629 0.453 0.34744 0.30642 -0.88622
-0.012653 -0.061327 0.381 0.68305 -0.35309 -0.63935
-0.01262 -0.060463 0.38 0.65707 -0.34159 -0.67199
-0.012587 -0.059602 0.379 0.63753 -0.30605 -0.70703
-0.012587 -0.058901 0.379 0.65919 -0.37628 -0.65106
-0.012554 -0.058046 0.378 0.65197 -0.32528 -0.68493
-0.01252 -0.057195 0.377 0.65007 -0.25382 -0.71623
-0.01252 -0.056498 0.377 0.59658 -0.37497 -0.70957
-0.012487 -0.055652 0.376 0.59948 -0.29419 -0.74436
-0.012487 -0.054957 0.376 0.55148 -0.40716 -0.72807
-0.012454 -0.054117 0.375 0.54856 -0.302 -0.77966
-0.012454 -0.053423 0.375 0.51451 -0.39141 -0.76294
-0.012421 -0.052588 0.374 0.51001 -0.27414 -0.81531
-0.012421 -0.051896 0.374 0.47754 -0.36588 -0.7988
-0.012387 -0.051068 0.373 0.45682 -0.21344 -0.86358
-0.012387 -0.050377 0.373 0.41588 -0.29058 -0.86174
-0.012354 -0.049554 0.372 0.3432 -0.15533 -0.92633
-0.012354 -0.048866 0.372 0.3039 -0.21226 -0.92876
-0.012354 -0.048178 0.372 0.28533 -0.26117 -0.92216
-0.012354 -0.047489 0.372 0.27688 -0.28184 -0.91864
-0.012354 -0.046801 0.372 0.27196 -0.29789 -0.91504
-0.012321 -0.045989 0.371 0.20644 -0.23041 -0.95094
-0.012321 -0.045302 0.371 0.19899 -0.24603 -0.94862
-0.012321 -0.044616 0.371 0.1962 -0.24545 -0.94935
-0.012321 -0.04393 0.371 0.19032 -0.24085 -0.95172
-0.012321 -0.043243 0.371 0.17897 -0.23676 -0.95494
-0.012321 -0.042557 0.371 0.14274 -0.23609 -0.96119
-0.012321 -0.04187 0.371 0.10855 -0.23163 -0.96673
-0.012321 -0.041184 0.371 0.080838 -0.22782 -0.97034
-0.012288 -0.040389 0.37 0.056564 -0.2221 -0.97338
-0.012288 -0.039704 0.37 0.043708 -0.2144 -0.97577
-0.012288 -0.039019 0.37 0.024873 -0.20552 -0.97834
-0.012288 -0.038335 0.37 -0.0023757 -0.19308 -0.98118
-0.012288 -0.03765 0.37 -0.039298 -0.17576 -0.98365
-0.012288 -0.036966 0.37 -0.070349 -0.15814 -0.98491
-0.012288 -0.036281 0.37 -0.088345 -0.14048 -0.98613
-0.012288 -0.035597 0.37 -0.10506 -0.12858 -0.98612
-0.012321 -0.035006 0.371 -0.13204 -0.10913 -0.98522
-0.012321 -0.03432 0.371 -0.18889 -0.090652 -0.9778
-0.012321 -0.033634 0.371 -0.22523 -0.07253 -0.9716
-0.012321 -0.032947 0.371 -0.2421 -0.054818 -0.9687
-0.012321 -0.032261 0.371 -0.23344 -0.038605 -0.9716
-0.012321 -0.031574 0.371 -0.2336 -0.011706 -0.97226
-0.012354 -0.030971 0.372 -0.25716 -0.0023208 -0.96637
-0.012354 -0.030283 0.372 -0.28614 -0.0023012 -0.95819
-0.012354 -0.029595 0.372 -0.29668 0.0034402 -0.95497
-0.012354 -0.028907 0.372 -0.29872 0.019477 -0.95414
-0.012354 -0.028218 0.372 -0.31631 0.025052 -0.94833
-0.012354 -0.02753 0.372 -0.31318 0.029636 -0.94923
-0.012387 -0.026914 0.373 -0.32773 0.029403 -0.94431
-0.012387 -0.026224 0.373 -0.3359 0.01579 -0.94177
-0.012387 -0.025534 0.373 -0.32381 0 -0.94612
-0.012421 -0.02491 0.374 -0.28893 -0.01029 -0.9573
-0.012421 -0.024218 0.374 -0.2878 -0.025156 -0.95736
-0.012421 -0.023526 0.374 -0.29711 -0.037605 -0.9541
-0.012421 -0.022834 0.374 -0.30103 -0.054581 -0.95205
-0.012421 -0.022142 0.374 -0.31915 -0.072231 -0.94495
-0.012421 -0.021451 0.374 -0.33158 -0.096398 -0.93849
-0.012454 -0.020814 0.375 -0.3825 -0.10115 -0.9184
-0.012454 -0.02012 0.375 -0.41405 -0.11336 -0.90317
-0.012454 -0.019426 0.375 -0.42458 -0.12812 -0.89628
-0.012487 -0.018783 0.376 -0.46816 -0.10727 -0.87711
-0.012487 -0.018087 0.376 -0.47658 -0.10994 -0.87223
-0.01252 -0.017438 0.377 -0.49533 -0.086372 -0.8644
-0.012554 -0.016085 0.378 -0.54265 -0.07893 -0.83624
-0.012554 -0.015386 0.378 -0.51265 -0.062632 -0.85631
-0.012587 -0.014725 0.379 -0.60443 -0.070202 -0.79356
-0.012587 -0.014024 0.379 -0.53925 -0.053957 -0.84042
-0.013284 -0.012581 0.4 -0.21078 -0.32163 -0.92311
-0.013284 -0.011841 0.4 -0.25913 -0.33132 -0.90724
-0.013284 -0.011101 0.4 -0.29012 -0.33573 -0.89617
-0.013317 -0.010387 0.401 -0.18898 -0.31995 -0.92839
-0.013317 -0.0096448 0.401 -0.24499 -0.33099 -0.91128
-0.013317 -0.0089029 0.401 -0.27405 -0.33292 -0.90225
-0.013317 -0.008161 0.401 -0.30671 -0.34259 -0.88801
-0.013317 -0.0074191 0.401 -0.33235 -0.34473 -0.8779
-0.013351 -0.0066938 0.402 -0.3473 -0.33327 -0.87654
-0.013351 -0.00595 0.402 -0.37674 -0.32389 -0.86785
-0.013351 -0.0052063 0.402 -0.39976 -0.31049 -0.86243
-0.013384 -0.0044736 0.403 -0.41727 -0.30211 -0.8571
-0.013384 -0.003728 0.403 -0.43633 -0.29071 -0.85153
-0.013417 -0.0029898 0.404 -0.44556 -0.27676 -0.8514
-0.013417 -0.0022424 0.404 -0.45007 -0.26496 -0.85278
-0.013417 -0.0014949 0.404 -0.45644 -0.25539 -0.85232
-0.01345 -0.00074931 0.405 -0.4602 -0.24638 -0.85294
-0.01345 0 0.405 -0.4807 -0.23164 -0.84574
-0.01345 0.00074931 0.405 -0.48081 -0.22225 -0.84819
-0.013483 0.0015023 0.406 -0.48466 -0.23788 -0.84174
-0.013483 0.0022535 0.406 -0.46636 -0.24878 -0.84889
-0.013517 0.003012 0.407 -0.53032 -0.24297 -0.81224
-0.013517 0.003765 0.407 -0.4605 -0.26727 -0.84647
-0.015111 0.015153 0.455 0.26019 0.30232 -0.91701
-0.015111 0.017678 0.455 0.31079 0.25472 -0.91571
-0.015111 0.01852 0.455 0.28434 0.22005 -0.93313
-0.015111 0.019362 0.455 0.16015 0.22783 -0.96044
-0.015077 0.020159 0.454 0.27624 0.32271 -0.90529
-0.015077 0.020999 0.454 0.18581 0.34833 -0.91877
-0.015044 0.021791 0.453 0.35037 0.38684 -0.853
-0.015044 0.022629 0.453 0.24784 0.43245 -0.86693
-0.01195 -0.061327 0.381 0.62003 -0.37535 -0.68897
-0.01195 -0.060622 0.381 0.69168 -0.39794 -0.60268
-0.011919 -0.059759 0.38 0.66082 -0.39086 -0.64074
-0.011887 -0.058901 0.379 0.65045 -0.35441 -0.6718
-0.011856 -0.058046 0.378 0.66477 -0.27562 -0.69435
-0.011856 -0.057347 0.378 0.62544 -0.38801 -0.67696
-0.011825 -0.056498 0.377 0.60741 -0.33225 -0.72157
-0.011825 -0.0558 0.377 0.55972 -0.44402 -0.69969
-0.011793 -0.054957 0.376 0.56688 -0.36517 -0.73844
-0.011762 -0.054117 0.375 0.55958 -0.23843 -0.79374
-0.011762 -0.053423 0.375 0.53057 -0.34818 -0.77283
-0.011731 -0.052588 0.374 0.51685 -0.22611 -0.82568
-0.011731 -0.051896 0.374 0.49012 -0.32987 -0.80683
-0.011699 -0.051068 0.373 0.46386 -0.17902 -0.86763
-0.011699 -0.050377 0.373 0.42609 -0.26765 -0.86418
-0.011699 -0.049687 0.373 0.38113 -0.34744 -0.85676
-0.011668 -0.048866 0.372 0.27688 -0.18254 -0.94341
-0.011668 -0.048178 0.372 0.26054 -0.24968 -0.93262
-0.011668 -0.047489 0.372 0.25693 -0.28368 -0.92386
-0.011668 -0.046801 0.372 0.26087 -0.30839 -0.91479
-0.011668 -0.046113 0.372 0.25981 -0.32124 -0.91066
-0.011637 -0.045302 0.371 0.18996 -0.26128 -0.94639
-0.011637 -0.044616 0.371 0.18468 -0.26255 -0.94708
-0.011637 -0.04393 0.371 0.19084 -0.26147 -0.94616
-0.011637 -0.043243 0.371 0.18464 -0.26328 -0.94689
-0.011637 -0.042557 0.371 0.1528 -0.26694 -0.95152
-0.011637 -0.04187 0.371 0.12017 -0.26388 -0.95704
-0.011637 -0.041184 0.371 0.086965 -0.2648 -0.96037
-0.011637 -0.040498 0.371 0.05585 -0.26107 -0.9637
-0.011637 -0.039811 0.371 0.041929 -0.26017 -0.96465
-0.011637 -0.039125 0.371 0.02217 -0.25599 -0.96642
-0.011637 -0.037752 0.371 -0.032849 -0.23399 -0.97168
-0.011637 -0.037066 0.371 -0.061151 -0.21813 -0.974
-0.011605 -0.036281 0.37 -0.070873 -0.20732 -0.9757
-0.011637 -0.035693 0.371 -0.086127 -0.19413 -0.97719
-0.011637 -0.035006 0.371 -0.10743 -0.18012 -0.97776
-0.011637 -0.03432 0.371 -0.16119 -0.15605 -0.97451
-0.011637 -0.033634 0.371 -0.19705 -0.13217 -0.97144
-0.011637 -0.032947 0.371 -0.21558 -0.10866 -0.97042
-0.011637 -0.032261 0.371 -0.21047 -0.085595 -0.97385
-0.011637 -0.031574 0.371 -0.21646 -0.061006 -0.97438
-0.011668 -0.030971 0.372 -0.24162 -0.044232 -0.96936
-0.011668 -0.030283 0.372 -0.27315 -0.038089 -0.96122
-0.011668 -0.029595 0.372 -0.28174 -0.032242 -0.95895
-0.011668 -0.028907 0.372 -0.28926 -0.018388 -0.95707
-0.011668 -0.028218 0.372 -0.31331 -0.0079821 -0.94962
-0.011699 -0.027604 0.373 -0.31049 0.0056918 -0.95056
-0.011699 -0.026914 0.373 -0.33191 0 -0.94331
-0.011699 -0.026224 0.373 -0.34488 -0.015735 -0.93851
-0.011699 -0.025534 0.373 -0.3334 -0.028909 -0.94234
-0.011731 -0.02491 0.374 -0.30552 -0.056148 -0.95053
-0.011731 -0.024218 0.374 -0.30569 -0.06641 -0.94981
-0.011731 -0.023526 0.374 -0.31545 -0.077627 -0.94576
-0.011731 -0.022834 0.374 -0.32408 -0.098895 -0.94085
-0.011731 -0.022142 0.374 -0.33395 -0.11411 -0.93566
-0.011731 -0.021451 0.374 -0.34287 -0.13128 -0.93017
-0.011762 -0.020814 0.375 -0.38137 -0.14286 -0.91332
-0.011762 -0.02012 0.375 -0.40664 -0.15969 -0.89953
-0.011793 -0.019478 0.376 -0.4328 -0.16412 -0.88642
-0.011793 -0.018783 0.376 -0.46227 -0.15867 -0.87243
-0.011793 -0.018087 0.376 -0.47493 -0.16689 -0.86405
-0.011825 -0.017438 0.377 -0.49092 -0.13444 -0.86077
-0.011825 -0.01674 0.377 -0.49683 -0.14012 -0.85646
-0.011825 -0.016043 0.377 -0.46796 -0.11998 -0.87557
-0.011856 -0.015386 0.378 -0.49961 -0.11466 -0.85863
-0.011887 -0.014725 0.379 -0.59847 -0.1242 -0.79146
-0.011887 -0.013323 0.379 -0.41334 -0.097069 -0.90539
-0.011887 -0.012622 0.379 -0.27989 -0.069595 -0.95751
-0.012546 -0.012581 0.4 -0.28373 -0.34474 -0.89479
-0.012546 -0.011841 0.4 -0.31315 -0.35854 -0.87942
-0.012546 -0.011101 0.4 -0.31988 -0.36332 -0.87503
-0.012577 -0.010387 0.401 -0.21927 -0.33803 -0.91524
-0.012577 -0.0096448 0.401 -0.25172 -0.3408 -0.90581
-0.012577 -0.0089029 0.401 -0.27426 -0.33716 -0.90061
-0.012577 -0.008161 0.401 -0.30768 -0.33929 -0.88894
-0.012609 -0.0074376 0.402 -0.32615 -0.33156 -0.88526
-0.012609 -0.0066938 0.402 -0.34705 -0.3261 -0.87933
-0.01264 -0.0059648 0.403 -0.36734 -0.31392 -0.87551
-0.01264 -0.0052192 0.403 -0.39137 -0.30163 -0.8694
-0.01264 -0.0044736 0.403 -0.40847 -0.29233 -0.86469
-0.012672 -0.0037373 0.404 -0.42691 -0.27525 -0.86139
-0.012672 -0.0029898 0.404 -0.43645 -0.26609 -0.85948
-0.012672 -0.0022424 0.404 -0.44128 -0.25757 -0.85961
-0.012703 -0.0014986 0.405 -0.45133 -0.25382 -0.8555
-0.012703 -0.00074931 0.405 -0.45959 -0.25043 -0.85209
-0.012703 0 0.405 -0.47981 -0.24377 -0.84283
-0.012734 0.00075116 0.406 -0.49883 -0.23467 -0.83433
-0.012734 0.0015023 0.406 -0.48715 -0.2553 -0.83517
-0.012766 0.002259 0.407 -0.53972 -0.24188 -0.80635
-0.012766 0.003012 0.407 -0.5122 -0.26738 -0.81618
-0.012766 0.003765 0.407 -0.42502 -0.29932 -0.85426
-0.012797 0.0045291 0.408 -0.52978 -0.28435 -0.79905
-0.01286 0.0060685 0.41 -0.67809 -0.24589 -0.69263
-0.01424 0.016799 0.454 0.19135 0.43272 -0.88099
-0.01424 0.017639 0.454 0.25115 0.41623 -0.87389
-0.01424 0.018479 0.454 0.28051 0.38754 -0.87814
-0.01424 0.019319 0.454 0.23684 0.37699 -0.89543
-0.01424 0.020159 0.454 0.27853 0.34957 -0.89455
-0.014208 0.020953 0.453 0.34461 0.4392 -0.82967
-0.014208 0.021791 0.453 0.27268 0.46357 -0.84306
-0.014177 0.022579 0.452 0.37394 0.5092 -0.77516
-0.014146 0.023364 0.451 0.46942 0.52498 -0.70996
-0.014114 0.024144 0.45 0.535 0.51246 -0.67169
-0.01402 0.031426 0.447 0.020324 0.64453 -0.76431
-0.01402 0.032253 0.447 -0.026377 0.65111 -0.75852
-0.011277 -0.061488 0.382 0.68348 -0.38986 -0.61715
-0.011218 -0.059759 0.38 0.6459 -0.34702 -0.67999
-0.011159 -0.057347 0.378 0.64636 -0.31531 -0.69484
-0.011129 -0.0558 0.377 0.5828 -0.37288 -0.72201
-0.01107 -0.053423 0.375 0.55188 -0.26257 -0.79151
-0.011041 -0.051896 0.374 0.50203 -0.2514 -0.82751
-0.011011 -0.050377 0.373 0.4381 -0.18483 -0.87972
-0.011011 -0.049687 0.373 0.38754 -0.29332 -0.87394
-0.011011 -0.048997 0.373 0.35577 -0.36378 -0.86087
-0.010982 -0.048178 0.372 0.23042 -0.19944 -0.95243
-0.010982 -0.047489 0.372 0.22302 -0.26011 -0.93947
-0.010982 -0.046801 0.372 0.23266 -0.3043 -0.92373
-0.010982 -0.046113 0.372 0.24418 -0.32821 -0.9125
-0.010982 -0.045425 0.372 0.24821 -0.33492 -0.90896
-0.010952 -0.044616 0.371 0.1604 -0.26573 -0.95061
-0.010952 -0.04393 0.371 0.17668 -0.27697 -0.9445
-0.010952 -0.043243 0.371 0.18061 -0.28556 -0.94119
-0.010952 -0.042557 0.371 0.15621 -0.29319 -0.94321
-0.010952 -0.04187 0.371 0.12924 -0.29313 -0.9473
-0.010952 -0.041184 0.371 0.099879 -0.29308 -0.95086
-0.010952 -0.040498 0.371 0.065647 -0.29287 -0.9539
-0.010952 -0.039811 0.371 0.047269 -0.29318 -0.95489
-0.010952 -0.039125 0.371 0.021961 -0.28816 -0.95733
-0.010952 -0.037752 0.371 -0.026736 -0.26894 -0.96279
-0.010952 -0.037066 0.371 -0.050123 -0.25573 -0.96545
-0.010952 -0.036379 0.371 -0.056097 -0.24475 -0.96796
-0.010952 -0.035693 0.371 -0.069108 -0.23245 -0.97015
-0.010952 -0.035006 0.371 -0.089163 -0.21878 -0.97169
-0.010952 -0.03432 0.371 -0.13727 -0.19189 -0.97177
-0.010952 -0.033634 0.371 -0.17008 -0.16493 -0.97153
-0.010952 -0.032947 0.371 -0.18785 -0.13816 -0.97243
-0.010952 -0.032261 0.371 -0.18396 -0.11054 -0.9767
-0.010952 -0.031574 0.371 -0.19344 -0.090571 -0.97692
-0.010982 -0.030971 0.372 -0.22462 -0.074667 -0.97158
-0.010982 -0.030283 0.372 -0.25772 -0.063674 -0.96412
-0.010982 -0.029595 0.372 -0.26868 -0.053124 -0.96176
-0.010982 -0.028907 0.372 -0.27951 -0.042616 -0.9592
-0.010982 -0.028218 0.372 -0.30802 -0.028547 -0.95095
-0.011011 -0.027604 0.373 -0.31047 -0.012521 -0.9505
-0.011011 -0.026914 0.373 -0.33686 -0.022545 -0.94129
-0.011011 -0.026224 0.373 -0.35354 -0.039174 -0.9346
-0.011011 -0.025534 0.373 -0.34274 -0.050367 -0.93808
-0.011041 -0.02491 0.374 -0.32313 -0.082684 -0.94274
-0.011041 -0.024218 0.374 -0.31901 -0.082657 -0.94414
-0.011041 -0.023526 0.374 -0.3272 -0.089564 -0.9407
-0.011041 -0.022834 0.374 -0.33957 -0.11161 -0.93394
-0.01107 -0.022202 0.375 -0.34753 -0.14808 -0.9259
-0.01107 -0.021508 0.375 -0.34918 -0.15296 -0.92449
-0.01107 -0.020814 0.375 -0.38559 -0.14816 -0.9107
-0.01107 -0.02012 0.375 -0.4126 -0.1528 -0.89801
-0.0111 -0.019478 0.376 -0.43285 -0.19113 -0.88097
-0.0111 -0.018783 0.376 -0.46539 -0.1672 -0.86917
-0.0111 -0.018087 0.376 -0.47948 -0.15512 -0.86373
-0.011129 -0.017438 0.377 -0.48687 -0.1571 -0.85923
-0.011129 -0.01674 0.377 -0.48505 -0.14209 -0.86286
-0.011129 -0.016043 0.377 -0.4359 -0.10399 -0.89397
-0.011159 -0.015386 0.378 -0.48 -0.12674 -0.86806
-0.011159 -0.014686 0.378 -0.38648 -0.093034 -0.91759
-0.011188 -0.014024 0.379 -0.49894 -0.1319 -0.85654
-0.011218 -0.013358 0.38 -0.61364 -0.16628 -0.77188
-0.011838 -0.013354 0.401 -0.014567 -0.31669 -0.94842
-0.011838 -0.012612 0.401 -0.084929 -0.32859 -0.94065
-0.011838 -0.01187 0.401 -0.1532 -0.34346 -0.92659
-0.011838 -0.011129 0.401 -0.20843 -0.34508 -0.91514
-0.011838 -0.010387 0.401 -0.24388 -0.3525 -0.90347
-0.011838 -0.0096448 0.401 -0.25765 -0.34896 -0.90102
-0.011838 -0.0089029 0.401 -0.27164 -0.33912 -0.90067
-0.011867 -0.0081813 0.402 -0.30558 -0.33738 -0.89039
-0.011867 -0.0074376 0.402 -0.32174 -0.33463 -0.88572
-0.011867 -0.0066938 0.402 -0.34394 -0.32241 -0.88191
-0.011897 -0.0059648 0.403 -0.36468 -0.31213 -0.87726
-0.011897 -0.0052192 0.403 -0.38358 -0.29924 -0.87368
-0.011926 -0.0044847 0.404 -0.39617 -0.28908 -0.87149
-0.011926 -0.0037373 0.404 -0.41643 -0.27238 -0.86741
-0.011926 -0.0029898 0.404 -0.4223 -0.26895 -0.86564
-0.011926 -0.0022424 0.404 -0.43291 -0.26398 -0.86192
-0.011956 -0.0014986 0.405 -0.44571 -0.25723 -0.85742
-0.011956 -0.00074931 0.405 -0.45442 -0.26006 -0.85198
-0.011985 0 0.406 -0.48627 -0.2521 -0.83665
-0.011985 0.00075116 0.406 -0.49624 -0.25102 -0.8311
-0.011985 0.0015023 0.406 -0.48528 -0.27313 -0.8306
-0.012015 0.002259 0.407 -0.53446 -0.2623 -0.80346
-0.012015 0.003012 0.407 -0.4889 -0.29589 -0.82063
-0.012044 0.0037743 0.408 -0.56128 -0.2777 -0.77964
-0.012103 0.0060685 0.41 -0.63533 -0.27708 -0.72082
-0.013373 0.015086 0.453 -0.017188 0.55257 -0.83329
-0.013373 0.0176 0.453 0.14422 0.54874 -0.82346
-0.013402 0.019319 0.454 0.2579 0.3477 -0.90144
-0.013373 0.020115 0.453 0.32408 0.47539 -0.81791
-0.013373 0.020953 0.453 0.32879 0.44769 -0.83155
-0.013343 0.021743 0.452 0.3727 0.52411 -0.76577
-0.013314 0.022529 0.451 0.45219 0.55293 -0.69985
-0.013284 0.023312 0.45 0.53148 0.55466 -0.64023
-0.013255 0.024091 0.449 0.56473 0.53131 -0.6315
-0.013255 0.024921 0.449 0.48322 0.62591 -0.61216
-0.013166 0.030531 0.446 0.090762 0.55627 -0.82603
-0.013166 0.031356 0.446 0.0083967 0.56724 -0.82351
-0.013166 0.032181 0.446 -0.040576 0.57623 -0.81628
-0.010627 -0.06252 0.384 0.74535 -0.41104 -0.52488
-0.010323 -0.048307 0.373 0.32178 -0.37194 -0.8707
-0.010295 -0.046113 0.372 0.22066 -0.32331 -0.92021
-0.010295 -0.045425 0.372 0.24046 -0.33656 -0.91044
-0.010295 -0.044736 0.372 0.23885 -0.33999 -0.90959
-0.010268 -0.04393 0.371 0.14927 -0.27174 -0.95072
-0.010268 -0.043243 0.371 0.16814 -0.2894 -0.94232
-0.010268 -0.042557 0.371 0.15417 -0.30223 -0.94068
-0.010268 -0.04187 0.371 0.13316 -0.30535 -0.94288
-0.010268 -0.041184 0.371 0.1096 -0.30627 -0.94561
-0.010268 -0.040498 0.371 0.07909 -0.30405 -0.94937
-0.010268 -0.039811 0.371 0.057357 -0.30658 -0.95011
-0.010268 -0.039125 0.371 0.027614 -0.30177 -0.95298
-0.010268 -0.037752 0.371 -0.020854 -0.28075 -0.95956
-0.010268 -0.037066 0.371 -0.039481 -0.27097 -0.96178
-0.010268 -0.036379 0.371 -0.041916 -0.26125 -0.96436
-0.010268 -0.035693 0.371 -0.052525 -0.25026 -0.96675
-0.010268 -0.035006 0.371 -0.071341 -0.23792 -0.96866
-0.010268 -0.03432 0.371 -0.11372 -0.21043 -0.97097
-0.010268 -0.033634 0.371 -0.14327 -0.1827 -0.97267
-0.010268 -0.032947 0.371 -0.16008 -0.15494 -0.97487
-0.010268 -0.032261 0.371 -0.16294 -0.1307 -0.97794
-0.010268 -0.031574 0.371 -0.17468 -0.1177 -0.97756
-0.010295 -0.030971 0.372 -0.21065 -0.10503 -0.9719
-0.010295 -0.030283 0.372 -0.24415 -0.090432 -0.96551
-0.010295 -0.029595 0.372 -0.2617 -0.081988 -0.96166
-0.010295 -0.028907 0.372 -0.27363 -0.075989 -0.95883
-0.010295 -0.028218 0.372 -0.30449 -0.05936 -0.95066
-0.010323 -0.027604 0.373 -0.31022 -0.042083 -0.94973
-0.010323 -0.026914 0.373 -0.3366 -0.051921 -0.94022
-0.010323 -0.026224 0.373 -0.3529 -0.064956 -0.9334
-0.010323 -0.025534 0.373 -0.33998 -0.07064 -0.93778
-0.010351 -0.02491 0.374 -0.34071 -0.11196 -0.93348
-0.010351 -0.024218 0.374 -0.32966 -0.097657 -0.93904
-0.010351 -0.023526 0.374 -0.33219 -0.092741 -0.93864
-0.010378 -0.022895 0.375 -0.36425 -0.16963 -0.91572
-0.010378 -0.022202 0.375 -0.36281 -0.1708 -0.91608
-0.010378 -0.021508 0.375 -0.35693 -0.15255 -0.92159
-0.010378 -0.020814 0.375 -0.39098 -0.12348 -0.91208
-0.010406 -0.020174 0.376 -0.41179 -0.22442 -0.88322
-0.010406 -0.019478 0.376 -0.43423 -0.19796 -0.87878
-0.010406 -0.018783 0.376 -0.46917 -0.14476 -0.87116
-0.010406 -0.018087 0.376 -0.48458 -0.10078 -0.86892
-0.010434 -0.017438 0.377 -0.48351 -0.15487 -0.86153
-0.010434 -0.01674 0.377 -0.47611 -0.10676 -0.87288
-0.010461 -0.016085 0.378 -0.50272 -0.18456 -0.84452
-0.010461 -0.015386 0.378 -0.45623 -0.1214 -0.88154
-0.010461 -0.014686 0.378 -0.35341 -0.071218 -0.93275
-0.010489 -0.014024 0.379 -0.46681 -0.14153 -0.87296
-0.010517 -0.013358 0.38 -0.58485 -0.19571 -0.78717
-0.011098 -0.013354 0.401 -0.11124 -0.35432 -0.92848
-0.011098 -0.012612 0.401 -0.16837 -0.35872 -0.91813
-0.011098 -0.01187 0.401 -0.22252 -0.37035 -0.90185
-0.011098 -0.011129 0.401 -0.2486 -0.37258 -0.89408
-0.011098 -0.010387 0.401 -0.2589 -0.37571 -0.88984
-0.011098 -0.0096448 0.401 -0.25522 -0.36692 -0.89456
-0.011125 -0.0089251 0.402 -0.26245 -0.35063 -0.89899
-0.011125 -0.0081813 0.402 -0.29995 -0.34749 -0.88842
-0.011125 -0.0074376 0.402 -0.32011 -0.34083 -0.88395
-0.011153 -0.0067105 0.403 -0.34078 -0.32812 -0.88102
-0.011153 -0.0059648 0.403 -0.36136 -0.31859 -0.87631
-0.011153 -0.0052192 0.403 -0.37532 -0.3064 -0.87479
-0.011181 -0.0044847 0.404 -0.38747 -0.30064 -0.87148
-0.011181 -0.0037373 0.404 -0.40862 -0.28476 -0.86715
-0.011181 -0.0029898 0.404 -0.41601 -0.28199 -0.86453
-0.011181 -0.0022424 0.404 -0.42825 -0.27678 -0.86023
-0.011208 -0.0014986 0.405 -0.43849 -0.27294 -0.85629
-0.011208 -0.00074931 0.405 -0.44685 -0.27672 -0.85074
-0.011236 0 0.406 -0.4793 -0.28144 -0.8313
-0.011236 0.00075116 0.406 -0.4846 -0.27981 -0.82877
-0.011236 0.0015023 0.406 -0.46844 -0.29401 -0.83314
-0.011264 0.002259 0.407 -0.51917 -0.29682 -0.80148
-0.011264 0.003012 0.407 -0.45502 -0.32746 -0.82809
-0.011292 0.0037743 0.408 -0.5237 -0.33763 -0.78214
-0.011347 0.0060685 0.41 -0.57446 -0.36295 -0.73367
-0.012509 0.015053 0.452 -0.10142 0.62352 -0.7752
-0.012537 0.016762 0.453 0.18026 0.58105 -0.79366
-0.012537 0.019277 0.453 0.2217 0.51038 -0.83088
-0.012509 0.02007 0.452 0.32961 0.58847 -0.73828
-0.012509 0.020907 0.452 0.37325 0.5514 -0.74609
-0.012482 0.021695 0.451 0.44551 0.56525 -0.69427
-0.012454 0.022479 0.45 0.51977 0.57636 -0.6306
-0.012426 0.02326 0.449 0.54695 0.55503 -0.62673
-0.012426 0.024091 0.449 0.48841 0.62326 -0.61075
-0.012399 0.024866 0.448 0.48662 0.58127 -0.65217
-0.012371 0.025637 0.447 0.47628 0.50928 -0.71679
-0.012371 0.026464 0.447 0.37705 0.60313 -0.7029
-0.012343 0.02723 0.446 0.34766 0.51101 -0.78613
-0.012343 0.030531 0.446 0.08171 0.62755 -0.77428
-0.012315 0.031286 0.445 -0.00014861 0.4585 -0.88869
-0.012315 0.032109 0.445 -0.034599 0.46838 -0.88285
-0.0096347 -0.046927 0.373 0.31115 -0.40482 -0.85983
-0.0096089 -0.046113 0.372 0.17756 -0.28747 -0.94119
-0.0096089 -0.045425 0.372 0.20725 -0.3167 -0.92561
-0.0096089 -0.044736 0.372 0.21468 -0.33105 -0.91887
-0.0096089 -0.044048 0.372 0.2206 -0.33185 -0.91717
-0.0096089 -0.04336 0.372 0.21159 -0.33023 -0.91988
-0.009583 -0.042557 0.371 0.14121 -0.29723 -0.94431
-0.009583 -0.04187 0.371 0.12944 -0.30529 -0.94342
-0.009583 -0.041184 0.371 0.11365 -0.30783 -0.94463
-0.009583 -0.040498 0.371 0.090402 -0.30583 -0.94778
-0.009583 -0.039811 0.371 0.073366 -0.30522 -0.94945
-0.009583 -0.039125 0.371 0.041402 -0.30163 -0.95253
-0.009583 -0.038438 0.371 0.010411 -0.2861 -0.95814
-0.009583 -0.037752 0.371 -0.0092848 -0.27546 -0.96127
-0.009583 -0.037066 0.371 -0.029095 -0.26461 -0.96392
-0.009583 -0.036379 0.371 -0.027991 -0.25704 -0.96599
-0.009583 -0.035693 0.371 -0.036231 -0.24826 -0.96802
-0.009583 -0.035006 0.371 -0.053858 -0.23819 -0.96973
-0.009583 -0.03432 0.371 -0.090463 -0.21206 -0.97306
-0.009583 -0.033634 0.371 -0.12229 -0.19114 -0.97392
-0.009583 -0.032947 0.371 -0.14245 -0.17023 -0.97505
-0.009583 -0.032261 0.371 -0.14984 -0.1506 -0.97717
-0.0096089 -0.03166 0.372 -0.16689 -0.13947 -0.97606
-0.0096089 -0.030971 0.372 -0.20437 -0.13276 -0.96985
-0.0096089 -0.030283 0.372 -0.23475 -0.11589 -0.96512
-0.0096089 -0.029595 0.372 -0.25561 -0.10957 -0.96055
-0.0096089 -0.028907 0.372 -0.26173 -0.10549 -0.95936
-0.0096347 -0.028294 0.373 -0.29768 -0.094584 -0.94997
-0.0096347 -0.027604 0.373 -0.30375 -0.076635 -0.94966
-0.0096347 -0.026914 0.373 -0.32608 -0.084122 -0.94159
-0.0096347 -0.026224 0.373 -0.34386 -0.083768 -0.93528
-0.0096347 -0.025534 0.373 -0.33016 -0.070622 -0.94128
-0.0096605 -0.02491 0.374 -0.35543 -0.13896 -0.92432
-0.0096605 -0.024218 0.374 -0.3412 -0.11083 -0.93343
-0.0096605 -0.023526 0.374 -0.33743 -0.08492 -0.93751
-0.0096863 -0.022895 0.375 -0.37759 -0.21346 -0.90103
-0.0096863 -0.022202 0.375 -0.37801 -0.18373 -0.90739
-0.0096863 -0.021508 0.375 -0.36567 -0.1267 -0.92208
-0.0096863 -0.020814 0.375 -0.39389 -0.069617 -0.91652
-0.0097122 -0.020174 0.376 -0.41053 -0.23225 -0.88177
-0.0097122 -0.019478 0.376 -0.43722 -0.17345 -0.88247
-0.009738 -0.018833 0.377 -0.43881 -0.2996 -0.84716
-0.009738 -0.018135 0.377 -0.47384 -0.21922 -0.85289
-0.009738 -0.017438 0.377 -0.47907 -0.1236 -0.86903
-0.0097638 -0.016784 0.378 -0.50325 -0.24616 -0.82834
-0.0097638 -0.016085 0.378 -0.48561 -0.16845 -0.85779
-0.0097638 -0.015386 0.378 -0.44083 -0.076359 -0.89434
-0.0097897 -0.014725 0.379 -0.53149 -0.18257 -0.82715
-0.0097897 -0.014024 0.379 -0.44536 -0.13291 -0.88543
-0.010358 -0.013354 0.401 -0.19607 -0.37749 -0.90502
-0.010358 -0.012612 0.401 -0.25104 -0.37632 -0.89183
-0.010358 -0.01187 0.401 -0.29165 -0.3794 -0.87806
-0.010358 -0.011129 0.401 -0.29159 -0.38094 -0.87742
-0.010384 -0.010413 0.402 -0.21349 -0.36892 -0.90461
-0.010384 -0.0096688 0.402 -0.24237 -0.35877 -0.90141
-0.010384 -0.0089251 0.402 -0.26292 -0.3549 -0.89717
-0.010384 -0.0081813 0.402 -0.29925 -0.34586 -0.88929
-0.010384 -0.0074376 0.402 -0.32252 -0.33539 -0.88515
-0.01041 -0.0067105 0.403 -0.34057 -0.32298 -0.883
-0.01041 -0.0059648 0.403 -0.35863 -0.31378 -0.87916
-0.01041 -0.0052192 0.403 -0.36945 -0.30718 -0.87701
-0.010435 -0.0044847 0.404 -0.38418 -0.30109 -0.87279
-0.010435 -0.0037373 0.404 -0.40771 -0.29178 -0.86523
-0.010435 -0.0029898 0.404 -0.4142 -0.28999 -0.86275
-0.010461 -0.0022479 0.405 -0.42819 -0.28813 -0.85652
-0.010461 -0.0014986 0.405 -0.43657 -0.29275 -0.85071
-0.010461 -0.00074931 0.405 -0.44064 -0.2895 -0.84972
-0.010487 0 0.406 -0.47515 -0.30075 -0.82691
-0.010487 0.00075116 0.406 -0.46998 -0.30274 -0.82914
-0.010513 0.001506 0.407 -0.5133 -0.31551 -0.79811
-0.010513 0.002259 0.407 -0.49711 -0.32442 -0.80476
-0.010539 0.0030194 0.408 -0.55236 -0.33802 -0.762
-0.010565 0.0037835 0.409 -0.61293 -0.32114 -0.72194
-0.010539 0.0045291 0.408 -0.34784 -0.43331 -0.83141
-0.01059 0.0053099 0.41 -0.61107 -0.3541 -0.70796
-0.010616 0.0060833 0.411 -0.66859 -0.34631 -0.65807
-0.011675 0.015053 0.452 0.022414 0.64229 -0.76613
-0.011675 0.015889 0.452 0.065709 0.64067 -0.765
-0.011675 0.016725 0.452 0.1256 0.63993 -0.7581
-0.011675 0.019234 0.452 0.24652 0.59843 -0.7623
-0.011675 0.02007 0.452 0.3512 0.57773 -0.73681
-0.011649 0.02086 0.451 0.42654 0.57889 -0.69495
-0.011624 0.021647 0.45 0.50465 0.57879 -0.64057
-0.011598 0.022429 0.449 0.53533 0.56867 -0.62453
-0.011572 0.023208 0.448 0.54077 0.50422 -0.6733
-0.011572 0.024037 0.448 0.5086 0.5778 -0.63834
-0.011546 0.02481 0.447 0.48867 0.51217 -0.70632
-0.01152 0.02558 0.446 0.49155 0.43794 -0.75272
-0.01152 0.026405 0.446 0.39835 0.54266 -0.73948
-0.011494 0.027169 0.445 0.3506 0.45336 -0.81947
-0.011494 0.027993 0.445 0.26881 0.50439 -0.82056
-0.011494 0.029639 0.445 0.1437 0.53973 -0.82948
-0.011494 0.030463 0.445 0.081749 0.54124 -0.83688
-0.011469 0.031216 0.444 0.0063939 0.35291 -0.93564
-0.011469 0.032037 0.444 -0.0052816 0.36902 -0.92941
-0.0091624 -0.060074 0.382 0.65613 -0.4523 -0.60408
-0.0091384 -0.059212 0.381 0.64883 -0.41086 -0.64048
-0.0091144 -0.058353 0.38 0.66784 -0.34884 -0.65749
-0.0089465 -0.046237 0.373 0.29629 -0.40734 -0.86388
-0.0089225 -0.045425 0.372 0.15387 -0.28775 -0.94527
-0.0089225 -0.044736 0.372 0.17076 -0.31013 -0.93523
-0.0089225 -0.044048 0.372 0.1885 -0.32124 -0.92805
-0.0089225 -0.04336 0.372 0.19216 -0.33244 -0.92334
-0.0089225 -0.042672 0.372 0.16373 -0.33874 -0.92653
-0.0088985 -0.04187 0.371 0.11147 -0.31463 -0.94265
-0.0088985 -0.041184 0.371 0.10512 -0.32457 -0.94
-0.0088985 -0.040498 0.371 0.081243 -0.32076 -0.94367
-0.0088985 -0.039811 0.371 0.07867 -0.31949 -0.94432
-0.0089225 -0.03923 0.372 0.051512 -0.30593 -0.95066
-0.0088985 -0.038438 0.371 0.029985 -0.29442 -0.9552
-0.0088985 -0.037752 0.371 0.017357 -0.28501 -0.95837
-0.0088985 -0.037066 0.371 0.0023213 -0.27547 -0.96131
-0.0088985 -0.035693 0.371 -0.0069941 -0.26039 -0.96548
-0.0088985 -0.035006 0.371 -0.031515 -0.25375 -0.96676
-0.0088985 -0.03432 0.371 -0.070293 -0.23133 -0.97033
-0.0088985 -0.033634 0.371 -0.10671 -0.21283 -0.97124
-0.0088985 -0.032947 0.371 -0.13376 -0.19423 -0.97179
-0.0089225 -0.032348 0.372 -0.14297 -0.17997 -0.97323
-0.0089225 -0.03166 0.372 -0.16374 -0.17261 -0.97129
-0.0089225 -0.030971 0.372 -0.19907 -0.16021 -0.9668
-0.0089225 -0.030283 0.372 -0.22717 -0.14795 -0.96255
-0.0089225 -0.029595 0.372 -0.24256 -0.14046 -0.95991
-0.0089225 -0.028907 0.372 -0.24932 -0.12632 -0.96015
-0.0089225 -0.028218 0.372 -0.26565 -0.097599 -0.95912
-0.0089465 -0.027604 0.373 -0.29665 -0.10283 -0.94943
-0.0089465 -0.026914 0.373 -0.31556 -0.099449 -0.94368
-0.0089465 -0.026224 0.373 -0.33005 -0.082339 -0.94037
-0.0089465 -0.025534 0.373 -0.30935 -0.04487 -0.94989
-0.0089705 -0.02491 0.374 -0.3595 -0.14438 -0.92191
-0.0089705 -0.024218 0.374 -0.33805 -0.098397 -0.93597
-0.0089705 -0.023526 0.374 -0.33411 -0.056049 -0.94087
-0.0089945 -0.022895 0.375 -0.38508 -0.22922 -0.89396
-0.0089945 -0.022202 0.375 -0.38438 -0.16839 -0.90769
-0.0089945 -0.021508 0.375 -0.36496 -0.09145 -0.92652
-0.0090185 -0.02087 0.376 -0.39425 -0.28777 -0.87278
-0.0090185 -0.020174 0.376 -0.40431 -0.22566 -0.88635
-0.0090185 -0.019478 0.376 -0.43764 -0.13359 -0.88917
-0.0090424 -0.018833 0.377 -0.43329 -0.31034 -0.84614
-0.0090424 -0.018135 0.377 -0.47474 -0.20259 -0.85649
-0.0090424 -0.017438 0.377 -0.47785 -0.083802 -0.87443
-0.0090664 -0.016784 0.378 -0.49579 -0.24597 -0.83288
-0.0090664 -0.016085 0.378 -0.47707 -0.14612 -0.86663
-0.0090904 -0.015426 0.379 -0.52885 -0.28093 -0.80087
-0.0090904 -0.014725 0.379 -0.5169 -0.18279 -0.8363
-0.0096181 -0.014096 0.401 -0.26312 -0.41251 -0.87213
-0.0096181 -0.013354 0.401 -0.29942 -0.40259 -0.86503
-0.0096181 -0.012612 0.401 -0.33143 -0.39909 -0.85491
-0.0096181 -0.01187 0.401 -0.34428 -0.39802 -0.85033
-0.0096421 -0.011156 0.402 -0.1917 -0.39718 -0.89749
-0.0096421 -0.010413 0.402 -0.22229 -0.38736 -0.89473
-0.0096421 -0.0096688 0.402 -0.233 -0.37715 -0.89636
-0.0096421 -0.0089251 0.402 -0.24726 -0.37185 -0.89476
-0.0096661 -0.0082017 0.403 -0.28942 -0.3556 -0.8887
-0.0096661 -0.0074561 0.403 -0.31407 -0.34168 -0.88579
-0.0096661 -0.0067105 0.403 -0.33513 -0.32538 -0.8842
-0.0096661 -0.0059648 0.403 -0.35519 -0.32112 -0.87791
-0.00969 -0.0052322 0.404 -0.36826 -0.31402 -0.87509
-0.00969 -0.0044847 0.404 -0.38238 -0.30275 -0.873
-0.00969 -0.0037373 0.404 -0.40395 -0.29391 -0.86628
-0.00969 -0.0029898 0.404 -0.40575 -0.28592 -0.86811
-0.009714 -0.0022479 0.405 -0.42359 -0.30387 -0.85337
-0.009714 -0.0014986 0.405 -0.42811 -0.29914 -0.85278
-0.009738 -0.00075116 0.406 -0.44851 -0.31515 -0.83637
-0.009738 0 0.406 -0.47088 -0.303 -0.82853
-0.009738 0.00075116 0.406 -0.45729 -0.2872 -0.84166
-0.009762 0.001506 0.407 -0.4999 -0.32513 -0.80274
-0.009762 0.002259 0.407 -0.48502 -0.29392 -0.82363
-0.009786 0.0030194 0.408 -0.52756 -0.35288 -0.77276
-0.00981 0.0037835 0.409 -0.57018 -0.36442 -0.73627
-0.00981 0.0045402 0.409 -0.48602 -0.39919 -0.77745
-0.0098339 0.0053099 0.41 -0.54944 -0.39843 -0.73441
-0.0098819 0.0068603 0.412 -0.63739 -0.43796 -0.63397
-0.010841 0.015053 0.452 0.14919 0.64706 -0.7477
-0.010817 0.019191 0.451 0.29753 0.62007 -0.72594
-0.010817 0.020026 0.451 0.39446 0.59786 -0.69783
-0.010793 0.020814 0.45 0.46018 0.58311 -0.66949
-0.010793 0.021647 0.45 0.48674 0.57114 -0.66097
-0.010745 0.022379 0.448 0.52442 0.51965 -0.6745
-0.010721 0.023156 0.447 0.51722 0.44561 -0.7307
-0.010721 0.023983 0.447 0.50307 0.50638 -0.70036
-0.010697 0.024755 0.446 0.48987 0.43661 -0.75458
-0.010697 0.02558 0.446 0.43836 0.51344 -0.73771
-0.010673 0.026346 0.445 0.41298 0.45953 -0.78631
-0.010673 0.027169 0.445 0.33398 0.53304 -0.77738
-0.010649 0.02793 0.444 0.24625 0.43642 -0.86539
-0.010649 0.028751 0.444 0.19014 0.45906 -0.86782
-0.010649 0.030394 0.444 0.084754 0.45793 -0.88494
-0.010649 0.031216 0.444 0.0018335 0.44849 -0.89378
-0.010649 0.032037 0.444 -0.030297 0.46243 -0.88614
-0.0084797 -0.060231 0.383 0.6711 -0.5051 -0.54268
-0.0084576 -0.059367 0.382 0.6558 -0.48384 -0.57951
-0.0084133 -0.056947 0.38 0.57782 -0.50949 -0.63761
-0.0083469 -0.05301 0.377 0.49505 -0.52624 -0.69137
-0.0082804 -0.049129 0.374 0.30179 -0.42396 -0.85392
-0.0082583 -0.046237 0.373 0.25462 -0.40126 -0.87986
-0.0082583 -0.045547 0.373 0.28229 -0.42394 -0.86057
-0.0082583 -0.044857 0.373 0.29363 -0.43497 -0.85122
-0.0082362 -0.044048 0.372 0.15449 -0.34998 -0.92393
-0.0082362 -0.04336 0.372 0.17872 -0.35987 -0.91573
-0.0082362 -0.042672 0.372 0.16824 -0.36548 -0.91549
-0.0082362 -0.041983 0.372 0.135 -0.35816 -0.92385
-0.0082362 -0.041295 0.372 0.10729 -0.34986 -0.93064
-0.008214 -0.040498 0.371 0.063212 -0.32771 -0.94266
-0.0082362 -0.039919 0.372 0.075212 -0.3365 -0.93867
-0.0082362 -0.03923 0.372 0.051199 -0.32336 -0.94489
-0.0082362 -0.038542 0.372 0.035461 -0.31028 -0.94998
-0.0082362 -0.037854 0.372 0.027575 -0.29791 -0.9542
-0.0082362 -0.037166 0.372 0.016154 -0.28537 -0.95828
-0.0082362 -0.036477 0.372 0.016154 -0.28537 -0.95828
-0.0082362 -0.035789 0.372 0.010403 -0.2801 -0.95992
-0.0082362 -0.035101 0.372 -0.013879 -0.27796 -0.96049
-0.0082362 -0.034413 0.372 -0.047592 -0.26161 -0.964
-0.0082362 -0.033724 0.372 -0.081366 -0.24806 -0.96532
-0.0082362 -0.033036 0.372 -0.10819 -0.23434 -0.96612
-0.0082362 -0.032348 0.372 -0.12001 -0.22193 -0.96765
-0.0082362 -0.03166 0.372 -0.14541 -0.21345 -0.96607
-0.0082362 -0.030971 0.372 -0.18665 -0.19538 -0.9628
-0.0082362 -0.030283 0.372 -0.2117 -0.17881 -0.96084
-0.0082362 -0.029595 0.372 -0.22465 -0.164 -0.96054
-0.0082362 -0.028907 0.372 -0.22849 -0.13956 -0.96349
-0.0082583 -0.028294 0.373 -0.28426 -0.15236 -0.94656
-0.0082583 -0.027604 0.373 -0.28856 -0.12172 -0.94969
-0.0082583 -0.026914 0.373 -0.3012 -0.10505 -0.94776
-0.0082583 -0.026224 0.373 -0.30977 -0.067292 -0.94843
-0.0082804 -0.025602 0.374 -0.38646 -0.17628 -0.9053
-0.0082804 -0.02491 0.374 -0.35659 -0.13392 -0.92461
-0.0082804 -0.024218 0.374 -0.3282 -0.068762 -0.9421
-0.0083026 -0.023589 0.375 -0.39785 -0.27088 -0.87655
-0.0083026 -0.022895 0.375 -0.39517 -0.21007 -0.89427
-0.0083247 -0.021565 0.376 -0.38267 -0.33287 -0.86184
-0.0083247 -0.02087 0.376 -0.39665 -0.2577 -0.88105
-0.0083247 -0.020174 0.376 -0.40783 -0.16904 -0.89727
-0.0083469 -0.01953 0.377 -0.39066 -0.37704 -0.83978
-0.0083469 -0.018833 0.377 -0.43079 -0.27811 -0.85853
-0.0083469 -0.018135 0.377 -0.46623 -0.16571 -0.86901
-0.0083469 -0.017438 0.377 -0.46542 -0.040182 -0.88418
-0.008369 -0.016784 0.378 -0.48092 -0.22578 -0.8472
-0.0083911 -0.016128 0.379 -0.48559 -0.38633 -0.78419
-0.0083911 -0.015426 0.379 -0.50187 -0.28639 -0.81616
-0.0084133 -0.014764 0.38 -0.55954 -0.38042 -0.73634
-0.0088782 -0.014838 0.401 -0.30608 -0.44238 -0.84298
-0.0088782 -0.014096 0.401 -0.35268 -0.42664 -0.83282
-0.0089004 -0.013388 0.402 -0.090227 -0.43583 -0.89549
-0.0089004 -0.012644 0.402 -0.14169 -0.42967 -0.8918
-0.0089004 -0.0119 0.402 -0.19141 -0.42071 -0.88678
-0.0089004 -0.011156 0.402 -0.21553 -0.41445 -0.88418
-0.0089004 -0.010413 0.402 -0.21962 -0.40691 -0.88667
-0.0089004 -0.0096688 0.402 -0.22151 -0.39015 -0.89371
-0.0089225 -0.0089473 0.403 -0.24091 -0.38261 -0.89195
-0.0089225 -0.0082017 0.403 -0.28458 -0.36628 -0.88592
-0.0089225 -0.0074561 0.403 -0.31134 -0.34966 -0.88363
-0.0089225 -0.0067105 0.403 -0.33426 -0.33919 -0.87933
-0.0089225 -0.0059648 0.403 -0.35242 -0.33595 -0.87346
-0.0089446 -0.0052322 0.404 -0.36311 -0.32477 -0.87331
-0.0089446 -0.0044847 0.404 -0.36913 -0.31291 -0.87512
-0.0089446 -0.0037373 0.404 -0.38534 -0.30051 -0.87247
-0.0089668 -0.0029972 0.405 -0.40907 -0.31312 -0.8571
-0.0089668 -0.0022479 0.405 -0.41128 -0.30438 -0.85919
-0.0089668 -0.0014986 0.405 -0.41071 -0.28411 -0.86637
-0.0089889 -0.00075116 0.406 -0.44306 -0.31485 -0.83938
-0.0089889 0 0.406 -0.46131 -0.27869 -0.84233
-0.0090111 0.00075301 0.407 -0.49945 -0.33452 -0.79915
-0.0090111 0.001506 0.407 -0.49536 -0.28923 -0.81913
-0.0090332 0.0022646 0.408 -0.55223 -0.32969 -0.76573
-0.0090554 0.0030268 0.409 -0.58039 -0.37222 -0.7243
-0.0090554 0.0037835 0.409 -0.54044 -0.35544 -0.76261
-0.0090775 0.0045513 0.41 -0.5899 -0.37823 -0.71341
-0.0090775 0.0053099 0.41 -0.49531 -0.39774 -0.77232
-0.009941 0.015784 0.449 -0.19458 0.45743 -0.8677
-0.0099631 0.019149 0.45 0.30366 0.60085 -0.73944
-0.0099631 0.019981 0.45 0.40359 0.58034 -0.70733
-0.009941 0.020768 0.449 0.48191 0.56488 -0.66983
-0.0099188 0.02155 0.448 0.50905 0.52913 -0.67889
-0.0098967 0.022329 0.447 0.50033 0.47343 -0.72493
-0.0098967 0.023156 0.447 0.51239 0.50524 -0.6944
-0.0098745 0.02393 0.446 0.49313 0.45041 -0.74428
-0.0098524 0.024699 0.445 0.46467 0.37139 -0.80384
-0.0098524 0.025523 0.445 0.43875 0.43342 -0.78718
-0.0098524 0.026346 0.445 0.37348 0.51254 -0.77318
-0.0098303 0.027108 0.444 0.32813 0.46832 -0.82037
-0.0098303 0.02793 0.444 0.25813 0.51135 -0.81969
-0.0098303 0.028751 0.444 0.2008 0.51995 -0.83026
-0.0098081 0.031145 0.443 0.003211 0.40889 -0.91258
-0.0098081 0.031965 0.443 0.0041506 0.41948 -0.90776
-0.009072 -0.074431 0.447 0.61146 0.60977 -0.50428
-0.0075701 -0.045547 0.373 0.22539 -0.43 -0.87424
-0.0075701 -0.044857 0.373 0.25094 -0.44588 -0.8592
-0.0075701 -0.044167 0.373 0.27743 -0.4472 -0.85032
-0.0075701 -0.043476 0.373 0.27477 -0.44145 -0.85418
-0.0075498 -0.042672 0.372 0.17806 -0.40203 -0.89815
-0.0075498 -0.041983 0.372 0.16328 -0.39888 -0.90235
-0.0075498 -0.041295 0.372 0.13242 -0.38856 -0.91186
-0.0075498 -0.040607 0.372 0.10478 -0.38129 -0.9185
-0.0075498 -0.039919 0.372 0.090417 -0.36854 -0.9252
-0.0075498 -0.03923 0.372 0.061801 -0.35409 -0.93317
-0.0075498 -0.038542 0.372 0.045216 -0.34156 -0.93877
-0.0075498 -0.037854 0.372 0.035243 -0.32764 -0.94414
-0.0075498 -0.037166 0.372 0.020577 -0.3135 -0.94937
-0.0075498 -0.036477 0.372 0.01604 -0.30734 -0.95147
-0.0075498 -0.035789 0.372 0.011478 -0.30217 -0.95319
-0.0075498 -0.035101 0.372 -0.011489 -0.29904 -0.95417
-0.0075498 -0.034413 0.372 -0.038068 -0.28415 -0.95803
-0.0075498 -0.033724 0.372 -0.065912 -0.27099 -0.96032
-0.0075498 -0.033036 0.372 -0.088056 -0.25766 -0.96222
-0.0075498 -0.032348 0.372 -0.10321 -0.24864 -0.96308
-0.0075498 -0.03166 0.372 -0.13315 -0.24016 -0.96156
-0.0075498 -0.030971 0.372 -0.17325 -0.22345 -0.9592
-0.0075498 -0.030283 0.372 -0.19472 -0.20422 -0.95936
-0.0075498 -0.029595 0.372 -0.20401 -0.18352 -0.96161
-0.0075498 -0.028907 0.372 -0.20322 -0.15035 -0.96752
-0.0075701 -0.028294 0.373 -0.27576 -0.17495 -0.94517
-0.0075701 -0.027604 0.373 -0.27816 -0.14169 -0.95003
-0.0075701 -0.026914 0.373 -0.28279 -0.1125 -0.95256
-0.0075701 -0.026224 0.373 -0.28406 -0.055494 -0.9572
-0.0075904 -0.025602 0.374 -0.38507 -0.18333 -0.90449
-0.0075904 -0.02491 0.374 -0.35016 -0.11915 -0.92908
-0.0075904 -0.024218 0.374 -0.32425 -0.033224 -0.94539
-0.0076107 -0.023589 0.375 -0.40604 -0.25033 -0.8789
-0.0076107 -0.022895 0.375 -0.4024 -0.16769 -0.89998
-0.007631 -0.020174 0.376 -0.40551 -0.099327 -0.90868
-0.0076513 -0.01953 0.377 -0.39755 -0.31734 -0.86096
-0.0076716 -0.016784 0.378 -0.47825 -0.17578 -0.86046
-0.0076919 -0.016128 0.379 -0.48451 -0.3462 -0.80336
-0.0081587 -0.014131 0.402 -0.16987 -0.4385 -0.88253
-0.0081587 -0.013388 0.402 -0.19928 -0.43723 -0.87699
-0.0081587 -0.012644 0.402 -0.23278 -0.43152 -0.87155
-0.0081587 -0.0119 0.402 -0.25469 -0.4212 -0.87047
-0.008179 -0.011184 0.403 -0.13744 -0.42369 -0.89532
-0.008179 -0.010438 0.403 -0.17901 -0.41254 -0.89318
-0.008179 -0.0096929 0.403 -0.20229 -0.40244 -0.89282
-0.008179 -0.0089473 0.403 -0.22619 -0.39892 -0.88865
-0.008179 -0.0082017 0.403 -0.27316 -0.38664 -0.88085
-0.008179 -0.0074561 0.403 -0.29812 -0.37794 -0.87652
-0.0081993 -0.0067271 0.404 -0.32332 -0.37713 -0.86789
-0.0081993 -0.0059796 0.404 -0.34214 -0.37079 -0.8634
-0.0081993 -0.0052322 0.404 -0.34783 -0.35662 -0.86708
-0.0082196 -0.0044958 0.405 -0.37503 -0.36429 -0.85244
-0.0082196 -0.0037465 0.405 -0.3925 -0.35287 -0.84937
-0.0082196 -0.0029972 0.405 -0.39446 -0.33707 -0.85486
-0.0082196 -0.0022479 0.405 -0.38908 -0.31561 -0.86545
-0.0082399 -0.0015023 0.406 -0.41303 -0.35274 -0.83963
-0.0082399 -0.00075116 0.406 -0.42259 -0.3138 -0.85026
-0.0082601 0 0.407 -0.48517 -0.37801 -0.78849
-0.0082601 0.00075301 0.407 -0.48871 -0.33191 -0.80685
-0.0082804 0.0015097 0.408 -0.53181 -0.38587 -0.75384
-0.0082804 0.0022646 0.408 -0.54948 -0.3029 -0.77867
-0.0083007 0.0030268 0.409 -0.55878 -0.37405 -0.74017
-0.008321 0.0037928 0.41 -0.58378 -0.41631 -0.69706
-0.0083413 0.0045624 0.411 -0.62836 -0.45542 -0.63068
-0.008321 0.0053099 0.41 -0.44901 -0.36742 -0.81449
-0.0083616 0.0060981 0.412 -0.62854 -0.42162 -0.65359
-0.0084428 0.0076966 0.416 -0.75873 -0.53059 -0.37789
-0.0091125 0.014953 0.449 -0.18377 0.50172 -0.84528
-0.0091328 0.019149 0.45 0.32561 0.55986 -0.76193
-0.0091125 0.019937 0.449 0.41872 0.54917 -0.72325
-0.0090923 0.020722 0.448 0.47152 0.51461 -0.71613
-0.009072 0.021502 0.447 0.48444 0.46581 -0.7405
-0.009072 0.022329 0.447 0.51813 0.49034 -0.70079
