0.01103 -0.060831 0.427 0.41079 -0.076037 -0.90856
0.01103 -0.060041 0.427 0.38623 -0.088367 -0.91816
0.011004 -0.059112 0.426 0.36551 -0.084563 -0.92696
0.011004 -0.058324 0.426 0.35322 -0.096599 -0.93054
0.011004 -0.057536 0.426 0.31887 -0.10665 -0.94178
0.011004 -0.056747 0.426 0.29354 -0.11052 -0.94954
0.010978 -0.055828 0.425 0.26122 -0.12673 -0.95693
0.010978 -0.055042 0.425 0.22399 -0.12895 -0.96602
0.010978 -0.054255 0.425 0.20231 -0.13858 -0.96947
0.010978 -0.053469 0.425 0.16731 -0.15354 -0.97388
0.010978 -0.052683 0.425 0.14327 -0.15212 -0.97792
0.010952 -0.051774 0.424 0.12023 -0.15193 -0.98105
0.010952 -0.05099 0.424 0.093592 -0.14933 -0.98435
0.010952 -0.050205 0.424 0.078049 -0.15359 -0.98505
0.010952 -0.049421 0.424 0.065651 -0.15068 -0.9864
0.010952 -0.048636 0.424 0.053227 -0.14571 -0.98789
0.010952 -0.047852 0.424 0.047048 -0.13554 -0.98965
0.010952 -0.047068 0.424 0.03664 -0.12945 -0.99091
0.010952 -0.046283 0.424 0.017813 -0.12643 -0.99182
0.010952 -0.045499 0.424 0.0031447 -0.12439 -0.99223
0.010952 -0.044714 0.424 -0.017817 -0.12438 -0.99208
0.010952 -0.04393 0.424 -0.042892 -0.13249 -0.99026
0.010952 -0.043145 0.424 -0.062614 -0.14257 -0.9878
0.010952 -0.042361 0.424 -0.091383 -0.15948 -0.98296
0.010952 -0.041576 0.424 -0.1259 -0.1729 -0.97686
0.010952 -0.040792 0.424 -0.17268 -0.18646 -0.96717
0.010952 -0.040007 0.424 -0.2121 -0.20245 -0.95605
0.010978 -0.039315 0.425 -0.24069 -0.22713 -0.94365
0.010978 -0.038529 0.425 -0.26771 -0.25034 -0.93041
0.010978 -0.037743 0.425 -0.30066 -0.26126 -0.91725
0.010978 -0.036957 0.425 -0.32126 -0.27174 -0.90717
0.011004 -0.036255 0.426 -0.3283 -0.27914 -0.90239
0.011004 -0.035467 0.426 -0.32873 -0.27476 -0.90357
0.011004 -0.034679 0.426 -0.29976 -0.26433 -0.91666
0.01103 -0.03397 0.427 -0.24691 -0.24427 -0.93775
0.01103 -0.03318 0.427 -0.15793 -0.23573 -0.9589
0.01103 -0.03239 0.427 -0.056251 -0.2152 -0.97495
0.01103 -0.0316 0.427 0.081032 -0.19332 -0.97778
0.01103 -0.03081 0.427 0.20163 -0.16268 -0.96586
0.01103 -0.03002 0.427 0.29335 -0.12396 -0.94793
0.011004 -0.029162 0.426 0.37395 -0.10627 -0.92134
0.011004 -0.028374 0.426 0.41511 -0.0883 -0.90547
0.010978 -0.027521 0.425 0.42916 -0.065332 -0.90086
0.010978 -0.026735 0.425 0.40423 -0.051829 -0.91319
0.010978 -0.025948 0.425 0.37374 -0.055469 -0.92587
0.010952 -0.025103 0.424 0.32835 -0.071443 -0.94185
0.010952 -0.024318 0.424 0.28845 -0.073422 -0.95468
0.010952 -0.023534 0.424 0.24385 -0.088519 -0.96577
0.010952 -0.022749 0.424 0.21652 -0.098238 -0.97132
0.010952 -0.021965 0.424 0.17471 -0.10928 -0.97854
0.010952 -0.02118 0.424 0.11965 -0.12554 -0.98485
0.010926 -0.020348 0.423 0.085722 -0.13448 -0.9872
0.010926 -0.019565 0.423 0.045006 -0.14508 -0.9884
0.010926 -0.018783 0.423 -0.0041744 -0.16963 -0.9855
0.010926 -0.018 0.423 -0.073704 -0.18323 -0.9803
0.010926 -0.017217 0.423 -0.1349 -0.18999 -0.97247
0.010952 -0.016474 0.424 -0.18221 -0.19592 -0.96354
0.010952 -0.015689 0.424 -0.22868 -0.1959 -0.95359
0.010952 -0.014905 0.424 -0.26442 -0.19503 -0.94448
0.010952 -0.01412 0.424 -0.30023 -0.20418 -0.93176
0.010978 -0.013367 0.425 -0.33698 -0.20569 -0.91877
0.010978 -0.012581 0.425 -0.36719 -0.20502 -0.90727
0.010978 -0.011795 0.425 -0.39648 -0.20146 -0.89567
0.010978 -0.011008 0.425 -0.41817 -0.19311 -0.8876
0.011004 -0.010246 0.426 -0.44488 -0.18646 -0.87597
0.011004 -0.0094579 0.426 -0.46821 -0.18223 -0.86462
0.01103 -0.0086901 0.427 -0.4827 -0.18107 -0.85687
0.01103 -0.0079001 0.427 -0.49016 -0.17336 -0.85422
0.011055 -0.0071267 0.428 -0.4953 -0.15781 -0.85427
0.011055 -0.0063349 0.428 -0.48995 -0.15749 -0.85741
0.011081 -0.005556 0.429 -0.4891 -0.13897 -0.86108
0.011081 -0.0047623 0.429 -0.47821 -0.12669 -0.86906
0.011107 -0.0039778 0.43 -0.47166 -0.11623 -0.87409
0.011107 -0.0031822 0.43 -0.47072 -0.10735 -0.87573
0.011107 -0.0023867 0.43 -0.4947 -0.098666 -0.86344
0.011133 -0.0015948 0.431 -0.5428 -0.08401 -0.83565
0.011133 -0.00079741 0.431 -0.56074 -0.077607 -0.82434
0.011133 0 0.431 -0.51332 -0.066099 -0.85565
0.011159 0.00079926 0.432 -0.57408 -0.051637 -0.81717
0.011185 0.0016022 0.433 -0.66874 -0.04678 -0.74202
0.01121 0.0024089 0.434 -0.73279 -0.023727 -0.68004
0.011236 0.0032192 0.435 -0.74663 -0.029346 -0.66459
0.011288 0.0040426 0.437 -0.67051 -0.011779 -0.74181
0.011288 0.0048511 0.437 -0.68504 -0.023785 -0.72812
0.011314 0.0056725 0.438 -0.65264 -0.031993 -0.75699
0.011339 0.0064977 0.439 -0.63446 -0.033838 -0.77221
0.011339 0.0073099 0.439 -0.62166 -0.03421 -0.78254
0.011339 0.0081221 0.439 -0.51285 -0.029083 -0.85799
0.011365 0.0089547 0.44 -0.5601 -0.023618 -0.82809
0.011417 0.0098131 0.442 -0.73228 -0.046742 -0.6794
0.011417 0.010631 0.442 -0.72069 -0.047208 -0.69165
0.011469 0.0115 0.444 -0.71806 -0.024952 -0.69554
0.011494 0.01235 0.445 -0.68712 -0.0031751 -0.72653
0.01152 0.013203 0.446 -0.68254 0.019505 -0.73059
0.01152 0.014028 0.446 -0.63743 0.014622 -0.77037
0.01152 0.014853 0.446 -0.49505 0.0047147 -0.86885
0.01152 0.015678 0.446 -0.23039 0.046277 -0.972
0.011804 0.01691 0.457 -0.14396 -0.47326 -0.86908
0.011804 0.017756 0.457 -0.21947 -0.46802 -0.85603
0.011804 0.018601 0.457 -0.28157 -0.46361 -0.84011
0.011804 0.019447 0.457 -0.30942 -0.45911 -0.83275
0.011804 0.020292 0.457 -0.28831 -0.45027 -0.84506
0.01183 0.021184 0.458 -0.27405 -0.469 -0.83961
0.01183 0.022031 0.458 -0.26368 -0.45774 -0.84908
0.011856 0.022929 0.459 -0.37257 -0.47923 -0.79469
0.011856 0.023778 0.459 -0.33658 -0.47139 -0.81517
0.011882 0.024681 0.46 -0.46461 -0.47893 -0.74483
0.0119 -0.066827 0.43 0.55451 0.031056 -0.8316
0.0119 -0.066031 0.43 0.596 -0.028691 -0.80247
0.011873 -0.065084 0.429 0.52377 -0.017647 -0.85168
0.011873 -0.06429 0.429 0.51911 -0.053001 -0.85306
0.011845 -0.063349 0.428 0.46063 -0.062882 -0.88536
0.011845 -0.062557 0.428 0.45908 -0.062891 -0.88617
0.011817 -0.061621 0.427 0.43885 -0.070284 -0.89581
0.011817 -0.060831 0.427 0.40696 -0.071449 -0.91065
0.011817 -0.060041 0.427 0.38387 -0.085602 -0.91941
0.01179 -0.059112 0.426 0.35625 -0.081984 -0.93079
0.01179 -0.058324 0.426 0.34291 -0.096024 -0.93445
0.01179 -0.057536 0.426 0.30807 -0.10901 -0.9451
0.01179 -0.056747 0.426 0.28256 -0.10991 -0.95293
0.011762 -0.055828 0.425 0.2556 -0.12593 -0.95855
0.011762 -0.055042 0.425 0.21912 -0.13009 -0.96699
0.011762 -0.054255 0.425 0.19844 -0.13669 -0.97053
0.011762 -0.053469 0.425 0.17033 -0.15246 -0.97352
0.011762 -0.052683 0.425 0.14824 -0.15501 -0.97673
0.011762 -0.051896 0.425 0.12195 -0.15357 -0.98058
0.011762 -0.05111 0.425 0.098471 -0.15195 -0.98347
0.011734 -0.050205 0.424 0.074921 -0.15565 -0.98497
0.011734 -0.049421 0.424 0.059394 -0.15379 -0.98632
0.011734 -0.048636 0.424 0.049001 -0.15388 -0.98687
0.011734 -0.047852 0.424 0.044875 -0.14882 -0.98785
0.011734 -0.047068 0.424 0.036555 -0.14582 -0.98864
0.011734 -0.046283 0.424 0.019857 -0.14487 -0.98925
0.011734 -0.045499 0.424 0.007318 -0.14387 -0.98957
0.011734 -0.044714 0.424 -0.016712 -0.14895 -0.9887
0.011734 -0.04393 0.424 -0.043763 -0.15898 -0.98631
0.011734 -0.043145 0.424 -0.070575 -0.17285 -0.98242
0.011734 -0.042361 0.424 -0.10516 -0.19123 -0.9759
0.011734 -0.041576 0.424 -0.14914 -0.2068 -0.96695
0.011734 -0.040792 0.424 -0.19297 -0.21963 -0.95631
0.011762 -0.040102 0.425 -0.23263 -0.23695 -0.94326
0.011762 -0.039315 0.425 -0.26067 -0.25994 -0.92978
0.011762 -0.038529 0.425 -0.28507 -0.27946 -0.91686
0.011762 -0.037743 0.425 -0.30933 -0.28943 -0.90584
0.01179 -0.037043 0.426 -0.32069 -0.29622 -0.89967
0.01179 -0.036255 0.426 -0.32493 -0.29577 -0.8983
0.01179 -0.035467 0.426 -0.31723 -0.28888 -0.90328
0.011817 -0.03476 0.427 -0.27944 -0.27962 -0.91854
0.011817 -0.03397 0.427 -0.2246 -0.26032 -0.93904
0.011817 -0.03318 0.427 -0.13472 -0.25165 -0.9584
0.011845 -0.032466 0.428 -0.023433 -0.22758 -0.97348
0.011845 -0.031674 0.428 0.10901 -0.20117 -0.97347
0.011817 -0.03081 0.427 0.22249 -0.17168 -0.9597
0.011817 -0.03002 0.427 0.31008 -0.13295 -0.94137
0.01179 -0.029162 0.426 0.38507 -0.11616 -0.91555
0.01179 -0.028374 0.426 0.42078 -0.10301 -0.9013
0.011762 -0.027521 0.425 0.42915 -0.088805 -0.89886
0.011762 -0.026735 0.425 0.40683 -0.075591 -0.91037
0.011762 -0.025948 0.425 0.37414 -0.073843 -0.92443
0.011734 -0.025103 0.424 0.32625 -0.084312 -0.94152
0.011734 -0.024318 0.424 0.28354 -0.085532 -0.95514
0.011734 -0.023534 0.424 0.24162 -0.10167 -0.96503
0.011734 -0.022749 0.424 0.21233 -0.11047 -0.97093
0.011734 -0.021965 0.424 0.16853 -0.11754 -0.97866
0.011734 -0.02118 0.424 0.11226 -0.1389 -0.98392
0.011734 -0.020396 0.424 0.072931 -0.14858 -0.98621
0.011707 -0.019565 0.423 0.028219 -0.15842 -0.98697
0.011707 -0.018783 0.423 -0.023966 -0.17665 -0.98398
0.011734 -0.018043 0.424 -0.083697 -0.19063 -0.97809
0.011734 -0.017258 0.424 -0.14527 -0.20301 -0.96834
0.011734 -0.016474 0.424 -0.19237 -0.21102 -0.95837
0.011734 -0.015689 0.424 -0.23757 -0.20793 -0.94886
0.011734 -0.014905 0.424 -0.27089 -0.21077 -0.93925
0.011734 -0.01412 0.424 -0.30369 -0.21883 -0.9273
0.011762 -0.013367 0.425 -0.33709 -0.21576 -0.91642
0.011762 -0.012581 0.425 -0.36833 -0.21125 -0.90537
0.011762 -0.011795 0.425 -0.39886 -0.20123 -0.89466
0.01179 -0.011034 0.426 -0.42047 -0.19245 -0.88666
0.01179 -0.010246 0.426 -0.44886 -0.18253 -0.87476
0.011817 -0.0094801 0.427 -0.46762 -0.17929 -0.86556
0.011817 -0.0086901 0.427 -0.48331 -0.17412 -0.85796
0.011817 -0.0079001 0.427 -0.49054 -0.16902 -0.85487
0.011845 -0.0071267 0.428 -0.49171 -0.16077 -0.85579
0.011873 -0.0063497 0.429 -0.48301 -0.15697 -0.86143
0.011873 -0.005556 0.429 -0.48119 -0.1344 -0.86625
0.011873 -0.0047623 0.429 -0.46816 -0.13014 -0.87401
0.0119 -0.0039778 0.43 -0.46428 -0.12122 -0.87735
0.0119 -0.0031822 0.43 -0.46561 -0.12291 -0.87641
0.0119 -0.0023867 0.43 -0.48127 -0.1143 -0.86909
0.011928 -0.0015948 0.431 -0.52727 -0.10877 -0.84271
0.011928 -0.00079741 0.431 -0.54321 -0.090458 -0.83471
0.011928 0 0.431 -0.48671 -0.070126 -0.87074
0.011956 0.00079926 0.432 -0.55586 -0.09534 -0.82579
0.011983 0.0016022 0.433 -0.65411 -0.087585 -0.75132
0.012011 0.0024089 0.434 -0.72346 -0.068071 -0.687
0.012039 0.0032192 0.435 -0.73883 -0.072922 -0.66993
0.012094 0.0040426 0.437 -0.66895 -0.054335 -0.74132
0.012122 0.0048622 0.438 -0.60098 -0.045703 -0.79795
0.012122 0.0056725 0.438 -0.64811 -0.065473 -0.75873
0.012149 0.0064977 0.439 -0.63384 -0.05165 -0.77174
0.012149 0.0073099 0.439 -0.6174 -0.048024 -0.78518
0.012149 0.0081221 0.439 -0.50324 -0.028584 -0.86367
0.012177 0.0089547 0.44 -0.55439 -0.036439 -0.83146
0.012205 0.0097909 0.441 -0.66603 -0.081905 -0.74142
0.01226 0.010655 0.443 -0.7317 -0.034322 -0.68076
0.012315 0.011526 0.445 -0.55461 -0.014989 -0.83198
0.012315 0.01235 0.445 -0.67573 -0.032381 -0.73644
0.012343 0.013203 0.446 -0.67348 -0.018678 -0.73897
0.012343 0.014028 0.446 -0.62939 -0.01975 -0.77684
0.012343 0.014853 0.446 -0.47774 -0.031901 -0.87792
0.012343 0.015678 0.446 -0.22877 0.0083519 -0.97344
0.012675 0.016947 0.458 0.013412 -0.4938 -0.86947
0.012675 0.017795 0.458 -0.079601 -0.49336 -0.86618
0.012675 0.018642 0.458 -0.17587 -0.48809 -0.85489
0.012675 0.019489 0.458 -0.24746 -0.47839 -0.84256
0.012675 0.020337 0.458 -0.26406 -0.46809 -0.8433
0.012675 0.021184 0.458 -0.23889 -0.45193 -0.85947
0.012703 0.02208 0.459 -0.33062 -0.47657 -0.8146
0.012703 0.022929 0.459 -0.31441 -0.46398 -0.82817
0.012731 0.02383 0.46 -0.44058 -0.47647 -0.76083
0.012731 0.024681 0.46 -0.39235 -0.47105 -0.79004
0.013196 -0.08022 0.447 0.96132 0.069862 -0.26642
0.01293 -0.074553 0.438 0.77207 -0.12626 -0.62287
0.012753 -0.069536 0.432 0.60518 0.017354 -0.7959
0.012694 -0.066827 0.43 0.53242 -0.010089 -0.84642
0.012694 -0.066031 0.43 0.58224 -0.051121 -0.81141
0.012664 -0.065084 0.429 0.50965 -0.052597 -0.85877
0.012664 -0.06429 0.429 0.50798 -0.069944 -0.85852
0.012635 -0.063349 0.428 0.45021 -0.085712 -0.8888
0.012635 -0.062557 0.428 0.45844 -0.082198 -0.88492
0.012605 -0.061621 0.427 0.43765 -0.083354 -0.89527
0.012605 -0.060831 0.427 0.40494 -0.084763 -0.91041
0.012605 -0.060041 0.427 0.38106 -0.095243 -0.91963
0.012576 -0.059112 0.426 0.35236 -0.096632 -0.93086
0.012576 -0.058324 0.426 0.33387 -0.10607 -0.93663
0.012576 -0.057536 0.426 0.29953 -0.12107 -0.94638
0.012576 -0.056747 0.426 0.271 -0.12411 -0.95455
0.012546 -0.055828 0.425 0.24681 -0.13416 -0.95973
0.012546 -0.055042 0.425 0.21299 -0.14025 -0.96694
0.012546 -0.054255 0.425 0.1953 -0.14377 -0.97015
0.012546 -0.053469 0.425 0.17027 -0.15446 -0.97322
0.012546 -0.052683 0.425 0.15111 -0.16094 -0.97533
0.012546 -0.051896 0.425 0.12785 -0.16348 -0.97823
0.012546 -0.05111 0.425 0.1075 -0.16287 -0.98077
0.012546 -0.050324 0.425 0.086976 -0.16521 -0.98242
0.012546 -0.049537 0.425 0.068437 -0.16545 -0.98384
0.012517 -0.048636 0.424 0.054092 -0.16598 -0.98465
0.012517 -0.047852 0.424 0.044788 -0.161 -0.98594
0.012517 -0.047068 0.424 0.036468 -0.16105 -0.98627
0.012517 -0.046283 0.424 0.01458 -0.16721 -0.98581
0.012517 -0.045499 0.424 -0.0020813 -0.17227 -0.98505
0.012517 -0.044714 0.424 -0.029078 -0.18123 -0.98301
0.012517 -0.04393 0.424 -0.057959 -0.19198 -0.97969
0.012517 -0.043145 0.424 -0.090538 -0.20828 -0.97387
0.012517 -0.042361 0.424 -0.12854 -0.22585 -0.96565
0.012517 -0.041576 0.424 -0.1737 -0.23667 -0.95594
0.012546 -0.040888 0.425 -0.21577 -0.25186 -0.94341
0.012546 -0.040102 0.425 -0.25268 -0.26956 -0.92924
0.012546 -0.039315 0.425 -0.27629 -0.28901 -0.91659
0.012546 -0.038529 0.425 -0.29504 -0.30374 -0.90592
0.012576 -0.037832 0.426 -0.3166 -0.31102 -0.89612
0.012576 -0.037043 0.426 -0.32251 -0.31037 -0.89423
0.012576 -0.036255 0.426 -0.32091 -0.30214 -0.89763
0.012605 -0.03555 0.427 -0.30168 -0.29325 -0.90719
0.012605 -0.03476 0.427 -0.25875 -0.28219 -0.92381
0.012605 -0.03397 0.427 -0.19897 -0.26455 -0.94362
0.012635 -0.033258 0.428 -0.10557 -0.25668 -0.96071
0.012635 -0.032466 0.428 0.0061088 -0.23149 -0.97282
0.012635 -0.031674 0.428 0.14081 -0.2081 -0.96792
0.012605 -0.03081 0.427 0.24761 -0.18121 -0.95176
0.012605 -0.03002 0.427 0.32691 -0.15031 -0.93303
0.012605 -0.02923 0.427 0.39253 -0.13048 -0.91043
0.012576 -0.028374 0.426 0.42445 -0.12322 -0.89703
0.012546 -0.027521 0.425 0.42781 -0.11866 -0.89604
0.012546 -0.026735 0.425 0.40465 -0.11161 -0.90764
0.012546 -0.025948 0.425 0.36703 -0.10971 -0.92372
0.012517 -0.025103 0.424 0.31903 -0.11497 -0.94075
0.012517 -0.024318 0.424 0.27619 -0.1156 -0.95413
0.012517 -0.023534 0.424 0.2342 -0.12693 -0.96387
0.012517 -0.022749 0.424 0.21088 -0.12863 -0.96901
0.012517 -0.021965 0.424 0.16309 -0.13691 -0.97707
0.012517 -0.02118 0.424 0.10377 -0.15626 -0.98225
0.012517 -0.020396 0.424 0.062383 -0.1659 -0.98417
0.012517 -0.019611 0.424 0.016645 -0.17325 -0.98474
0.012517 -0.018827 0.424 -0.035282 -0.1842 -0.98226
0.012517 -0.018043 0.424 -0.093794 -0.19837 -0.97563
0.012517 -0.017258 0.424 -0.15897 -0.21036 -0.96461
0.012517 -0.016474 0.424 -0.20363 -0.21915 -0.95421
0.012517 -0.015689 0.424 -0.24522 -0.22267 -0.94355
0.012517 -0.014905 0.424 -0.27435 -0.22832 -0.93413
0.012546 -0.014154 0.425 -0.30194 -0.23409 -0.92414
0.012546 -0.013367 0.425 -0.33586 -0.23128 -0.91308
0.012546 -0.012581 0.425 -0.36735 -0.22302 -0.90295
0.012546 -0.011795 0.425 -0.39396 -0.21242 -0.89424
0.012576 -0.011034 0.426 -0.41647 -0.20348 -0.88608
0.012576 -0.010246 0.426 -0.44188 -0.19554 -0.8755
0.012605 -0.0094801 0.427 -0.46265 -0.18763 -0.86646
0.012605 -0.0086901 0.427 -0.48024 -0.17791 -0.85891
0.012635 -0.0079186 0.428 -0.48781 -0.17495 -0.85524
0.012635 -0.0071267 0.428 -0.48795 -0.16548 -0.85704
0.012664 -0.0063497 0.429 -0.47802 -0.1592 -0.8638
0.012664 -0.005556 0.429 -0.47506 -0.14285 -0.86828
0.012664 -0.0047623 0.429 -0.46526 -0.14192 -0.87372
0.012694 -0.0039778 0.43 -0.46426 -0.14434 -0.87386
0.012694 -0.0031822 0.43 -0.46039 -0.14622 -0.87559
0.012723 -0.0023922 0.431 -0.48415 -0.1526 -0.86157
0.012723 -0.0015948 0.431 -0.51943 -0.14028 -0.84292
0.012723 -0.00079741 0.431 -0.53158 -0.11098 -0.83971
0.012753 0 0.432 -0.58682 -0.15692 -0.79437
0.012753 0.00079926 0.432 -0.53673 -0.152 -0.82995
0.012782 0.0016022 0.433 -0.63553 -0.13965 -0.75934
0.012812 0.0024089 0.434 -0.70836 -0.12095 -0.69541
0.012841 0.0032192 0.435 -0.72733 -0.11947 -0.67581
0.0129 0.0040426 0.437 -0.6618 -0.092812 -0.74391
0.01293 0.0048622 0.438 -0.60167 -0.076651 -0.79506
0.01293 0.0056725 0.438 -0.64325 -0.093357 -0.75994
0.012959 0.0064977 0.439 -0.63532 -0.071407 -0.76894
0.012959 0.0073099 0.439 -0.60879 -0.068531 -0.79037
0.012989 0.0081406 0.44 -0.625 -0.059077 -0.77839
0.012989 0.0089547 0.44 -0.54919 -0.04548 -0.83446
0.013048 0.0098131 0.442 -0.7303 -0.06047 -0.68044
0.013077 0.010655 0.443 -0.72909 -0.046819 -0.68282
0.013137 0.011526 0.445 -0.55795 -0.028091 -0.8294
0.013137 0.01235 0.445 -0.67043 -0.046719 -0.7405
0.013166 0.013203 0.446 -0.66523 -0.041266 -0.7455
0.013166 0.014028 0.446 -0.61711 -0.036772 -0.78602
0.013166 0.014853 0.446 -0.45021 -0.047225 -0.89168
0.013166 0.015678 0.446 -0.20637 -0.0061333 -0.97846
0.01352 0.016947 0.458 -0.10654 -0.48019 -0.87067
0.01352 0.017795 0.458 -0.19379 -0.47781 -0.85682
0.01352 0.018642 0.458 -0.2661 -0.46897 -0.84217
0.01352 0.019489 0.458 -0.29605 -0.46085 -0.83664
0.01352 0.020337 0.458 -0.2632 -0.44609 -0.85541
0.01355 0.02123 0.459 -0.28354 -0.4608 -0.84099
0.01355 0.02208 0.459 -0.27373 -0.45101 -0.84951
0.013579 0.022979 0.46 -0.41241 -0.4688 -0.78111
0.013579 0.02383 0.46 -0.36718 -0.46127 -0.80772
0.013738 -0.074553 0.438 0.76356 -0.19036 -0.61704
0.013707 -0.073574 0.437 0.77608 -0.13452 -0.61612
0.01355 -0.069536 0.432 0.58295 -0.035099 -0.81175
0.01355 -0.068736 0.432 0.65564 -0.065398 -0.75224
0.013487 -0.066827 0.43 0.49449 -0.049715 -0.86776
0.013487 -0.066031 0.43 0.56211 -0.070867 -0.82402
0.013456 -0.065084 0.429 0.48618 -0.073284 -0.87078
0.013456 -0.06429 0.429 0.49653 -0.078723 -0.86444
0.013424 -0.063349 0.428 0.44608 -0.092996 -0.89015
0.013424 -0.062557 0.428 0.45803 -0.092275 -0.88413
0.013424 -0.061765 0.428 0.43593 -0.086945 -0.89577
0.013393 -0.060831 0.427 0.40321 -0.088612 -0.91081
0.013393 -0.060041 0.427 0.37858 -0.095347 -0.92064
0.013362 -0.059112 0.426 0.34876 -0.1016 -0.93169
0.013362 -0.058324 0.426 0.32511 -0.10544 -0.93978
0.013362 -0.057536 0.426 0.29138 -0.12041 -0.949
0.013362 -0.056747 0.426 0.25978 -0.12451 -0.95761
0.013362 -0.055959 0.426 0.23297 -0.13333 -0.9633
0.01333 -0.055042 0.425 0.19816 -0.14668 -0.96913
0.01333 -0.054255 0.425 0.18026 -0.15219 -0.97177
0.01333 -0.053469 0.425 0.15607 -0.16281 -0.97423
0.01333 -0.052683 0.425 0.13861 -0.17816 -0.97419
0.01333 -0.051896 0.425 0.11814 -0.18953 -0.97474
0.01333 -0.05111 0.425 0.10698 -0.18977 -0.97598
0.01333 -0.050324 0.425 0.090561 -0.19601 -0.97641
0.01333 -0.049537 0.425 0.071003 -0.20421 -0.97635
0.01333 -0.048751 0.425 0.055551 -0.21031 -0.97606
0.013299 -0.047852 0.424 0.045379 -0.21187 -0.97624
0.013299 -0.047068 0.424 0.036087 -0.2149 -0.97597
0.013299 -0.046283 0.424 0.01339 -0.22187 -0.97498
0.013299 -0.045499 0.424 -0.0041157 -0.22676 -0.97394
0.013299 -0.044714 0.424 -0.031828 -0.23344 -0.97185
0.013299 -0.04393 0.424 -0.066443 -0.24363 -0.96759
0.013299 -0.043145 0.424 -0.10359 -0.25522 -0.96132
0.01333 -0.042461 0.425 -0.13861 -0.26944 -0.95299
0.01333 -0.041674 0.425 -0.18472 -0.27928 -0.94227
0.01333 -0.040888 0.425 -0.22724 -0.29107 -0.92932
0.01333 -0.040102 0.425 -0.26357 -0.30232 -0.91604
0.01333 -0.039315 0.425 -0.2864 -0.31227 -0.90579
0.013362 -0.03862 0.426 -0.30344 -0.31579 -0.899
0.013362 -0.037832 0.426 -0.31923 -0.31741 -0.89294
0.013362 -0.037043 0.426 -0.31932 -0.30905 -0.89584
0.013393 -0.03634 0.427 -0.30634 -0.29793 -0.9041
0.013393 -0.03555 0.427 -0.2826 -0.28374 -0.91631
0.013393 -0.03476 0.427 -0.23498 -0.27143 -0.93333
0.013424 -0.03405 0.428 -0.17125 -0.25617 -0.95134
0.013424 -0.033258 0.428 -0.076946 -0.24131 -0.96739
0.013424 -0.032466 0.428 0.033702 -0.21591 -0.97583
0.013424 -0.031674 0.428 0.15893 -0.19786 -0.96726
0.013393 -0.03081 0.427 0.25996 -0.17581 -0.94948
0.013393 -0.03002 0.427 0.33189 -0.15478 -0.93053
0.013393 -0.02923 0.427 0.3945 -0.13874 -0.90836
0.013362 -0.028374 0.426 0.42284 -0.13805 -0.89563
0.01333 -0.027521 0.425 0.42673 -0.13809 -0.89377
0.01333 -0.026735 0.425 0.40415 -0.13688 -0.90439
0.01333 -0.025948 0.425 0.36343 -0.13373 -0.92198
0.01333 -0.025162 0.425 0.31206 -0.13831 -0.93994
0.013299 -0.024318 0.424 0.26773 -0.14353 -0.95274
0.013299 -0.023534 0.424 0.22461 -0.15507 -0.96203
0.013299 -0.022749 0.424 0.1954 -0.15507 -0.96839
0.013299 -0.021965 0.424 0.14737 -0.1634 -0.97549
0.013299 -0.02118 0.424 0.089011 -0.17959 -0.97971
0.013299 -0.020396 0.424 0.049741 -0.18808 -0.98089
0.013299 -0.019611 0.424 0.0020714 -0.19727 -0.98035
0.013299 -0.018827 0.424 -0.049569 -0.20494 -0.97752
0.013299 -0.018043 0.424 -0.10051 -0.21785 -0.97079
0.013299 -0.017258 0.424 -0.16321 -0.22947 -0.95953
0.013299 -0.016474 0.424 -0.20582 -0.23329 -0.95037
0.013299 -0.015689 0.424 -0.24525 -0.23764 -0.93988
0.01333 -0.01494 0.425 -0.27206 -0.23996 -0.93188
0.01333 -0.014154 0.425 -0.29894 -0.23888 -0.92389
0.01333 -0.013367 0.425 -0.33121 -0.2362 -0.91352
0.01333 -0.012581 0.425 -0.36149 -0.22447 -0.90495
0.013362 -0.011822 0.426 -0.38556 -0.2181 -0.89653
0.013362 -0.011034 0.426 -0.41253 -0.20476 -0.88763
0.013393 -0.01027 0.427 -0.44077 -0.19871 -0.87535
0.013393 -0.0094801 0.427 -0.46273 -0.18675 -0.86661
0.013393 -0.0086901 0.427 -0.47985 -0.18225 -0.85821
0.013424 -0.0079186 0.428 -0.48719 -0.18186 -0.85415
0.013424 -0.0071267 0.428 -0.48401 -0.17193 -0.85801
0.013456 -0.0063497 0.429 -0.47453 -0.16823 -0.86401
0.013456 -0.005556 0.429 -0.46826 -0.15927 -0.86912
0.013487 -0.0047734 0.43 -0.46198 -0.16564 -0.87129
0.013487 -0.0039778 0.43 -0.46154 -0.17959 -0.86875
0.013487 -0.0031822 0.43 -0.45455 -0.17792 -0.87277
0.013518 -0.0023922 0.431 -0.4818 -0.19392 -0.85456
0.013518 -0.0015948 0.431 -0.51103 -0.17601 -0.84135
0.013518 -0.00079741 0.431 -0.50938 -0.14966 -0.84743
0.01355 0 0.432 -0.57354 -0.19353 -0.79599
0.01355 0.00079926 0.432 -0.50963 -0.18855 -0.83948
0.013581 0.0016022 0.433 -0.61151 -0.18756 -0.76869
0.013644 0.0024144 0.435 -0.7225 -0.15957 -0.67271
0.013675 0.0032266 0.436 -0.70079 -0.15486 -0.69636
0.013707 0.0040426 0.437 -0.65358 -0.12538 -0.7464
0.013738 0.0048622 0.438 -0.59865 -0.10391 -0.79424
0.013769 0.0056855 0.439 -0.57779 -0.084139 -0.81184
0.013769 0.0064977 0.439 -0.63249 -0.092527 -0.76902
0.013769 0.0073099 0.439 -0.59983 -0.08261 -0.79585
0.013801 0.0081406 0.44 -0.61523 -0.070391 -0.7852
0.013801 0.0089547 0.44 -0.53012 -0.052143 -0.84632
0.013863 0.0098131 0.442 -0.7306 -0.073349 -0.67886
0.013895 0.010655 0.443 -0.72733 -0.072257 -0.68247
0.013958 0.011526 0.445 -0.56757 -0.068121 -0.8205
0.013958 0.01235 0.445 -0.66688 -0.08251 -0.74058
0.013989 0.013203 0.446 -0.65402 -0.088427 -0.75129
0.013989 0.014028 0.446 -0.59898 -0.079948 -0.79677
0.013989 0.014853 0.446 -0.41526 -0.086964 -0.90553
0.014397 0.016984 0.459 0.044041 -0.46484 -0.8843
0.014397 0.017833 0.459 -0.065379 -0.47205 -0.87914
0.014397 0.018683 0.459 -0.17508 -0.4669 -0.8668
0.014397 0.019532 0.459 -0.25905 -0.46152 -0.84846
0.014397 0.020381 0.459 -0.27402 -0.45357 -0.84805
0.014397 0.02123 0.459 -0.23787 -0.435 -0.86844
0.014428 0.022128 0.46 -0.36091 -0.461 -0.81069
0.014428 0.022979 0.46 -0.33719 -0.44641 -0.82887
0.014459 0.023882 0.461 -0.47069 -0.45058 -0.75857
0.01428 -0.066827 0.43 0.45328 -0.098671 -0.88589
0.01428 -0.066031 0.43 0.53587 -0.10004 -0.83835
0.014247 -0.065084 0.429 0.45436 -0.10661 -0.88441
0.014247 -0.06429 0.429 0.48323 -0.092089 -0.87064
0.014214 -0.063349 0.428 0.44379 -0.1012 -0.8904
0.014214 -0.062557 0.428 0.46049 -0.10215 -0.88177
0.014214 -0.061765 0.428 0.4356 -0.095286 -0.89508
0.014181 -0.060831 0.427 0.39986 -0.092533 -0.91189
0.014181 -0.060041 0.427 0.3761 -0.095452 -0.92165
0.014148 -0.059112 0.426 0.34686 -0.10651 -0.93185
0.014148 -0.058324 0.426 0.32409 -0.10937 -0.93968
0.014148 -0.057536 0.426 0.2869 -0.11763 -0.95071
0.014148 -0.056747 0.426 0.25234 -0.1218 -0.95994
0.014148 -0.055959 0.426 0.2235 -0.12866 -0.96617
0.014114 -0.055042 0.425 0.1873 -0.148 -0.97109
0.014114 -0.054255 0.425 0.16928 -0.15448 -0.97339
0.014114 -0.053469 0.425 0.14601 -0.16406 -0.97558
0.014114 -0.052683 0.425 0.12438 -0.18247 -0.97531
0.014114 -0.051896 0.425 0.10571 -0.20162 -0.97374
0.014114 -0.05111 0.425 0.097456 -0.20767 -0.97333
0.014114 -0.050324 0.425 0.085075 -0.2167 -0.97252
0.014114 -0.049537 0.425 0.070644 -0.22666 -0.97141
0.014114 -0.048751 0.425 0.055183 -0.23846 -0.96958
0.014114 -0.047965 0.425 0.044909 -0.2453 -0.96841
0.014114 -0.047179 0.425 0.035682 -0.25112 -0.9673
0.014114 -0.046392 0.425 0.013233 -0.25886 -0.96582
0.014114 -0.045606 0.425 -0.0091375 -0.2683 -0.96329
0.014114 -0.04482 0.425 -0.040467 -0.27744 -0.95989
0.014081 -0.04393 0.424 -0.077675 -0.2867 -0.95487
0.014114 -0.043247 0.425 -0.11605 -0.29233 -0.94925
0.014114 -0.042461 0.425 -0.15657 -0.3024 -0.94023
0.014114 -0.041674 0.425 -0.20075 -0.31054 -0.92912
0.014114 -0.040888 0.425 -0.24066 -0.31806 -0.91702
0.014114 -0.040102 0.425 -0.27403 -0.32279 -0.90593
0.014148 -0.039408 0.426 -0.29333 -0.32271 -0.8999
0.014148 -0.03862 0.426 -0.3028 -0.32172 -0.89711
0.014148 -0.037832 0.426 -0.31085 -0.31751 -0.89586
0.014181 -0.03713 0.427 -0.30341 -0.30163 -0.90386
0.014181 -0.03634 0.427 -0.28518 -0.28439 -0.91531
0.014181 -0.03555 0.427 -0.25642 -0.26543 -0.92941
0.014214 -0.034842 0.428 -0.20391 -0.2527 -0.94581
0.014214 -0.03405 0.428 -0.14377 -0.23762 -0.96066
0.014214 -0.033258 0.428 -0.049998 -0.21673 -0.97495
0.014214 -0.032466 0.428 0.057405 -0.19321 -0.97948
0.014214 -0.031674 0.428 0.17126 -0.1819 -0.96829
0.014214 -0.030883 0.428 0.26444 -0.16656 -0.94991
0.014181 -0.03002 0.427 0.33378 -0.15183 -0.93034
0.014181 -0.02923 0.427 0.38848 -0.14563 -0.90988
0.014148 -0.028374 0.426 0.41846 -0.14662 -0.89632
0.014148 -0.027586 0.426 0.42281 -0.15085 -0.89357
0.014114 -0.026735 0.425 0.40224 -0.15552 -0.90223
0.014114 -0.025948 0.425 0.3631 -0.15546 -0.91869
0.014114 -0.025162 0.425 0.30931 -0.15866 -0.93763
0.014114 -0.024376 0.425 0.26245 -0.16682 -0.95042
0.014081 -0.023534 0.424 0.21893 -0.17789 -0.95939
0.014081 -0.022749 0.424 0.18389 -0.17625 -0.96702
0.014081 -0.021965 0.424 0.13577 -0.1836 -0.97358
0.014081 -0.02118 0.424 0.078485 -0.19567 -0.97752
0.014081 -0.020396 0.424 0.029991 -0.20213 -0.9789
0.014081 -0.019611 0.424 -0.019616 -0.21106 -0.97728
0.014081 -0.018827 0.424 -0.065814 -0.21946 -0.9734
0.014081 -0.018043 0.424 -0.11032 -0.23021 -0.96687
0.014081 -0.017258 0.424 -0.16589 -0.23604 -0.95748
0.014081 -0.016474 0.424 -0.20669 -0.23513 -0.94973
0.014081 -0.015689 0.424 -0.24415 -0.2405 -0.93944
0.014114 -0.01494 0.425 -0.26933 -0.24016 -0.93262
0.014114 -0.014154 0.425 -0.29504 -0.23187 -0.92692
0.014114 -0.013367 0.425 -0.32577 -0.22943 -0.91719
0.014148 -0.012611 0.426 -0.34956 -0.21966 -0.9108
0.014148 -0.011822 0.426 -0.37877 -0.21341 -0.90055
0.014148 -0.011034 0.426 -0.41013 -0.20589 -0.88848
0.014181 -0.01027 0.427 -0.43937 -0.19799 -0.87622
0.014181 -0.0094801 0.427 -0.46162 -0.1912 -0.86623
0.014181 -0.0086901 0.427 -0.47897 -0.19177 -0.85663
0.014214 -0.0079186 0.428 -0.48673 -0.1938 -0.85178
0.014214 -0.0071267 0.428 -0.4839 -0.18821 -0.85465
0.014247 -0.0063497 0.429 -0.47495 -0.18713 -0.85988
0.014247 -0.005556 0.429 -0.46842 -0.19044 -0.86274
0.01428 -0.0047734 0.43 -0.46568 -0.20311 -0.86133
0.01428 -0.0039778 0.43 -0.45741 -0.21984 -0.86165
0.01428 -0.0031822 0.43 -0.44527 -0.21423 -0.86939
0.014314 -0.0023922 0.431 -0.47774 -0.23413 -0.84673
0.014314 -0.0015948 0.431 -0.49798 -0.21095 -0.84114
0.014314 -0.00079741 0.431 -0.48678 -0.16264 -0.85825
0.014347 0 0.432 -0.55127 -0.2385 -0.79951
0.01438 0.00080111 0.433 -0.64071 -0.23061 -0.73233
0.014413 0.0016059 0.434 -0.69446 -0.22075 -0.68483
0.014446 0.0024144 0.435 -0.70606 -0.20594 -0.67754
0.01448 0.0032266 0.436 -0.68524 -0.19869 -0.70069
0.014513 0.0040426 0.437 -0.64244 -0.16834 -0.74762
0.014546 0.0048622 0.438 -0.59463 -0.14037 -0.79165
0.014579 0.0056855 0.439 -0.58195 -0.11156 -0.80554
0.014579 0.0064977 0.439 -0.62776 -0.11345 -0.7701
0.014579 0.0073099 0.439 -0.58858 -0.098929 -0.80236
0.014613 0.0081406 0.44 -0.60252 -0.076679 -0.79441
0.014646 0.008975 0.441 -0.69438 -0.082734 -0.71483
0.014679 0.0098131 0.442 -0.72997 -0.086816 -0.67794
0.014712 0.010655 0.443 -0.72568 -0.094153 -0.68156
0.014779 0.011526 0.445 -0.59246 -0.087155 -0.80087
0.014779 0.01235 0.445 -0.67246 -0.10361 -0.73285
0.014812 0.013203 0.446 -0.648 -0.12166 -0.75186
0.014812 0.014028 0.446 -0.58287 -0.11543 -0.80433
0.014812 0.014853 0.446 -0.37316 -0.13352 -0.91811
0.015244 0.017833 0.459 -0.17108 -0.4616 -0.87044
0.015244 0.018683 0.459 -0.24679 -0.45605 -0.85505
0.015244 0.019532 0.459 -0.28 -0.44503 -0.85062
0.015244 0.020381 0.459 -0.23404 -0.42465 -0.87458
0.015277 0.021277 0.46 -0.30509 -0.44432 -0.84232
0.015277 0.022128 0.46 -0.2865 -0.43355 -0.85437
0.01531 0.023029 0.461 -0.44373 -0.44191 -0.77963
0.015074 -0.066827 0.43 0.42761 -0.099692 -0.89845
0.015074 -0.066031 0.43 0.51907 -0.10601 -0.84813
0.015039 -0.065084 0.429 0.44046 -0.10503 -0.89161
0.015039 -0.06429 0.429 0.4749 -0.10425 -0.87385
0.015004 -0.063349 0.428 0.4387 -0.10977 -0.89191
0.015004 -0.062557 0.428 0.46277 -0.11373 -0.87915
0.015004 -0.061765 0.428 0.44088 -0.11154 -0.89061
0.014969 -0.060831 0.427 0.39832 -0.1105 -0.91057
0.014969 -0.060041 0.427 0.37637 -0.10971 -0.91995
0.014969 -0.059251 0.427 0.343 -0.12084 -0.93153
0.014934 -0.058324 0.426 0.3218 -0.12305 -0.93878
0.014934 -0.057536 0.426 0.28556 -0.12944 -0.94958
0.014934 -0.056747 0.426 0.24726 -0.13285 -0.9598
0.014934 -0.055959 0.426 0.21553 -0.13687 -0.96686
0.014934 -0.055171 0.426 0.17695 -0.14994 -0.97273
0.014899 -0.054255 0.425 0.15823 -0.15677 -0.97488
0.014899 -0.053469 0.425 0.13491 -0.16432 -0.97714
0.014899 -0.052683 0.425 0.11431 -0.17971 -0.97706
0.014899 -0.051896 0.425 0.091488 -0.20092 -0.97533
0.014899 -0.05111 0.425 0.085169 -0.21182 -0.97359
0.014899 -0.050324 0.425 0.075804 -0.2227 -0.97194
0.014899 -0.049537 0.425 0.06544 -0.23351 -0.97015
0.014899 -0.048751 0.425 0.055088 -0.24517 -0.96791
0.014899 -0.047965 0.425 0.03963 -0.26246 -0.96413
0.014899 -0.047179 0.425 0.026331 -0.27571 -0.96088
0.014899 -0.046392 0.425 0.0010091 -0.2888 -0.95739
0.014899 -0.045606 0.425 -0.023106 -0.30155 -0.95317
0.014899 -0.04482 0.425 -0.054981 -0.31203 -0.94848
0.014899 -0.044033 0.425 -0.096265 -0.32264 -0.94162
0.014899 -0.043247 0.425 -0.13697 -0.32724 -0.93496
0.014899 -0.042461 0.425 -0.17268 -0.33663 -0.92567
0.014899 -0.041674 0.425 -0.2113 -0.34253 -0.91544
0.014899 -0.040888 0.425 -0.24941 -0.34934 -0.90319
0.014934 -0.040196 0.426 -0.27528 -0.34691 -0.89659
0.014934 -0.039408 0.426 -0.28902 -0.33891 -0.89533
0.014934 -0.03862 0.426 -0.29356 -0.32852 -0.89772
0.014969 -0.03792 0.427 -0.29711 -0.31327 -0.90199
0.014969 -0.03713 0.427 -0.28182 -0.29252 -0.91379
0.014969 -0.03634 0.427 -0.25608 -0.26994 -0.9282
0.015004 -0.035634 0.428 -0.22612 -0.24224 -0.9435
0.015004 -0.034842 0.428 -0.17545 -0.22696 -0.95797
0.015004 -0.03405 0.428 -0.11385 -0.20883 -0.9713
0.015004 -0.033258 0.428 -0.025686 -0.18853 -0.98173
0.015004 -0.032466 0.428 0.073096 -0.16427 -0.9837
0.015004 -0.031674 0.428 0.17583 -0.16116 -0.97114
0.015004 -0.030883 0.428 0.26314 -0.15407 -0.95238
0.014969 -0.03002 0.427 0.33146 -0.14626 -0.93206
0.014969 -0.02923 0.427 0.38011 -0.1499 -0.91271
0.014934 -0.028374 0.426 0.4092 -0.15739 -0.89877
0.014934 -0.027586 0.426 0.41295 -0.17073 -0.89461
0.014934 -0.026797 0.426 0.39143 -0.18525 -0.90137
0.014899 -0.025948 0.425 0.35849 -0.18836 -0.91434
0.014899 -0.025162 0.425 0.30674 -0.18922 -0.9328
0.014899 -0.024376 0.425 0.25736 -0.19497 -0.94644
0.014863 -0.023534 0.424 0.21683 -0.20416 -0.95462
0.014863 -0.022749 0.424 0.18006 -0.20086 -0.96293
0.014863 -0.021965 0.424 0.12507 -0.20652 -0.97042
0.014863 -0.02118 0.424 0.067877 -0.21845 -0.97348
0.014863 -0.020396 0.424 0.01545 -0.22186 -0.97496
0.014863 -0.019611 0.424 -0.031858 -0.22956 -0.97277
0.014863 -0.018827 0.424 -0.075796 -0.23289 -0.96955
0.014863 -0.018043 0.424 -0.11821 -0.23576 -0.96459
0.014863 -0.017258 0.424 -0.17064 -0.23964 -0.95575
0.014899 -0.016512 0.425 -0.20671 -0.24398 -0.94749
0.014899 -0.015726 0.425 -0.2402 -0.25038 -0.93788
0.014899 -0.01494 0.425 -0.26243 -0.24798 -0.93254
0.014899 -0.014154 0.425 -0.28445 -0.24272 -0.92745
0.014934 -0.013399 0.426 -0.3169 -0.23509 -0.91886
0.014934 -0.012611 0.426 -0.34384 -0.22827 -0.91086
0.014934 -0.011822 0.426 -0.37637 -0.22256 -0.89934
0.014934 -0.011034 0.426 -0.40683 -0.21681 -0.8874
0.014969 -0.01027 0.427 -0.43887 -0.21106 -0.87341
0.014969 -0.0094801 0.427 -0.45915 -0.20952 -0.8633
0.015004 -0.0087105 0.428 -0.48131 -0.21382 -0.85007
0.015004 -0.0079186 0.428 -0.49204 -0.21319 -0.84407
0.015004 -0.0071267 0.428 -0.48457 -0.20932 -0.84934
0.015039 -0.0063497 0.429 -0.48094 -0.2217 -0.84826
0.015039 -0.005556 0.429 -0.4684 -0.22514 -0.85435
0.015074 -0.0047734 0.43 -0.46743 -0.24749 -0.84868
0.015074 -0.0039778 0.43 -0.45523 -0.25627 -0.8527
0.015074 -0.0031822 0.43 -0.4312 -0.24595 -0.86809
0.015109 -0.0023922 0.431 -0.46883 -0.27956 -0.83788
0.015109 -0.0015948 0.431 -0.477 -0.24941 -0.84277
0.015144 -0.00079926 0.432 -0.55874 -0.28092 -0.78031
0.015144 0 0.432 -0.51447 -0.26924 -0.81415
0.015179 0.00080111 0.433 -0.61364 -0.27084 -0.74168
0.015214 0.0016059 0.434 -0.67088 -0.25926 -0.69477
0.015249 0.0024144 0.435 -0.68766 -0.24775 -0.68246
0.015284 0.0032266 0.436 -0.6671 -0.23685 -0.70632
0.015319 0.0040426 0.437 -0.62975 -0.20518 -0.74921
0.015354 0.0048622 0.438 -0.58937 -0.17769 -0.78808
0.015389 0.0056855 0.439 -0.5845 -0.14669 -0.79802
0.015389 0.0064977 0.439 -0.6189 -0.14169 -0.77259
0.015389 0.0073099 0.439 -0.56877 -0.12641 -0.81272
0.015424 0.0081406 0.44 -0.58172 -0.10452 -0.80665
0.015459 0.008975 0.441 -0.68761 -0.093511 -0.72003
0.015494 0.0098131 0.442 -0.72735 -0.10059 -0.67886
0.015565 0.010679 0.444 -0.68774 -0.10354 -0.71854
0.0156 0.011526 0.445 -0.622 -0.11591 -0.77439
0.0156 0.01235 0.445 -0.67758 -0.13088 -0.72371
0.015635 0.013203 0.446 -0.64815 -0.14848 -0.7469
0.015635 0.014028 0.446 -0.56057 -0.15445 -0.81357
0.015635 0.014853 0.446 -0.32637 -0.17821 -0.92829
0.01609 0.016984 0.459 -0.19472 -0.43242 -0.8804
0.01609 0.017833 0.459 -0.2667 -0.43253 -0.86127
0.01609 0.018683 0.459 -0.30507 -0.42501 -0.85223
0.016125 0.019574 0.46 -0.23835 -0.42452 -0.87348
0.016125 0.020426 0.46 -0.25559 -0.41591 -0.87275
0.016125 0.021277 0.46 -0.22839 -0.3989 -0.8881
0.016161 0.022176 0.461 -0.39237 -0.4279 -0.81422
0.016161 0.023029 0.461 -0.36854 -0.4153 -0.83169
0.015904 -0.066982 0.431 0.59441 -0.13574 -0.79262
0.015867 -0.066031 0.43 0.49666 -0.12752 -0.85853
0.01583 -0.065084 0.429 0.42092 -0.11699 -0.89952
0.01583 -0.06429 0.429 0.46163 -0.12869 -0.87769
0.015793 -0.063349 0.428 0.42368 -0.13506 -0.89569
0.015793 -0.062557 0.428 0.45862 -0.13897 -0.8777
0.015793 -0.061765 0.428 0.43998 -0.1407 -0.88692
0.015756 -0.060831 0.427 0.39995 -0.14116 -0.9056
0.015756 -0.060041 0.427 0.37176 -0.13735 -0.91811
0.015756 -0.059251 0.427 0.33652 -0.14883 -0.92984
0.01572 -0.058324 0.426 0.31883 -0.15014 -0.93585
0.01572 -0.057536 0.426 0.28634 -0.15467 -0.94556
0.01572 -0.056747 0.426 0.24636 -0.15743 -0.95631
0.01572 -0.055959 0.426 0.21292 -0.15773 -0.96425
0.01572 -0.055171 0.426 0.17358 -0.16394 -0.97108
0.01572 -0.054383 0.426 0.14867 -0.16462 -0.97509
0.015683 -0.053469 0.425 0.12569 -0.16952 -0.97748
0.015683 -0.052683 0.425 0.10614 -0.18087 -0.97776
0.015683 -0.051896 0.425 0.085419 -0.19808 -0.97646
0.015683 -0.05111 0.425 0.070867 -0.21304 -0.97447
0.015683 -0.050324 0.425 0.054344 -0.22495 -0.97285
0.015683 -0.049537 0.425 0.043945 -0.24052 -0.96965
0.015683 -0.048751 0.425 0.035636 -0.25587 -0.96605
0.015683 -0.047965 0.425 0.0243 -0.27666 -0.96066
0.015683 -0.047179 0.425 0.011073 -0.29613 -0.95508
0.015683 -0.046392 0.425 -0.01301 -0.31338 -0.94954
0.015683 -0.045606 0.425 -0.034819 -0.32838 -0.9439
0.015683 -0.04482 0.425 -0.068116 -0.34358 -0.93665
0.015683 -0.044033 0.425 -0.10866 -0.35436 -0.92878
0.015683 -0.043247 0.425 -0.14181 -0.3613 -0.9216
0.015683 -0.042461 0.425 -0.17538 -0.36516 -0.91428
0.015683 -0.041674 0.425 -0.21637 -0.36785 -0.90436
0.01572 -0.040984 0.426 -0.25573 -0.36754 -0.89416
0.01572 -0.040196 0.426 -0.27855 -0.36354 -0.88896
0.01572 -0.039408 0.426 -0.28541 -0.34829 -0.89288
0.015756 -0.03871 0.427 -0.28349 -0.32888 -0.90081
0.015756 -0.03792 0.427 -0.27757 -0.3101 -0.90928
0.015756 -0.03713 0.427 -0.2531 -0.28528 -0.92442
0.015793 -0.036426 0.428 -0.22453 -0.25337 -0.94095
0.015793 -0.035634 0.428 -0.19504 -0.22044 -0.9557
0.015793 -0.034842 0.428 -0.14107 -0.19938 -0.96972
0.015793 -0.03405 0.428 -0.077993 -0.18011 -0.98055
0.015793 -0.033258 0.428 -0.0020673 -0.15668 -0.98765
0.015793 -0.032466 0.428 0.086773 -0.13495 -0.98705
0.015793 -0.031674 0.428 0.17763 -0.13031 -0.97543
0.015793 -0.030883 0.428 0.2584 -0.13184 -0.957
0.015793 -0.030091 0.428 0.31986 -0.13698 -0.93751
0.015756 -0.02923 0.427 0.36887 -0.14503 -0.9181
0.01572 -0.028374 0.426 0.3981 -0.15823 -0.90359
0.01572 -0.027586 0.426 0.40213 -0.1798 -0.89775
0.01572 -0.026797 0.426 0.38121 -0.20332 -0.90185
0.015683 -0.025948 0.425 0.34991 -0.21377 -0.91207
0.015683 -0.025162 0.425 0.3011 -0.2213 -0.92756
0.015683 -0.024376 0.425 0.24613 -0.22961 -0.94165
0.015683 -0.023589 0.425 0.20596 -0.24028 -0.9486
0.015646 -0.022749 0.424 0.16667 -0.24076 -0.95617
0.015646 -0.021965 0.424 0.10994 -0.24365 -0.96361
0.015646 -0.02118 0.424 0.052111 -0.24863 -0.9672
0.015646 -0.020396 0.424 0.0051093 -0.25374 -0.96726
0.015646 -0.019611 0.424 -0.036695 -0.26022 -0.96485
0.015646 -0.018827 0.424 -0.075286 -0.25871 -0.96302
0.015646 -0.018043 0.424 -0.1175 -0.25859 -0.95881
0.015683 -0.017299 0.425 -0.16353 -0.25913 -0.9519
0.015683 -0.016512 0.425 -0.19442 -0.2595 -0.94597
0.015683 -0.015726 0.425 -0.22828 -0.26214 -0.93764
0.015683 -0.01494 0.425 -0.25635 -0.25662 -0.9319
0.015683 -0.014154 0.425 -0.27948 -0.24947 -0.92718
0.01572 -0.013399 0.426 -0.31408 -0.23804 -0.91907
0.01572 -0.012611 0.426 -0.3433 -0.23459 -0.90945
0.01572 -0.011822 0.426 -0.37816 -0.22946 -0.89685
0.015756 -0.01106 0.427 -0.40525 -0.22523 -0.88603
0.015756 -0.01027 0.427 -0.43931 -0.22132 -0.87064
0.015756 -0.0094801 0.427 -0.458 -0.21684 -0.8621
0.015793 -0.0087105 0.428 -0.4864 -0.228 -0.84347
0.015793 -0.0079186 0.428 -0.4917 -0.22714 -0.84062
0.01583 -0.0071434 0.429 -0.49159 -0.24294 -0.83625
0.01583 -0.0063497 0.429 -0.48458 -0.2483 -0.83877
0.015867 -0.0055689 0.43 -0.4768 -0.26759 -0.83729
0.015867 -0.0047734 0.43 -0.46568 -0.28589 -0.83751
0.015904 -0.003987 0.431 -0.47432 -0.31909 -0.82049
0.015904 -0.0031896 0.431 -0.47223 -0.32791 -0.81821
0.015904 -0.0023922 0.431 -0.45327 -0.31528 -0.83375
0.015904 -0.0015948 0.431 -0.4425 -0.27819 -0.85253
0.015941 -0.00079926 0.432 -0.53849 -0.31277 -0.78243
0.015978 0 0.433 -0.60478 -0.31541 -0.73127
0.016015 0.00080296 0.434 -0.65377 -0.3098 -0.69037
0.016089 0.0016133 0.436 -0.63479 -0.26634 -0.72533
0.016089 0.00242 0.436 -0.65642 -0.2713 -0.70392
0.016125 0.003234 0.437 -0.61116 -0.22868 -0.75776
0.016162 0.0040518 0.438 -0.56621 -0.18356 -0.80356
0.016162 0.0048622 0.438 -0.58452 -0.20599 -0.7848
0.016199 0.0056855 0.439 -0.5795 -0.17826 -0.79524
0.016199 0.0064977 0.439 -0.60165 -0.16121 -0.78232
0.016199 0.0073099 0.439 -0.53532 -0.13788 -0.83332
0.016236 0.0081406 0.44 -0.55202 -0.13062 -0.82354
0.016273 0.008975 0.441 -0.67177 -0.088076 -0.7355
0.01631 0.0098131 0.442 -0.71997 -0.10811 -0.68553
0.016384 0.010679 0.444 -0.70146 -0.14241 -0.69834
0.016421 0.011526 0.445 -0.65968 -0.1459 -0.73725
0.016421 0.01235 0.445 -0.68171 -0.16366 -0.71308
0.016458 0.013203 0.446 -0.63524 -0.17625 -0.75193
0.016458 0.014028 0.446 -0.51508 -0.19784 -0.834
0.016494 0.014886 0.447 -0.49552 -0.21672 -0.84112
0.016974 0.01617 0.46 0.031906 -0.38124 -0.92392
0.016974 0.017021 0.46 -0.043349 -0.39518 -0.91758
0.016974 0.017872 0.46 -0.13868 -0.39561 -0.90789
0.016974 0.018723 0.46 -0.21536 -0.39531 -0.89295
0.016974 0.019574 0.46 -0.24498 -0.38737 -0.88878
0.016974 0.020426 0.46 -0.19226 -0.37129 -0.9084
0.017011 0.021323 0.461 -0.33605 -0.4007 -0.85236
0.017011 0.022176 0.461 -0.31677 -0.39359 -0.86298
0.017048 -0.074894 0.44 0.80327 -0.28272 -0.52424
0.016777 -0.069697 0.433 0.64761 -0.13991 -0.74902
0.016699 -0.066982 0.431 0.57601 -0.15351 -0.8029
0.016661 -0.066031 0.43 0.47452 -0.12452 -0.87139
0.016661 -0.065236 0.43 0.53654 -0.15564 -0.8294
0.016622 -0.06429 0.429 0.44517 -0.12943 -0.88604
0.016622 -0.063497 0.429 0.47416 -0.16052 -0.86568
0.016583 -0.062557 0.428 0.44889 -0.14003 -0.88255
0.016583 -0.061765 0.428 0.4366 -0.15352 -0.88646
0.016583 -0.060973 0.428 0.40117 -0.15964 -0.90199
0.016544 -0.060041 0.427 0.36415 -0.14755 -0.91958
0.016544 -0.059251 0.427 0.331 -0.16284 -0.92947
0.016544 -0.058461 0.427 0.3111 -0.16735 -0.93553
0.016506 -0.057536 0.426 0.27897 -0.17524 -0.94417
0.016506 -0.056747 0.426 0.23393 -0.18322 -0.95483
0.016506 -0.055959 0.426 0.2011 -0.18946 -0.96107
0.016506 -0.055171 0.426 0.16359 -0.1986 -0.96633
0.016506 -0.054383 0.426 0.13073 -0.19861 -0.97132
0.016506 -0.053595 0.426 0.10642 -0.20409 -0.97315
0.016506 -0.052807 0.426 0.087951 -0.21519 -0.9726
0.016467 -0.051896 0.425 0.070545 -0.23246 -0.97004
0.016467 -0.05111 0.425 0.055018 -0.24995 -0.9667
0.016467 -0.050324 0.425 0.038626 -0.26152 -0.96442
0.016467 -0.049537 0.425 0.029375 -0.27475 -0.96107
0.016467 -0.048751 0.425 0.023215 -0.28687 -0.95769
0.016467 -0.047965 0.425 0.015058 -0.30432 -0.95245
0.016467 -0.047179 0.425 0.00099738 -0.32325 -0.94631
0.016467 -0.046392 0.425 -0.021815 -0.33819 -0.94083
0.016467 -0.045606 0.425 -0.046265 -0.35437 -0.93396
0.016467 -0.04482 0.425 -0.08103 -0.36801 -0.92628
0.016467 -0.044033 0.425 -0.1171 -0.37832 -0.91824
0.016467 -0.043247 0.425 -0.14615 -0.38258 -0.91229
0.016506 -0.042561 0.426 -0.17993 -0.38451 -0.90542
0.016506 -0.041772 0.426 -0.22064 -0.38364 -0.89674
0.016506 -0.040984 0.426 -0.25491 -0.3827 -0.88801
0.016506 -0.040196 0.426 -0.27272 -0.37686 -0.88521
0.016544 -0.0395 0.427 -0.27039 -0.35484 -0.89497
0.016544 -0.03871 0.427 -0.26172 -0.32933 -0.90722
0.016544 -0.03792 0.427 -0.25077 -0.30297 -0.91941
0.016583 -0.037217 0.428 -0.22256 -0.26986 -0.93683
0.016583 -0.036426 0.428 -0.18848 -0.23769 -0.95288
0.016583 -0.035634 0.428 -0.1509 -0.20199 -0.96769
0.016583 -0.034842 0.428 -0.096362 -0.17686 -0.97951
0.016622 -0.03413 0.429 -0.041237 -0.15318 -0.98734
0.016583 -0.033258 0.428 0.01764 -0.12934 -0.99144
0.016583 -0.032466 0.428 0.093181 -0.11254 -0.98927
0.016583 -0.031674 0.428 0.17018 -0.10735 -0.97955
0.016583 -0.030883 0.428 0.24287 -0.11758 -0.96291
0.016583 -0.030091 0.428 0.3024 -0.13009 -0.94426
0.016544 -0.02923 0.427 0.34608 -0.14639 -0.92671
0.016544 -0.02844 0.427 0.37074 -0.16909 -0.91321
0.016506 -0.027586 0.426 0.38207 -0.1924 -0.90388
0.016506 -0.026797 0.426 0.36867 -0.21794 -0.90365
0.016506 -0.026009 0.426 0.34085 -0.23392 -0.91055
0.016467 -0.025162 0.425 0.29831 -0.24709 -0.92193
0.016467 -0.024376 0.425 0.24498 -0.26196 -0.93347
0.016467 -0.023589 0.425 0.2025 -0.26826 -0.94182
0.016467 -0.022803 0.425 0.16107 -0.27036 -0.94919
0.016467 -0.022017 0.425 0.10873 -0.2751 -0.95525
0.016428 -0.02118 0.424 0.055707 -0.27878 -0.95874
0.016428 -0.020396 0.424 0.0070968 -0.28107 -0.95966
0.016428 -0.019611 0.424 -0.042471 -0.28639 -0.95717
0.016428 -0.018827 0.424 -0.082733 -0.28474 -0.95503
0.016467 -0.018085 0.425 -0.12539 -0.28009 -0.95175
0.016467 -0.017299 0.425 -0.16649 -0.27838 -0.94593
0.016467 -0.016512 0.425 -0.19264 -0.2743 -0.94215
0.016467 -0.015726 0.425 -0.22663 -0.27317 -0.93489
0.016467 -0.01494 0.425 -0.25445 -0.27033 -0.92853
0.016506 -0.014187 0.426 -0.27795 -0.26167 -0.92427
0.016506 -0.013399 0.426 -0.30941 -0.25281 -0.91671
0.016506 -0.012611 0.426 -0.33537 -0.24868 -0.90867
0.016544 -0.01185 0.427 -0.37054 -0.2429 -0.89649
0.016544 -0.01106 0.427 -0.40299 -0.2402 -0.88312
0.016544 -0.01027 0.427 -0.43445 -0.23398 -0.86978
0.016583 -0.0095023 0.428 -0.46788 -0.2479 -0.84831
0.016583 -0.0087105 0.428 -0.48936 -0.249 -0.83578
0.016583 -0.0079186 0.428 -0.48774 -0.24672 -0.8374
0.016622 -0.0071434 0.429 -0.49719 -0.27472 -0.823
0.016622 -0.0063497 0.429 -0.4865 -0.27423 -0.82953
0.016661 -0.0055689 0.43 -0.48111 -0.30795 -0.82079
0.016661 -0.0047734 0.43 -0.46329 -0.31999 -0.82642
0.016699 -0.003987 0.431 -0.47677 -0.35478 -0.80425
0.016699 -0.0031896 0.431 -0.46843 -0.36017 -0.80675
0.016699 -0.0023922 0.431 -0.43085 -0.34108 -0.83548
0.016738 -0.0015985 0.432 -0.52025 -0.35895 -0.77492
0.016777 -0.00080111 0.433 -0.57125 -0.3633 -0.736
0.016815 0 0.434 -0.61672 -0.35659 -0.70178
0.016854 0.00080481 0.435 -0.64287 -0.34282 -0.68498
0.016893 0.0016133 0.436 -0.63543 -0.30279 -0.71031
0.016893 0.00242 0.436 -0.64159 -0.30009 -0.70591
0.016932 0.003234 0.437 -0.60373 -0.26193 -0.75293
0.01697 0.0040518 0.438 -0.56795 -0.22278 -0.79234
0.01697 0.0048622 0.438 -0.57475 -0.23494 -0.78388
0.017009 0.0056855 0.439 -0.57474 -0.20349 -0.79263
0.017009 0.0064977 0.439 -0.58192 -0.17745 -0.79365
0.017048 0.0073265 0.44 -0.59845 -0.1695 -0.78302
0.017048 0.0081406 0.44 -0.52755 -0.14626 -0.83684
0.017087 0.008975 0.441 -0.64961 -0.088648 -0.75508
0.017125 0.0098131 0.442 -0.70867 -0.10957 -0.69698
0.017203 0.010679 0.444 -0.70971 -0.17468 -0.68249
0.017242 0.011526 0.445 -0.68424 -0.17258 -0.70855
0.01728 0.012377 0.446 -0.65674 -0.19094 -0.72954
0.01728 0.013203 0.446 -0.62571 -0.2054 -0.75253
0.01728 0.014028 0.446 -0.47181 -0.24718 -0.84635
0.017319 0.014886 0.447 -0.44183 -0.2608 -0.85836
0.017823 0.01617 0.46 -0.065366 -0.36045 -0.93049
0.017823 0.017021 0.46 -0.1496 -0.37279 -0.91578
0.017823 0.017872 0.46 -0.22946 -0.37235 -0.89928
0.017823 0.018723 0.46 -0.27323 -0.36744 -0.88901
0.017823 0.019574 0.46 -0.23533 -0.35215 -0.90588
0.017862 0.02047 0.461 -0.2986 -0.3747 -0.87775
0.017862 0.021323 0.461 -0.28445 -0.36419 -0.88682
0.0179 0.022224 0.462 -0.4594 -0.38 -0.80284
0.017494 -0.066982 0.431 0.55515 -0.16163 -0.8159
0.017454 -0.066031 0.43 0.44624 -0.11318 -0.88773
0.017454 -0.065236 0.43 0.51311 -0.16579 -0.84216
0.017413 -0.06429 0.429 0.42178 -0.11861 -0.89891
0.017413 -0.063497 0.429 0.45947 -0.1702 -0.87173
0.017373 -0.062557 0.428 0.42963 -0.13271 -0.8932
0.017373 -0.061765 0.428 0.42834 -0.16255 -0.88888
0.017373 -0.060973 0.428 0.40165 -0.17699 -0.89853
0.017332 -0.060041 0.427 0.35336 -0.15144 -0.92315
0.017332 -0.059251 0.427 0.32548 -0.17074 -0.93
0.017332 -0.058461 0.427 0.30714 -0.17918 -0.93464
0.017292 -0.057536 0.426 0.27644 -0.18873 -0.94232
0.017292 -0.056747 0.426 0.22834 -0.20174 -0.95245
0.017292 -0.055959 0.426 0.19259 -0.20815 -0.95895
0.017292 -0.055171 0.426 0.15794 -0.21909 -0.96284
0.017292 -0.054383 0.426 0.12303 -0.22308 -0.96701
0.017292 -0.053595 0.426 0.096766 -0.22855 -0.96871
0.017292 -0.052807 0.426 0.077378 -0.23758 -0.96828
0.017292 -0.052019 0.426 0.060929 -0.25216 -0.96577
0.017292 -0.05123 0.426 0.042466 -0.27123 -0.96158
0.017292 -0.050442 0.426 0.024207 -0.28163 -0.95922
0.017292 -0.049654 0.426 0.014079 -0.29182 -0.95637
0.017292 -0.048866 0.426 0.0030045 -0.30462 -0.95247
0.017292 -0.048078 0.426 -0.007962 -0.32256 -0.94652
0.017251 -0.047179 0.425 -0.022791 -0.33993 -0.94017
0.017292 -0.046501 0.426 -0.04427 -0.35024 -0.93561
0.017292 -0.045713 0.426 -0.070257 -0.36588 -0.92801
0.017292 -0.044925 0.426 -0.098569 -0.38162 -0.91905
0.017292 -0.044137 0.426 -0.13189 -0.39553 -0.90893
0.017292 -0.043349 0.426 -0.1575 -0.40118 -0.90235
0.017292 -0.042561 0.426 -0.18752 -0.40218 -0.89615
0.017292 -0.041772 0.426 -0.2187 -0.40264 -0.88885
0.017292 -0.040984 0.426 -0.24418 -0.4009 -0.88298
0.017332 -0.04029 0.427 -0.25882 -0.38855 -0.88433
0.017332 -0.0395 0.427 -0.24607 -0.36292 -0.89874
0.017332 -0.03871 0.427 -0.2284 -0.33304 -0.91483
0.017373 -0.038009 0.428 -0.21027 -0.30095 -0.93017
0.017373 -0.037217 0.428 -0.17855 -0.26412 -0.94782
0.017373 -0.036426 0.428 -0.1393 -0.22447 -0.96447
0.017373 -0.035634 0.428 -0.10029 -0.1837 -0.97785
