-0.037611 -0.11063 0.453 0.66774 0.42554 -0.61078
-0.037445 -0.10931 0.451 0.35724 0.54351 -0.75959
-0.037362 -0.10823 0.45 0.196 0.49171 -0.84841
-0.037362 -0.1074 0.45 0.16812 0.46147 -0.87108
-0.037362 -0.10657 0.45 0.1137 0.41831 -0.90116
-0.037279 -0.1055 0.449 -0.011933 0.33195 -0.94322
-0.037362 -0.1049 0.45 -0.0088548 0.3 -0.9539
-0.037279 -0.10384 0.449 -0.031947 0.23942 -0.97039
-0.037362 -0.10324 0.45 -0.11041 0.1559 -0.98158
-0.037362 -0.10241 0.45 -0.18344 0.073951 -0.98025
-0.037362 -0.10157 0.45 -0.24148 -0.0057796 -0.97039
-0.037362 -0.10074 0.45 -0.27935 -0.067505 -0.95781
-0.037362 -0.099907 0.45 -0.32302 -0.12662 -0.93788
-0.037445 -0.099295 0.451 -0.35394 -0.17648 -0.91847
-0.037445 -0.098461 0.451 -0.38364 -0.2228 -0.8962
-0.037445 -0.097626 0.451 -0.39832 -0.26046 -0.87949
-0.037528 -0.097006 0.452 -0.40224 -0.28774 -0.86914
-0.037528 -0.09617 0.452 -0.39297 -0.30974 -0.86581
-0.037528 -0.095334 0.452 -0.36894 -0.32752 -0.86984
-0.037611 -0.094707 0.453 -0.3416 -0.3441 -0.87459
-0.037611 -0.093869 0.453 -0.3125 -0.3508 -0.88277
-0.037694 -0.093236 0.454 -0.2734 -0.35531 -0.89387
-0.037694 -0.092396 0.454 -0.23089 -0.36094 -0.90355
-0.037694 -0.091556 0.454 -0.18739 -0.36207 -0.91312
-0.037694 -0.090716 0.454 -0.14262 -0.36326 -0.92071
-0.037694 -0.089876 0.454 -0.11153 -0.3592 -0.92657
-0.037694 -0.089036 0.454 -0.087374 -0.35128 -0.93218
-0.037694 -0.088196 0.454 -0.062679 -0.35113 -0.93423
-0.037694 -0.087356 0.454 -0.040616 -0.35073 -0.9356
-0.037694 -0.086516 0.454 -0.028609 -0.35249 -0.93538
-0.037694 -0.085676 0.454 -0.013879 -0.34693 -0.93779
-0.037694 -0.084836 0.454 -0.0074144 -0.34289 -0.93935
-0.037694 -0.083996 0.454 0.0055714 -0.33799 -0.94113
-0.037694 -0.083156 0.454 0.0083776 -0.33139 -0.94346
-0.037694 -0.082316 0.454 0.000934 -0.32227 -0.94665
-0.037694 -0.081476 0.454 -0.0093999 -0.30371 -0.95272
-0.037694 -0.080636 0.454 -0.017058 -0.27784 -0.96048
-0.037694 -0.079796 0.454 -0.02389 -0.24776 -0.96853
-0.037694 -0.078957 0.454 -0.020302 -0.1986 -0.97987
-0.037777 -0.078289 0.455 -0.011704 -0.1352 -0.99075
-0.037777 -0.077447 0.455 0.010806 -0.064656 -0.99785
-0.037777 -0.076605 0.455 0.064829 0.016652 -0.99776
-0.037777 -0.075763 0.455 0.11224 0.082767 -0.99023
-0.037777 -0.074921 0.455 0.13571 0.12779 -0.98247
-0.037777 -0.07408 0.455 0.16072 0.16515 -0.97309
-0.037694 -0.073077 0.454 0.29122 0.2985 -0.90889
-0.037694 -0.072237 0.454 0.30683 0.33702 -0.8901
-0.037611 -0.07124 0.453 0.39681 0.43341 -0.80914
-0.037528 -0.070246 0.452 0.425 0.48512 -0.76422
-0.037528 -0.06941 0.452 0.4319 0.50363 -0.74821
-0.037445 -0.068422 0.451 0.43843 0.5406 -0.71801
-0.037362 -0.067438 0.45 0.43776 0.56917 -0.696
-0.037362 -0.066605 0.45 0.41948 0.58744 -0.69206
-0.037362 -0.065772 0.45 0.37534 0.58392 -0.71983
-0.037279 -0.064796 0.449 0.37528 0.62408 -0.68534
-0.037279 -0.063965 0.449 0.32448 0.61287 -0.72049
-0.037279 -0.063134 0.449 0.25142 0.59525 -0.76319
-0.037196 -0.062165 0.448 0.28231 0.67441 -0.68225
-0.036448 -0.044672 0.439 0.16258 0.88324 -0.43984
-0.036448 -0.043859 0.439 0.16802 0.87553 -0.45302
-0.036365 -0.042949 0.438 0.013786 0.87151 -0.49018
-0.036282 -0.042043 0.437 -0.10355 0.81919 -0.5641
-0.036282 -0.041234 0.437 -0.082673 0.81487 -0.57372
-0.036365 -0.040518 0.438 -0.036861 0.86786 -0.49543
-0.036365 -0.039708 0.438 -0.088519 0.86183 -0.49941
-0.036365 -0.038897 0.438 -0.12941 0.85264 -0.50621
-0.036448 -0.038174 0.439 -0.16543 0.85687 -0.48827
-0.036448 -0.037362 0.439 -0.16862 0.85435 -0.49158
-0.036531 -0.036633 0.44 -0.20097 0.83994 -0.50409
-0.036531 -0.035819 0.44 -0.11799 0.83615 -0.53566
-0.036531 -0.035005 0.44 -0.069247 0.83993 -0.53826
-0.036365 -0.031604 0.438 0.30277 0.78193 -0.5449
-0.036282 -0.030723 0.437 0.43482 0.73848 -0.51534
-0.03595 -0.027238 0.433 0.55885 0.58825 -0.58451
-0.035867 -0.026376 0.432 0.50552 0.55648 -0.65938
-0.035701 -0.023071 0.43 0.3236 0.6078 -0.72516
-0.035701 -0.022276 0.43 0.26685 0.64948 -0.71202
-0.035618 -0.02143 0.429 0.17029 0.58285 -0.79454
-0.035618 -0.020636 0.429 0.13336 0.61925 -0.77378
-0.035618 -0.019843 0.429 0.10408 0.64442 -0.75756
-0.035618 -0.019049 0.429 0.068665 0.66279 -0.74565
-0.035618 -0.018255 0.429 0.023667 0.67271 -0.73953
-0.035618 -0.017462 0.429 -0.028819 0.67533 -0.73695
-0.035618 -0.016668 0.429 -0.063131 0.67076 -0.73898
-0.035618 -0.015874 0.429 -0.077767 0.66376 -0.74389
-0.035618 -0.01508 0.429 -0.094427 0.65442 -0.75022
-0.035618 -0.014287 0.429 -0.081659 0.64209 -0.76227
-0.035701 -0.013525 0.43 -0.1718 0.72494 -0.66704
-0.035701 -0.012729 0.43 -0.16714 0.71045 -0.68362
-0.038939 0.016487 0.469 -0.3423 0.5185 -0.78357
-0.038939 0.017354 0.469 -0.38084 0.4641 -0.79974
-0.039022 0.018261 0.47 -0.29969 0.56328 -0.77
-0.039022 0.01913 0.47 -0.32064 0.522 -0.79038
-0.039105 0.020043 0.471 -0.4039 0.57129 -0.71448
-0.039105 0.020914 0.471 -0.35463 0.54575 -0.75921
-0.036775 -0.11231 0.453 0.63113 0.53773 -0.55903
-0.036613 -0.11098 0.451 0.39698 0.59559 -0.69834
-0.036613 -0.11014 0.451 0.41587 0.56201 -0.71498
-0.03645 -0.10882 0.449 0.050882 0.51813 -0.85379
-0.03645 -0.10799 0.449 0.058139 0.49876 -0.86479
-0.03645 -0.10716 0.449 0.037449 0.47335 -0.88008
-0.03645 -0.10633 0.449 -0.017714 0.43744 -0.89907
-0.03645 -0.1055 0.449 -0.057805 0.39671 -0.91612
-0.03645 -0.10467 0.449 -0.097783 0.34672 -0.93286
-0.03645 -0.10384 0.449 -0.11359 0.29453 -0.94887
-0.03645 -0.10301 0.449 -0.18451 0.21832 -0.95828
-0.036531 -0.10241 0.45 -0.25074 0.14071 -0.95777
-0.036531 -0.10157 0.45 -0.30553 0.06037 -0.95027
-0.036531 -0.10074 0.45 -0.33983 -0.0037343 -0.94048
-0.036531 -0.099907 0.45 -0.37857 -0.067807 -0.92309
-0.036613 -0.099295 0.451 -0.40014 -0.12852 -0.9074
-0.036613 -0.098461 0.451 -0.42525 -0.18262 -0.88646
-0.036694 -0.097843 0.452 -0.4318 -0.22609 -0.87318
-0.036694 -0.097006 0.452 -0.42964 -0.26373 -0.86363
-0.036694 -0.09617 0.452 -0.41104 -0.29571 -0.86232
-0.036775 -0.095545 0.453 -0.384 -0.31269 -0.86878
-0.036775 -0.094707 0.453 -0.3527 -0.33362 -0.87424
-0.036856 -0.094076 0.454 -0.31696 -0.34734 -0.88255
-0.036856 -0.093236 0.454 -0.27267 -0.35463 -0.89437
-0.036856 -0.092396 0.454 -0.22398 -0.36307 -0.90444
-0.036856 -0.091556 0.454 -0.18331 -0.37008 -0.91074
-0.036856 -0.090716 0.454 -0.13645 -0.37757 -0.91587
-0.036856 -0.089876 0.454 -0.10791 -0.37891 -0.91912
-0.036856 -0.089036 0.454 -0.086391 -0.37816 -0.9217
-0.036856 -0.088196 0.454 -0.060218 -0.37578 -0.92475
-0.036856 -0.087356 0.454 -0.037476 -0.37463 -0.92642
-0.036856 -0.086516 0.454 -0.025568 -0.3779 -0.92549
-0.036856 -0.085676 0.454 -0.011886 -0.37565 -0.92669
-0.036856 -0.084836 0.454 -0.0018331 -0.37017 -0.92896
-0.036856 -0.083996 0.454 0.014698 -0.36459 -0.93105
-0.036856 -0.083156 0.454 0.025817 -0.35493 -0.93454
-0.036856 -0.082316 0.454 0.020431 -0.3371 -0.94125
-0.036856 -0.081476 0.454 0.014995 -0.31216 -0.94991
-0.036856 -0.080636 0.454 0.014219 -0.27698 -0.96077
-0.036937 -0.079972 0.455 0.015313 -0.23383 -0.97216
-0.036937 -0.07913 0.455 0.028093 -0.17582 -0.98402
-0.036937 -0.078289 0.455 0.051816 -0.1053 -0.99309
-0.036937 -0.077447 0.455 0.088228 -0.025418 -0.99578
-0.036937 -0.076605 0.455 0.14773 0.059123 -0.98726
-0.036937 -0.075763 0.455 0.18194 0.11319 -0.97677
-0.036856 -0.074757 0.454 0.26394 0.21049 -0.94129
-0.036856 -0.073917 0.454 0.31244 0.26093 -0.9134
-0.036856 -0.073077 0.454 0.33399 0.29914 -0.89385
-0.036775 -0.072078 0.453 0.41863 0.39834 -0.81613
-0.036694 -0.071082 0.452 0.45729 0.44166 -0.7719
-0.036694 -0.070246 0.452 0.45989 0.46687 -0.75534
-0.036613 -0.069256 0.451 0.474 0.49915 -0.72538
-0.036531 -0.06827 0.45 0.48184 0.53019 -0.69766
-0.036531 -0.067438 0.45 0.4566 0.54341 -0.70443
-0.03645 -0.066457 0.449 0.44818 0.57379 -0.6855
-0.03645 -0.065626 0.449 0.40378 0.57325 -0.71298
-0.03645 -0.064796 0.449 0.34765 0.54832 -0.76058
-0.036369 -0.063822 0.448 0.35776 0.62607 -0.69286
-0.035476 -0.044468 0.437 0.10127 0.87207 -0.47878
-0.035476 -0.04366 0.437 0.095916 0.87099 -0.48185
-0.035395 -0.042753 0.436 -0.044395 0.86119 -0.50634
-0.035395 -0.041946 0.436 -0.042664 0.86147 -0.50602
-0.035395 -0.04114 0.436 -0.03008 0.8599 -0.50958
-0.035395 -0.040333 0.436 -0.022914 0.85677 -0.51518
-0.035476 -0.039617 0.437 -0.092259 0.86988 -0.48456
-0.035476 -0.038809 0.437 -0.13613 0.871 -0.47204
-0.035476 -0.038 0.437 -0.16423 0.86782 -0.46896
-0.035557 -0.037277 0.438 -0.18205 0.84809 -0.49759
-0.035557 -0.036466 0.438 -0.1604 0.85689 -0.48992
-0.035638 -0.035737 0.439 -0.075984 0.79763 -0.59834
-0.035638 -0.034925 0.439 0.000521 0.79172 -0.61088
-0.035638 -0.034113 0.439 -0.022332 0.81802 -0.57476
-0.035557 -0.033225 0.438 0.074765 0.84998 -0.52148
-0.035557 -0.032414 0.438 0.089699 0.84946 -0.51998
-0.035476 -0.031532 0.437 0.32819 0.79466 -0.5107
-0.035395 -0.030653 0.436 0.42885 0.74384 -0.51263
-0.035232 -0.02971 0.434 0.54726 0.58202 -0.60146
-0.035151 -0.02884 0.433 0.59019 0.50676 -0.62838
-0.035151 -0.028039 0.433 0.56318 0.59868 -0.56957
-0.03507 -0.027175 0.432 0.54888 0.5545 -0.62551
-0.034989 -0.026315 0.431 0.49879 0.51278 -0.69876
-0.034989 -0.025517 0.431 0.45037 0.60608 -0.65561
-0.034908 -0.024662 0.43 0.40909 0.56248 -0.71851
-0.034908 -0.023867 0.43 0.36923 0.62404 -0.68865
-0.034827 -0.023018 0.429 0.30436 0.57433 -0.75994
-0.034827 -0.022224 0.429 0.25722 0.61168 -0.74812
-0.034827 -0.02143 0.429 0.21451 0.64154 -0.73648
-0.034745 -0.020588 0.428 0.12253 0.598 -0.79208
-0.034745 -0.019796 0.428 0.097174 0.62491 -0.77463
-0.034745 -0.019005 0.428 0.066374 0.64347 -0.76259
-0.034745 -0.018213 0.428 0.026364 0.65298 -0.75692
-0.034745 -0.017421 0.428 -0.021677 0.65755 -0.7531
-0.034745 -0.016629 0.428 -0.046641 0.65415 -0.75493
-0.034745 -0.015837 0.428 -0.051395 0.64754 -0.7603
-0.034745 -0.015045 0.428 -0.063976 0.63612 -0.76893
-0.034745 -0.014253 0.428 -0.050777 0.62184 -0.7815
-0.034827 -0.013493 0.429 -0.14663 0.69643 -0.70248
-0.034827 -0.012699 0.429 -0.14547 0.68464 -0.71422
-0.037993 0.017317 0.468 -0.42114 0.39941 -0.81432
-0.038074 0.018222 0.469 -0.31525 0.51217 -0.79893
-0.038074 0.01909 0.469 -0.29549 0.48558 -0.82274
-0.038155 0.02 0.47 -0.34655 0.54539 -0.76319
-0.038236 0.020914 0.471 -0.45661 0.5631 -0.68879
-0.035701 -0.11156 0.45 0.25652 0.66458 -0.7018
-0.035701 -0.11073 0.45 0.29005 0.64204 -0.70969
-0.035542 -0.10941 0.448 -0.10289 0.51381 -0.85171
-0.035622 -0.10882 0.449 0.077769 0.58987 -0.80375
-0.035622 -0.10799 0.449 0.061128 0.56208 -0.82482
-0.035622 -0.10716 0.449 0.019905 0.52575 -0.8504
-0.035542 -0.10609 0.448 -0.11924 0.4351 -0.89245
-0.035622 -0.1055 0.449 -0.10151 0.43619 -0.89411
-0.035622 -0.10467 0.449 -0.15465 0.37843 -0.91262
-0.035622 -0.10384 0.449 -0.18394 0.32815 -0.92654
-0.035622 -0.10301 0.449 -0.24884 0.25559 -0.93421
-0.035622 -0.10218 0.449 -0.31263 0.18001 -0.93266
-0.035701 -0.10157 0.45 -0.36244 0.10117 -0.9265
-0.035701 -0.10074 0.45 -0.40016 0.03636 -0.91572
-0.035701 -0.099907 0.45 -0.42533 -0.021787 -0.90478
-0.03578 -0.099295 0.451 -0.44531 -0.091271 -0.89071
-0.03578 -0.098461 0.451 -0.46444 -0.14287 -0.87401
-0.03586 -0.097843 0.452 -0.46607 -0.20045 -0.86174
-0.03586 -0.097006 0.452 -0.45872 -0.2434 -0.8546
-0.035939 -0.096383 0.453 -0.43633 -0.27984 -0.85516
-0.035939 -0.095545 0.453 -0.40077 -0.30379 -0.86435
-0.036018 -0.094916 0.454 -0.35949 -0.334 -0.87133
-0.036018 -0.094076 0.454 -0.31806 -0.35462 -0.87925
-0.036018 -0.093236 0.454 -0.27054 -0.36736 -0.88986
-0.036018 -0.092396 0.454 -0.22284 -0.37808 -0.89855
-0.036098 -0.091758 0.455 -0.18187 -0.38318 -0.90559
-0.036098 -0.090916 0.455 -0.13614 -0.39211 -0.90979
-0.036098 -0.090074 0.455 -0.10848 -0.39873 -0.91063
-0.036098 -0.089232 0.455 -0.08816 -0.39652 -0.91378
-0.036098 -0.08839 0.455 -0.063114 -0.39652 -0.91585
-0.036098 -0.087549 0.455 -0.041477 -0.39924 -0.91591
-0.036098 -0.086707 0.455 -0.025206 -0.40398 -0.91442
-0.036098 -0.085865 0.455 -0.0072273 -0.3973 -0.91766
-0.036098 -0.085023 0.455 0.0063553 -0.3866 -0.92222
-0.036098 -0.084181 0.455 0.025528 -0.37641 -0.9261
-0.036098 -0.08334 0.455 0.043114 -0.36042 -0.93179
-0.036098 -0.082498 0.455 0.042619 -0.33539 -0.94112
-0.036098 -0.081656 0.455 0.044935 -0.3062 -0.95091
-0.036098 -0.080814 0.455 0.054029 -0.26467 -0.96282
-0.036098 -0.079972 0.455 0.066211 -0.21339 -0.97472
-0.036098 -0.07913 0.455 0.095003 -0.14598 -0.98472
-0.036098 -0.078289 0.455 0.1276 -0.068967 -0.98942
-0.036098 -0.077447 0.455 0.16976 0.017412 -0.98533
-0.036098 -0.076605 0.455 0.21873 0.084511 -0.97212
-0.036018 -0.075597 0.454 0.29968 0.1771 -0.93746
-0.036018 -0.074757 0.454 0.33422 0.23105 -0.91374
-0.036018 -0.073917 0.454 0.36988 0.26375 -0.89086
-0.035939 -0.072916 0.453 0.44752 0.34911 -0.82332
-0.03586 -0.071919 0.452 0.47595 0.39653 -0.78501
-0.03578 -0.070925 0.451 0.5066 0.43705 -0.7432
-0.03578 -0.070091 0.451 0.5037 0.45774 -0.73264
-0.035701 -0.069103 0.45 0.51436 0.48445 -0.70763
-0.035701 -0.06827 0.45 0.49676 0.49418 -0.71345
-0.035622 -0.067288 0.449 0.48776 0.52569 -0.69695
-0.035622 -0.066457 0.449 0.43878 0.51568 -0.7359
-0.035622 -0.065626 0.449 0.36703 0.48985 -0.79078
-0.035542 -0.064651 0.448 0.39365 0.56062 -0.72852
-0.03459 -0.044366 0.436 0.18078 0.85733 -0.48197
-0.034511 -0.04346 0.435 0.014391 0.8618 -0.50705
-0.034511 -0.042655 0.435 0.0042647 0.86286 -0.50543
-0.034511 -0.04185 0.435 -0.0094923 0.8653 -0.50116
-0.034511 -0.041045 0.435 -0.02095 0.86776 -0.49655
-0.034511 -0.040241 0.435 -0.02241 0.86711 -0.49761
-0.034511 -0.039436 0.435 -0.069348 0.86407 -0.49857
-0.03459 -0.03872 0.436 -0.13129 0.8724 -0.47083
-0.03459 -0.037913 0.436 -0.16539 0.87255 -0.45967
-0.03459 -0.037106 0.436 -0.17485 0.86944 -0.46207
-0.03459 -0.0363 0.436 -0.15621 0.86783 -0.47167
-0.03467 -0.035574 0.437 -0.070043 0.8412 -0.53616
-0.03467 -0.034766 0.437 0.0061271 0.83458 -0.55085
-0.034749 -0.034035 0.438 0.034795 0.7542 -0.65572
-0.03467 -0.033149 0.437 0.14924 0.82448 -0.54585
-0.03467 -0.03234 0.437 0.16401 0.82464 -0.54135
-0.03459 -0.03146 0.436 0.3276 0.7827 -0.5292
-0.034511 -0.030583 0.435 0.42063 0.73232 -0.53551
-0.034352 -0.029641 0.433 0.50388 0.58515 -0.63538
-0.034352 -0.02884 0.433 0.53694 0.62364 -0.56812
-0.034273 -0.027974 0.432 0.55022 0.56365 -0.61608
-0.034194 -0.027112 0.431 0.53669 0.50798 -0.67374
-0.034114 -0.026253 0.43 0.48986 0.4712 -0.73349
-0.034114 -0.025458 0.43 0.4539 0.56028 -0.69286
-0.034035 -0.024605 0.429 0.39791 0.52663 -0.75121
-0.034035 -0.023811 0.429 0.35603 0.58132 -0.73165
-0.033956 -0.022964 0.428 0.27469 0.55114 -0.7879
-0.033956 -0.022172 0.428 0.23931 0.58793 -0.77271
-0.033956 -0.02138 0.428 0.19954 0.61345 -0.76411
-0.033876 -0.02054 0.427 0.11607 0.60379 -0.78865
-0.033876 -0.01975 0.427 0.10321 0.6195 -0.77818
-0.033876 -0.01896 0.427 0.073027 0.63462 -0.76936
-0.033876 -0.01817 0.427 0.031248 0.64366 -0.76467
-0.033876 -0.01738 0.427 -0.012671 0.64603 -0.76321
-0.033876 -0.01659 0.427 -0.033512 0.64258 -0.76549
-0.033876 -0.0158 0.427 -0.033751 0.63372 -0.77283
-0.033956 -0.015045 0.428 -0.11172 0.6668 -0.73682
-0.033956 -0.014253 0.428 -0.11412 0.6687 -0.73472
-0.033956 -0.013462 0.428 -0.11496 0.66477 -0.73815
-0.033956 -0.01267 0.428 -0.11342 0.64923 -0.75209
-0.033956 -0.011878 0.428 -0.11702 0.62523 -0.77162
-0.034035 -0.011112 0.429 -0.18779 0.69745 -0.69159
-0.034035 -0.010318 0.429 -0.18728 0.68103 -0.7079
-0.034035 -0.0095245 0.429 -0.20572 0.65024 -0.73134
-0.034035 -0.0087308 0.429 -0.27386 0.59019 -0.75939
-0.034114 -0.0079556 0.43 -0.36467 0.65438 -0.66242
-0.037129 0.017317 0.468 -0.33512 0.5168 -0.78779
-0.037129 0.018183 0.468 -0.32051 0.4843 -0.81408
-0.037208 0.01909 0.469 -0.30704 0.55854 -0.77056
-0.037208 0.019957 0.469 -0.2842 0.53778 -0.79374
-0.037288 0.02087 0.47 -0.38572 0.56086 -0.73257
-0.034793 -0.11132 0.449 0.17832 0.6702 -0.72044
-0.034716 -0.11024 0.448 -0.021388 0.61563 -0.78774
-0.034716 -0.10941 0.448 -0.029377 0.58966 -0.80712
-0.034716 -0.10858 0.448 -0.053989 0.56076 -0.82621
-0.034716 -0.10775 0.448 -0.063382 0.53294 -0.84377
-0.034716 -0.10692 0.448 -0.093891 0.50219 -0.85964
-0.034716 -0.10609 0.448 -0.13565 0.46709 -0.87374
-0.034716 -0.10527 0.448 -0.17488 0.43159 -0.88495
-0.034716 -0.10444 0.448 -0.20446 0.39149 -0.89718
-0.034793 -0.10384 0.449 -0.23179 0.34585 -0.90921
-0.034793 -0.10301 0.449 -0.29166 0.28006 -0.9146
-0.034793 -0.10218 0.449 -0.35047 0.22163 -0.90997
-0.034871 -0.10157 0.45 -0.40823 0.14007 -0.90207
-0.034871 -0.10074 0.45 -0.4484 0.071406 -0.89097
-0.034871 -0.099907 0.45 -0.46886 0.025357 -0.88291
-0.034948 -0.099295 0.451 -0.49744 -0.065295 -0.86504
-0.035026 -0.098679 0.452 -0.50699 -0.13559 -0.85122
-0.035026 -0.097843 0.452 -0.50008 -0.18414 -0.84617
-0.035026 -0.097006 0.452 -0.49273 -0.21238 -0.84387
-0.035103 -0.096383 0.453 -0.4633 -0.27708 -0.84177
-0.035181 -0.095756 0.454 -0.42282 -0.30353 -0.85387
-0.035181 -0.094916 0.454 -0.36994 -0.33927 -0.86489
-0.035181 -0.094076 0.454 -0.32993 -0.35737 -0.87374
-0.035181 -0.093236 0.454 -0.27327 -0.3797 -0.88383
-0.035258 -0.092599 0.455 -0.21549 -0.39156 -0.89456
-0.035258 -0.091758 0.455 -0.18081 -0.39597 -0.90029
-0.035258 -0.090916 0.455 -0.13672 -0.40992 -0.90182
-0.035258 -0.090074 0.455 -0.11013 -0.41715 -0.90214
-0.035258 -0.089232 0.455 -0.090767 -0.41797 -0.90391
-0.035258 -0.08839 0.455 -0.06783 -0.41654 -0.90658
-0.035258 -0.087549 0.455 -0.04384 -0.41489 -0.90882
-0.035258 -0.086707 0.455 -0.025049 -0.41663 -0.90873
-0.035258 -0.085865 0.455 -0.0044894 -0.41009 -0.91204
-0.035258 -0.085023 0.455 0.020752 -0.3995 -0.9165
-0.035258 -0.084181 0.455 0.045365 -0.38544 -0.92162
-0.035258 -0.08334 0.455 0.072202 -0.36457 -0.92837
-0.035258 -0.082498 0.455 0.07858 -0.33466 -0.93906
-0.035258 -0.081656 0.455 0.088971 -0.29513 -0.95131
-0.035258 -0.080814 0.455 0.10635 -0.24147 -0.96456
-0.035258 -0.079972 0.455 0.12687 -0.1754 -0.97629
-0.035258 -0.07913 0.455 0.16791 -0.10489 -0.98021
-0.035258 -0.078289 0.455 0.20514 -0.028813 -0.97831
-0.035258 -0.077447 0.455 0.24849 0.055066 -0.96707
-0.035258 -0.076605 0.455 0.28221 0.10866 -0.95318
-0.035181 -0.075597 0.454 0.3663 0.19334 -0.91019
-0.035181 -0.074757 0.454 0.3897 0.23171 -0.89132
-0.035103 -0.073754 0.453 0.47314 0.29944 -0.82854
-0.035103 -0.072916 0.453 0.48894 0.33054 -0.80727
-0.035026 -0.071919 0.452 0.51274 0.37151 -0.774
-0.034948 -0.070925 0.451 0.53676 0.40459 -0.74041
-0.034871 -0.069935 0.45 0.54951 0.438 -0.71147
-0.034871 -0.069103 0.45 0.52992 0.44577 -0.72144
-0.034793 -0.068118 0.449 0.53095 0.47726 -0.70022
-0.034793 -0.067288 0.449 0.47742 0.46539 -0.74531
-0.034716 -0.066309 0.448 0.49204 0.52269 -0.6962
-0.034716 -0.06548 0.448 0.4239 0.50499 -0.75186
-0.034716 -0.064651 0.448 0.35739 0.47042 -0.80683
-0.033631 -0.044163 0.434 0.071864 0.8482 -0.52478
-0.033631 -0.04336 0.434 0.063274 0.85334 -0.51751
-0.033631 -0.042557 0.434 0.038762 0.85653 -0.51464
-0.033554 -0.041658 0.433 -0.05737 0.82492 -0.56233
-0.033554 -0.040857 0.433 -0.021006 0.8223 -0.56866
-0.033631 -0.040148 0.434 -0.024376 0.86327 -0.50415
-0.033631 -0.039345 0.434 -0.057493 0.86315 -0.50166
-0.033631 -0.038542 0.434 -0.090334 0.86214 -0.49856
-0.033631 -0.037739 0.434 -0.12465 0.8585 -0.49743
-0.033631 -0.036936 0.434 -0.14192 0.85343 -0.50152
-0.033631 -0.036133 0.434 -0.14851 0.84072 -0.52071
-0.033708 -0.035412 0.435 -0.11238 0.85135 -0.51241
-0.033708 -0.034607 0.435 -0.053197 0.84217 -0.53658
-0.033786 -0.03388 0.436 0.083136 0.79906 -0.59547
-0.033786 -0.033073 0.436 0.17063 0.7759 -0.60734
-0.033708 -0.032192 0.435 0.23347 0.78703 -0.57103
-0.033708 -0.031388 0.435 0.3498 0.73683 -0.57856
-0.033631 -0.030512 0.434 0.43217 0.70072 -0.56764
-0.033554 -0.029641 0.433 0.46218 0.66962 -0.58138
-0.033476 -0.028773 0.432 0.51872 0.59318 -0.61568
-0.033399 -0.027909 0.431 0.53555 0.51585 -0.66864
-0.033321 -0.027049 0.43 0.51681 0.46336 -0.71987
-0.033321 -0.026253 0.43 0.48997 0.53691 -0.68677
-0.033244 -0.025399 0.429 0.447 0.50876 -0.73577
-0.033166 -0.024548 0.428 0.36721 0.48763 -0.79207
-0.033166 -0.023756 0.428 0.34421 0.54288 -0.76603
-0.033166 -0.022964 0.428 0.31816 0.57285 -0.75539
-0.033166 -0.022172 0.428 0.27771 0.595 -0.75422
-0.033089 -0.02133 0.427 0.20273 0.58888 -0.78238
-0.033089 -0.02054 0.427 0.16204 0.61008 -0.77559
-0.033089 -0.01975 0.427 0.12956 0.62218 -0.77208
-0.033089 -0.01896 0.427 0.081749 0.63463 -0.76848
-0.033089 -0.01817 0.427 0.034554 0.64188 -0.76602
-0.033089 -0.01738 0.427 -0.01531 0.64646 -0.76279
-0.033089 -0.01659 0.427 -0.048744 0.64838 -0.75975
-0.033089 -0.0158 0.427 -0.062784 0.64839 -0.75872
-0.033089 -0.01501 0.427 -0.083691 0.6478 -0.7572
-0.033089 -0.01422 0.427 -0.087391 0.6474 -0.75712
-0.033089 -0.01343 0.427 -0.091005 0.64142 -0.76178
-0.033166 -0.01267 0.428 -0.16154 0.6803 -0.71491
-0.033166 -0.011878 0.428 -0.16738 0.67451 -0.71904
-0.033166 -0.011086 0.428 -0.17119 0.66372 -0.72813
-0.033166 -0.010294 0.428 -0.17612 0.64704 -0.74184
-0.033166 -0.0095023 0.428 -0.20465 0.60996 -0.76555
-0.033166 -0.0087105 0.428 -0.27542 0.54402 -0.79258
-0.033244 -0.0079371 0.429 -0.36381 0.61249 -0.70178
-0.033244 -0.0071434 0.429 -0.44825 0.51623 -0.72978
-0.033321 -0.0063645 0.43 -0.50348 0.57392 -0.64585
-0.033399 -0.0055819 0.431 -0.52534 0.61706 -0.58588
-0.033476 -0.0047956 0.432 -0.54416 0.64719 -0.53388
-0.033554 -0.0040056 0.433 -0.53646 0.67203 -0.51048
-0.033554 -0.0032044 0.433 -0.55211 0.58911 -0.59002
-0.033631 -0.0024089 0.434 -0.50959 0.62371 -0.59271
-0.036188 0.014688 0.467 -0.17612 0.59032 -0.78772
-0.036188 0.015552 0.467 -0.26516 0.56672 -0.78008
-0.036188 0.016416 0.467 -0.34348 0.53424 -0.77241
-0.036266 0.017317 0.468 -0.24908 0.58638 -0.77079
-0.036266 0.018183 0.468 -0.29549 0.55862 -0.77501
-0.036266 0.019049 0.468 -0.29729 0.53883 -0.78821
-0.036343 0.019957 0.469 -0.36051 0.56578 -0.74157
-0.036343 0.020825 0.469 -0.32895 0.55424 -0.7646
-0.033965 -0.11215 0.449 0.28561 0.6728 -0.68247
-0.033889 -0.11107 0.448 0.083286 0.66846 -0.73907
-0.033814 -0.10999 0.447 -0.13042 0.58843 -0.79796
-0.033814 -0.10917 0.447 -0.13622 0.56177 -0.816
-0.033814 -0.10834 0.447 -0.14022 0.53793 -0.83125
-0.033814 -0.10751 0.447 -0.13405 0.51526 -0.84648
-0.033814 -0.10668 0.447 -0.14722 0.49189 -0.85812
-0.033814 -0.10586 0.447 -0.18425 0.46082 -0.86816
-0.033889 -0.10527 0.448 -0.20684 0.43822 -0.87474
-0.033889 -0.10444 0.448 -0.23418 0.40196 -0.88521
-0.033889 -0.10361 0.448 -0.27293 0.35616 -0.89368
-0.033965 -0.10301 0.449 -0.33648 0.29067 -0.89571
-0.033965 -0.10218 0.449 -0.38922 0.23713 -0.8901
-0.033965 -0.10135 0.449 -0.44194 0.17951 -0.8789
-0.034041 -0.10074 0.45 -0.48552 0.10376 -0.86805
-0.034041 -0.099907 0.45 -0.50084 0.070381 -0.86267
-0.034116 -0.099295 0.451 -0.537 -0.02965 -0.84306
-0.034192 -0.098679 0.452 -0.54549 -0.10632 -0.83135
-0.034192 -0.097843 0.452 -0.53624 -0.13961 -0.83244
-0.034268 -0.097221 0.453 -0.52668 -0.23264 -0.81761
-0.034268 -0.096383 0.453 -0.49813 -0.26055 -0.82703
-0.034343 -0.095756 0.454 -0.44616 -0.30687 -0.8407
-0.034343 -0.094916 0.454 -0.39771 -0.33263 -0.85509
-0.034419 -0.094283 0.455 -0.33759 -0.36801 -0.86637
-0.034419 -0.093441 0.455 -0.2672 -0.39843 -0.87741
-0.034419 -0.092599 0.455 -0.21188 -0.40691 -0.88855
-0.034419 -0.091758 0.455 -0.17043 -0.41789 -0.89237
-0.034419 -0.090916 0.455 -0.13144 -0.42402 -0.89606
-0.034419 -0.090074 0.455 -0.10495 -0.43182 -0.89583
-0.034419 -0.089232 0.455 -0.091839 -0.43239 -0.897
-0.034494 -0.088585 0.456 -0.066222 -0.43321 -0.89886
-0.034494 -0.087741 0.456 -0.035414 -0.43174 -0.9013
-0.034494 -0.086897 0.456 -0.010614 -0.43486 -0.90044
-0.034494 -0.086054 0.456 0.015053 -0.43268 -0.90142
-0.034494 -0.08521 0.456 0.043631 -0.42001 -0.90647
-0.034494 -0.084366 0.456 0.068997 -0.4039 -0.9122
-0.034494 -0.083523 0.456 0.10401 -0.37611 -0.92072
-0.034494 -0.082679 0.456 0.11642 -0.34006 -0.93317
-0.034419 -0.081656 0.455 0.13428 -0.29107 -0.94723
-0.034419 -0.080814 0.455 0.16375 -0.22087 -0.96146
-0.034419 -0.079972 0.455 0.1948 -0.1457 -0.96996
-0.034419 -0.07913 0.455 0.23841 -0.069423 -0.96868
-0.034419 -0.078289 0.455 0.28063 0.0084803 -0.95978
-0.034419 -0.077447 0.455 0.31196 0.076812 -0.94699
-0.034343 -0.076437 0.454 0.37917 0.16397 -0.91068
-0.034343 -0.075597 0.454 0.4206 0.20943 -0.88274
-0.034268 -0.074592 0.453 0.47432 0.27062 -0.83773
-0.034268 -0.073754 0.453 0.5063 0.29718 -0.80953
-0.034192 -0.072755 0.452 0.5283 0.33825 -0.77877
-0.034116 -0.071759 0.451 0.55083 0.37059 -0.74783
-0.034116 -0.070925 0.451 0.54555 0.3733 -0.75035
-0.034041 -0.069935 0.45 0.56013 0.40811 -0.7209
-0.033965 -0.068949 0.449 0.56137 0.44062 -0.70051
-0.033965 -0.068118 0.449 0.51903 0.42854 -0.73957
-0.033889 -0.067138 0.448 0.53613 0.47971 -0.69458
-0.032755 -0.044061 0.433 0.12678 0.83614 -0.53367
-0.032755 -0.04326 0.433 0.12533 0.83943 -0.52882
-0.032679 -0.042361 0.432 -0.035799 0.82727 -0.56066
-0.032679 -0.041562 0.432 -0.021929 0.82774 -0.56068
-0.032679 -0.040762 0.432 -0.0088511 0.82682 -0.5624
-0.032679 -0.039963 0.432 -0.001227 0.82608 -0.56355
-0.032679 -0.039164 0.432 -0.021152 0.82453 -0.56543
-0.032679 -0.038364 0.432 -0.044005 0.82379 -0.56518
-0.032679 -0.037565 0.432 -0.080939 0.8173 -0.5705
-0.032679 -0.036766 0.432 -0.12069 0.80596 -0.57954
-0.032755 -0.03605 0.433 -0.15952 0.84585 -0.509
-0.032755 -0.035249 0.433 -0.15639 0.82891 -0.53707
-0.03283 -0.034527 0.434 -0.072921 0.82788 -0.55614
-0.03283 -0.033724 0.434 0.0021448 0.81269 -0.58269
-0.032906 -0.032997 0.435 0.17633 0.72174 -0.66933
-0.03283 -0.032118 0.434 0.22366 0.75693 -0.61403
-0.03283 -0.031315 0.434 0.3644 0.69146 -0.62378
-0.032755 -0.030442 0.433 0.40153 0.67953 -0.61401
-0.032679 -0.029573 0.432 0.45004 0.6333 -0.6296
-0.032603 -0.028707 0.431 0.48673 0.56592 -0.66545
-0.032528 -0.027845 0.43 0.5008 0.49175 -0.71231
-0.032528 -0.027049 0.43 0.50891 0.52752 -0.68025
-0.032452 -0.026192 0.429 0.47541 0.49222 -0.72918
-0.032376 -0.02534 0.428 0.42033 0.46153 -0.78122
-0.032376 -0.024548 0.428 0.40538 0.51245 -0.75701
-0.032376 -0.023756 0.428 0.37799 0.5411 -0.75122
-0.032301 -0.02291 0.427 0.31425 0.52763 -0.78921
-0.032301 -0.02212 0.427 0.27454 0.55283 -0.78677
-0.032225 -0.02128 0.426 0.20414 0.54776 -0.81135
-0.032225 -0.020492 0.426 0.17578 0.57379 -0.79992
-0.032225 -0.019704 0.426 0.1432 0.58984 -0.79472
-0.032225 -0.018916 0.426 0.097727 0.60359 -0.79128
-0.032225 -0.018128 0.426 0.062617 0.60958 -0.79025
-0.032225 -0.01734 0.426 0.0072071 0.61424 -0.78909
-0.032225 -0.016551 0.426 -0.03203 0.61753 -0.78589
-0.032225 -0.015763 0.426 -0.04513 0.61653 -0.78604
-0.032225 -0.014975 0.426 -0.066414 0.616 -0.78494
-0.032225 -0.014187 0.426 -0.077796 0.61496 -0.78472
-0.032301 -0.01343 0.427 -0.13701 0.65238 -0.7454
-0.032301 -0.01264 0.427 -0.14218 0.64991 -0.74659
-0.032301 -0.01185 0.427 -0.15196 0.64364 -0.75009
-0.032301 -0.01106 0.427 -0.15651 0.63245 -0.75863
-0.032301 -0.01027 0.427 -0.16524 0.6128 -0.77277
-0.032301 -0.0094801 0.427 -0.19175 0.57532 -0.79513
-0.032376 -0.0087105 0.428 -0.27691 0.63158 -0.72417
-0.032376 -0.0079186 0.428 -0.35838 0.56278 -0.74488
-0.032376 -0.0071267 0.428 -0.4152 0.48081 -0.77229
-0.032452 -0.0063497 0.429 -0.49633 0.53307 -0.6852
-0.032452 -0.005556 0.429 -0.54506 0.42832 -0.72073
-0.032528 -0.0047734 0.43 -0.55401 0.49251 -0.6712
-0.032679 -0.0039963 0.432 -0.54454 0.65477 -0.52418
-0.032755 -0.0032044 0.433 -0.5486 0.67565 -0.49248
-0.032755 -0.0024033 0.433 -0.51534 0.62377 -0.58765
-0.035251 0.013795 0.466 -0.18906 0.59095 -0.78424
-0.035251 0.014657 0.466 -0.2542 0.5748 -0.77781
-0.035251 0.015519 0.466 -0.32841 0.55182 -0.76658
-0.035327 0.016416 0.467 -0.22145 0.59918 -0.76938
-0.035327 0.01728 0.467 -0.28903 0.57534 -0.76514
-0.035327 0.018144 0.467 -0.30755 0.55278 -0.7745
-0.035402 0.019049 0.468 -0.31266 0.57862 -0.75329
-0.035402 0.019915 0.468 -0.3189 0.56419 -0.76157
-0.035478 0.020825 0.469 -0.42706 0.5648 -0.70613
-0.035478 0.021693 0.469 -0.3863 0.56735 -0.72724
-0.032989 -0.11165 0.447 0.00032922 0.67074 -0.74169
-0.032989 -0.11082 0.447 -0.025961 0.64932 -0.76007
-0.032989 -0.10999 0.447 -0.058901 0.62361 -0.77951
-0.032915 -0.10892 0.446 -0.22409 0.5081 -0.83164
-0.032915 -0.1081 0.446 -0.21607 0.48904 -0.84507
-0.032989 -0.10751 0.447 -0.12989 0.53814 -0.83279
-0.032989 -0.10668 0.447 -0.15521 0.50736 -0.84764
-0.032989 -0.10586 0.447 -0.19493 0.47195 -0.8598
-0.032989 -0.10503 0.447 -0.23909 0.4347 -0.86826
-0.033063 -0.10444 0.448 -0.27659 0.39484 -0.87613
-0.033063 -0.10361 0.448 -0.31807 0.34971 -0.88121
-0.033063 -0.10278 0.448 -0.35938 0.32162 -0.87602
-0.033137 -0.10218 0.449 -0.42905 0.25362 -0.86695
-0.033137 -0.10135 0.449 -0.47225 0.21483 -0.85488
-0.03321 -0.10074 0.45 -0.52195 0.13653 -0.84198
-0.033284 -0.10013 0.451 -0.56406 0.029765 -0.8252
-0.033284 -0.099295 0.451 -0.57052 0.014901 -0.82115
-0.033358 -0.098679 0.452 -0.57665 -0.099609 -0.8109
-0.033432 -0.098059 0.453 -0.55287 -0.23505 -0.79943
-0.033432 -0.097221 0.453 -0.55341 -0.23378 -0.79943
-0.033506 -0.096596 0.454 -0.49782 -0.32052 -0.80588
-0.033506 -0.095756 0.454 -0.45598 -0.33397 -0.82496
-0.033579 -0.095125 0.455 -0.38413 -0.38123 -0.8409
-0.033579 -0.094283 0.455 -0.33135 -0.4007 -0.85419
-0.033579 -0.093441 0.455 -0.2634 -0.42936 -0.86387
-0.033579 -0.092599 0.455 -0.20736 -0.43777 -0.87485
-0.033579 -0.091758 0.455 -0.16504 -0.44982 -0.87774
-0.033653 -0.091116 0.456 -0.12661 -0.4523 -0.88283
-0.033653 -0.090272 0.456 -0.096398 -0.45727 -0.88409
-0.033653 -0.089428 0.456 -0.084466 -0.45503 -0.88646
-0.033653 -0.088585 0.456 -0.061059 -0.45581 -0.88798
-0.033653 -0.087741 0.456 -0.033216 -0.45503 -0.88986
-0.033653 -0.086897 0.456 -0.0069939 -0.45596 -0.88997
-0.033653 -0.086054 0.456 0.02454 -0.45098 -0.8922
-0.033653 -0.08521 0.456 0.06268 -0.43403 -0.89872
-0.033653 -0.084366 0.456 0.090938 -0.40987 -0.9076
-0.033653 -0.083523 0.456 0.1359 -0.37695 -0.91621
-0.033653 -0.082679 0.456 0.15087 -0.33282 -0.93084
-0.033653 -0.081835 0.456 0.17721 -0.27664 -0.94449
-0.033653 -0.080992 0.456 0.22483 -0.19992 -0.95367
-0.033579 -0.079972 0.455 0.26722 -0.12292 -0.95576
-0.033579 -0.07913 0.455 0.31368 -0.048411 -0.94829
-0.033579 -0.078289 0.455 0.35588 0.028428 -0.9341
-0.033579 -0.077447 0.455 0.37492 0.084751 -0.92318
-0.033506 -0.076437 0.454 0.4364 0.16728 -0.88407
-0.033506 -0.075597 0.454 0.46808 0.19821 -0.86117
-0.033432 -0.074592 0.453 0.5173 0.25957 -0.81549
-0.033358 -0.073591 0.452 0.54894 0.29441 -0.78229
-0.033358 -0.072755 0.452 0.5491 0.314 -0.77453
-0.033284 -0.071759 0.451 0.56128 0.34216 -0.75358
-0.03321 -0.070768 0.45 0.59137 0.36715 -0.71797
-0.033137 -0.06978 0.449 0.60577 0.40308 -0.68598
-0.033137 -0.068949 0.449 0.55933 0.39818 -0.72705
-0.033137 -0.068118 0.449 0.48746 0.36185 -0.79464
-0.031808 -0.043858 0.431 -0.029739 0.81792 -0.57456
-0.031808 -0.04306 0.431 -0.0034464 0.82235 -0.56898
-0.031808 -0.042263 0.431 0.0032839 0.82146 -0.57025
-0.031808 -0.041465 0.431 0.01907 0.82284 -0.56796
-0.031808 -0.040668 0.431 0.022779 0.8225 -0.56831
-0.031808 -0.03987 0.431 0.015744 0.82107 -0.57061
-0.031808 -0.039073 0.431 -0.0081206 0.82235 -0.56892
-0.031808 -0.038276 0.431 -0.040768 0.82311 -0.56642
-0.031808 -0.037478 0.431 -0.077966 0.81586 -0.57297
-0.031808 -0.036681 0.431 -0.11741 0.80843 -0.57676
-0.031808 -0.035883 0.431 -0.15993 0.79081 -0.5908
-0.031882 -0.035167 0.432 -0.17126 0.82519 -0.53827
-0.031882 -0.034368 0.432 -0.13511 0.80338 -0.57994
-0.031956 -0.033647 0.433 -0.021655 0.7865 -0.61721
-0.031956 -0.032846 0.433 0.081027 0.76195 -0.64254
-0.031956 -0.032044 0.433 0.19831 0.7285 -0.65572
-0.031956 -0.031243 0.433 0.31945 0.67142 -0.66869
-0.031882 -0.030372 0.432 0.37867 0.65111 -0.65778
-0.031808 -0.029504 0.431 0.38825 0.6212 -0.68071
-0.031734 -0.02864 0.43 0.43527 0.54487 -0.7167
-0.031734 -0.027845 0.43 0.49132 0.53674 -0.68594
-0.031661 -0.026986 0.429 0.48122 0.49265 -0.72507
-0.031587 -0.026131 0.428 0.44337 0.44997 -0.77521
-0.031587 -0.02534 0.428 0.44626 0.48269 -0.75356
-0.031513 -0.02449 0.427 0.39467 0.46056 -0.79506
-0.031513 -0.0237 0.427 0.37433 0.4901 -0.78719
-0.031513 -0.02291 0.427 0.34309 0.51169 -0.7877
-0.031439 -0.022068 0.426 0.27979 0.50926 -0.81386
-0.031439 -0.02128 0.426 0.2438 0.53348 -0.80992
-0.031439 -0.020492 0.426 0.20693 0.55096 -0.80847
-0.031439 -0.019704 0.426 0.17099 0.56115 -0.80986
-0.031365 -0.018871 0.425 0.10669 0.56239 -0.81996
-0.031439 -0.018128 0.426 0.071624 0.58076 -0.81092
-0.031365 -0.017299 0.425 0.021766 0.58279 -0.81233
-0.031365 -0.016512 0.425 -0.01469 0.58653 -0.8098
-0.031365 -0.015726 0.425 -0.029814 0.58875 -0.80776
-0.031365 -0.01494 0.425 -0.054691 0.59297 -0.80336
-0.031439 -0.014187 0.426 -0.099688 0.61907 -0.77898
-0.031439 -0.013399 0.426 -0.12036 0.62064 -0.7748
-0.031439 -0.012611 0.426 -0.12992 0.61887 -0.77467
-0.031439 -0.011822 0.426 -0.14479 0.61626 -0.77412
-0.031439 -0.011034 0.426 -0.15225 0.60906 -0.77838
-0.031439 -0.010246 0.426 -0.16821 0.59288 -0.78753
-0.031513 -0.0094801 0.427 -0.22285 0.63139 -0.74275
-0.031513 -0.0086901 0.427 -0.26698 0.5995 -0.75454
-0.031513 -0.0079001 0.427 -0.33734 0.53466 -0.77482
-0.031587 -0.0071267 0.428 -0.41225 0.58093 -0.70184
-0.031587 -0.0063349 0.428 -0.45883 0.50816 -0.72887
-0.031587 -0.005543 0.428 -0.4907 0.41259 -0.76745
-0.031661 -0.0047623 0.429 -0.53847 0.47708 -0.69458
-0.031808 -0.003987 0.431 -0.54121 0.6296 -0.5574
-0.031882 -0.003197 0.432 -0.54866 0.6565 -0.51766
-0.031956 -0.0024033 0.433 -0.53257 0.69591 -0.48175
-0.031956 -0.0016022 0.433 -0.48377 0.66261 -0.57176
-0.034391 0.013795 0.466 -0.039212 0.63017 -0.77546
-0.034391 0.014657 0.466 -0.10869 0.62048 -0.77666
-0.034391 0.015519 0.466 -0.20318 0.60349 -0.77105
-0.034391 0.016381 0.466 -0.28293 0.58576 -0.7595
-0.034391 0.017243 0.466 -0.32544 0.56696 -0.75673
-0.034465 0.018144 0.467 -0.28286 0.5894 -0.7567
-0.034465 0.019008 0.467 -0.30491 0.57572 -0.75867
-0.034539 0.019915 0.468 -0.36664 0.58245 -0.72549
-0.034539 0.020781 0.468 -0.37206 0.57648 -0.72749
-0.034539 0.021647 0.468 -0.32816 0.57406 -0.75018
-0.034539 0.022512 0.468 -0.24315 0.57647 -0.7801
-0.032092 -0.11222 0.446 -0.061252 0.66669 -0.74282
-0.032092 -0.1114 0.446 -0.10089 0.64033 -0.76145
-0.032092 -0.11057 0.446 -0.14021 0.60652 -0.78261
-0.032092 -0.10975 0.446 -0.16879 0.57163 -0.80296
-0.032092 -0.10892 0.446 -0.1866 0.54509 -0.81735
-0.032092 -0.1081 0.446 -0.19145 0.52147 -0.83151
-0.032092 -0.10727 0.446 -0.18937 0.49925 -0.84551
-0.032092 -0.10645 0.446 -0.21038 0.46817 -0.85823
-0.032164 -0.10586 0.447 -0.21783 0.46344 -0.85894
-0.032164 -0.10503 0.447 -0.26315 0.42507 -0.86607
-0.032164 -0.1042 0.447 -0.30094 0.39423 -0.86834
-0.032164 -0.10338 0.447 -0.32513 0.37485 -0.8682
-0.032236 -0.10278 0.448 -0.40441 0.30695 -0.86153
-0.032236 -0.10195 0.448 -0.43546 0.2947 -0.8506
-0.032308 -0.10135 0.449 -0.50488 0.22555 -0.8332
-0.032308 -0.10052 0.449 -0.49734 0.23406 -0.83539
-0.032452 -0.10013 0.451 -0.59175 0.0092987 -0.80607
-0.032452 -0.099295 0.451 -0.59635 0.029165 -0.8022
-0.032524 -0.098679 0.452 -0.59844 -0.094278 -0.7956
-0.032596 -0.098059 0.453 -0.57795 -0.22915 -0.78324
-0.032596 -0.097221 0.453 -0.57697 -0.203 -0.79114
-0.032668 -0.096596 0.454 -0.52304 -0.311 -0.79354
-0.032668 -0.095756 0.454 -0.48632 -0.30162 -0.82007
-0.03274 -0.095125 0.455 -0.3916 -0.39721 -0.82999
-0.03274 -0.094283 0.455 -0.3426 -0.40668 -0.8469
-0.032812 -0.093647 0.456 -0.24514 -0.47124 -0.84725
-0.032812 -0.092803 0.456 -0.20002 -0.46549 -0.86215
-0.032812 -0.091959 0.456 -0.16471 -0.47064 -0.86681
-0.032812 -0.091116 0.456 -0.13166 -0.47275 -0.87131
-0.032812 -0.090272 0.456 -0.10238 -0.47618 -0.87337
-0.032812 -0.089428 0.456 -0.091941 -0.47559 -0.87485
-0.032812 -0.088585 0.456 -0.0605 -0.47339 -0.87877
-0.032884 -0.087933 0.457 -0.025089 -0.46934 -0.88266
-0.032884 -0.087088 0.457 0.0034715 -0.46475 -0.88543
-0.032884 -0.086242 0.457 0.041 -0.45411 -0.89
-0.032884 -0.085397 0.457 0.083527 -0.43401 -0.89703
-0.032812 -0.084366 0.456 0.11937 -0.4042 -0.90685
-0.032812 -0.083523 0.456 0.17349 -0.36395 -0.91512
-0.032812 -0.082679 0.456 0.20314 -0.31431 -0.92733
-0.032812 -0.081835 0.456 0.24302 -0.25061 -0.93709
-0.032812 -0.080992 0.456 0.29614 -0.17388 -0.93918
-0.032812 -0.080148 0.456 0.34079 -0.097099 -0.93511
-0.03274 -0.07913 0.455 0.39122 -0.027093 -0.9199
-0.03274 -0.078289 0.455 0.42979 0.040735 -0.90201
-0.03274 -0.077447 0.455 0.43457 0.087589 -0.89637
-0.032668 -0.076437 0.454 0.48903 0.15854 -0.85774
-0.032596 -0.07543 0.453 0.53251 0.21094 -0.81972
-0.032596 -0.074592 0.453 0.54425 0.23863 -0.80427
-0.032524 -0.073591 0.452 0.57055 0.27161 -0.77505
-0.032452 -0.072594 0.451 0.5825 0.30583 -0.7531
-0.032452 -0.071759 0.451 0.56237 0.30106 -0.77013
-0.03238 -0.070768 0.45 0.58762 0.326 -0.74056
-0.032308 -0.06978 0.449 0.60847 0.36556 -0.70436
-0.032308 -0.068949 0.449 0.54008 0.33852 -0.77053
-0.032236 -0.067967 0.448 0.55915 0.38693 -0.73324
-0.030941 -0.043756 0.43 0.0055079 0.80655 -0.59115
-0.030941 -0.04296 0.43 0.040783 0.81208 -0.58212
-0.030941 -0.042165 0.43 0.040987 0.81533 -0.57755
-0.030941 -0.041369 0.43 0.039611 0.81708 -0.57516
-0.030941 -0.040574 0.43 0.02996 0.81749 -0.57516
-0.030941 -0.039778 0.43 0.014147 0.81734 -0.57598
-0.030869 -0.038892 0.429 -0.00066891 0.7446 -0.66751
-0.030941 -0.038187 0.43 -0.043023 0.81464 -0.57836
-0.030941 -0.037391 0.43 -0.08858 0.81182 -0.57715
-0.030941 -0.036596 0.43 -0.13202 0.80592 -0.57712
-0.030941 -0.0358 0.43 -0.17318 0.79087 -0.58697
-0.030941 -0.035005 0.43 -0.19779 0.77106 -0.60526
-0.031013 -0.034289 0.431 -0.16724 0.78924 -0.59087
-0.031013 -0.033491 0.431 -0.11176 0.76051 -0.63964
-0.031085 -0.03277 0.432 0.050354 0.72648 -0.68534
-0.031085 -0.03197 0.432 0.16595 0.69067 -0.70387
-0.031085 -0.031171 0.432 0.29241 0.64478 -0.70623
-0.031013 -0.030302 0.431 0.3045 0.65369 -0.69279
-0.031013 -0.029504 0.431 0.3871 0.62558 -0.67735
-0.030941 -0.02864 0.43 0.43437 0.57243 -0.69545
-0.030869 -0.02778 0.429 0.45071 0.519 -0.72629
-0.030797 -0.026923 0.428 0.4374 0.46352 -0.7706
-0.030797 -0.026131 0.428 0.46032 0.47333 -0.75104
-0.030725 -0.02528 0.427 0.42666 0.45528 -0.78146
-0.030725 -0.02449 0.427 0.42038 0.47134 -0.77532
-0.030725 -0.0237 0.427 0.39462 0.48198 -0.78229
-0.030653 -0.022857 0.426 0.34436 0.47874 -0.80761
-0.030653 -0.022068 0.426 0.30601 0.49422 -0.8137
-0.030581 -0.02123 0.425 0.24744 0.49481 -0.83303
-0.030581 -0.020444 0.425 0.21869 0.51602 -0.82819
-0.030581 -0.019658 0.425 0.18478 0.53106 -0.82694
-0.030581 -0.018871 0.425 0.13411 0.54711 -0.82625
-0.030581 -0.018085 0.425 0.086005 0.55965 -0.82426
-0.030581 -0.017299 0.425 0.025143 0.56804 -0.82261
-0.030581 -0.016512 0.425 -0.018974 0.57451 -0.81828
-0.030581 -0.015726 0.425 -0.042903 0.58156 -0.81237
-0.030581 -0.01494 0.425 -0.074512 0.59109 -0.80316
-0.030581 -0.014154 0.425 -0.096622 0.59797 -0.79567
-0.030581 -0.013367 0.425 -0.12102 0.60183 -0.7894
-0.030581 -0.012581 0.425 -0.13052 0.60245 -0.78741
-0.030581 -0.011795 0.425 -0.14124 0.59746 -0.78937
-0.030653 -0.011034 0.426 -0.17297 0.61845 -0.76655
-0.030653 -0.010246 0.426 -0.19036 0.61455 -0.76557
-0.030653 -0.0094579 0.426 -0.21116 0.59833 -0.77293
-0.030653 -0.0086698 0.426 -0.2591 0.57249 -0.7779
-0.030725 -0.0079001 0.427 -0.34012 0.59226 -0.73044
-0.030725 -0.0071101 0.427 -0.38512 0.55226 -0.73938
-0.030725 -0.0063201 0.427 -0.41691 0.49216 -0.76417
-0.030797 -0.005543 0.428 -0.4934 0.52463 -0.69378
-0.030869 -0.0047623 0.429 -0.53375 0.5675 -0.62694
-0.030941 -0.0039778 0.43 -0.5398 0.59594 -0.59453
-0.031013 -0.0031896 0.431 -0.54331 0.62999 -0.55491
-0.031085 -0.0023978 0.432 -0.5308 0.66557 -0.52465
-0.031085 -0.0015985 0.432 -0.48238 0.6418 -0.59616
-0.033244 0.012821 0.462 -0.62432 0.52906 -0.57473
-0.033459 0.013765 0.465 -0.12133 0.61175 -0.78169
-0.033459 0.014625 0.465 -0.19055 0.60103 -0.77618
-0.033459 0.015486 0.465 -0.26734 0.59295 -0.75956
-0.033531 0.016381 0.466 -0.18291 0.59903 -0.77956
-0.033531 0.017243 0.466 -0.2631 0.59315 -0.76089
-0.033531 0.018105 0.466 -0.28647 0.59114 -0.75399
-0.033531 0.018968 0.466 -0.29724 0.57793 -0.76003
-0.033603 0.019872 0.467 -0.337 0.58621 -0.73674
-0.033603 0.020736 0.467 -0.32955 0.58174 -0.74363
-0.033675 0.021647 0.468 -0.44016 0.58002 -0.68545
-0.033675 0.022512 0.468 -0.38133 0.57981 -0.72001
-0.031199 -0.11197 0.445 -0.14948 0.61811 -0.77175
-0.031199 -0.11115 0.445 -0.20439 0.58354 -0.78594
-0.031199 -0.11032 0.445 -0.23845 0.54767 -0.802
-0.031199 -0.1095 0.445 -0.25969 0.51404 -0.81751
-0.031199 -0.10868 0.445 -0.26606 0.49644 -0.82629
-0.031269 -0.1081 0.446 -0.19346 0.52475 -0.82898
-0.031269 -0.10727 0.446 -0.19789 0.50545 -0.83985
-0.031269 -0.10645 0.446 -0.2179 0.48158 -0.84888
-0.031269 -0.10562 0.446 -0.24817 0.44812 -0.85884
-0.031339 -0.10503 0.447 -0.30045 0.40468 -0.86369
-0.031339 -0.1042 0.447 -0.32336 0.3906 -0.8619
-0.031339 -0.10338 0.447 -0.34531 0.3832 -0.85669
-0.03141 -0.10278 0.448 -0.4362 0.30327 -0.84721
-0.03141 -0.10195 0.448 -0.45623 0.30927 -0.83439
-0.03148 -0.10135 0.449 -0.53196 0.23123 -0.81459
-0.03155 -0.10074 0.45 -0.57938 0.10045 -0.80884
-0.03155 -0.099907 0.45 -0.57378 0.15518 -0.80417
-0.03162 -0.099295 0.451 -0.61591 0.036928 -0.78695
-0.03169 -0.098679 0.452 -0.62008 -0.08899 -0.77948
-0.03176 -0.098059 0.453 -0.59894 -0.22135 -0.76959
-0.03183 -0.097436 0.454 -0.54179 -0.34064 -0.7684
-0.0319 -0.095967 0.455 -0.45521 -0.39141 -0.79974
-0.0319 -0.095125 0.455 -0.41653 -0.37251 -0.8293
-0.03197 -0.09449 0.456 -0.31944 -0.46963 -0.82305
-0.03197 -0.093647 0.456 -0.26221 -0.46601 -0.84503
-0.03197 -0.092803 0.456 -0.2191 -0.45094 -0.86525
-0.03197 -0.091959 0.456 -0.19108 -0.45071 -0.87198
-0.032041 -0.091315 0.457 -0.12833 -0.5011 -0.85582
-0.032041 -0.09047 0.457 -0.10584 -0.49716 -0.86118
-0.032041 -0.089624 0.457 -0.094724 -0.48644 -0.86856
-0.032041 -0.088779 0.457 -0.06175 -0.47819 -0.87608
-0.032041 -0.087933 0.457 -0.024773 -0.47103 -0.88177
-0.032041 -0.087088 0.457 0.012165 -0.46181 -0.8869
-0.032041 -0.086242 0.457 0.061612 -0.44652 -0.89265
-0.032041 -0.085397 0.457 0.11332 -0.42317 -0.89894
-0.032041 -0.084551 0.457 0.16345 -0.38977 -0.90629
-0.032041 -0.083706 0.457 0.22926 -0.34516 -0.91011
-0.032041 -0.08286 0.457 0.26992 -0.29071 -0.91795
-0.03197 -0.081835 0.456 0.31863 -0.22206 -0.9215
-0.03197 -0.080992 0.456 0.37513 -0.14354 -0.91579
-0.03197 -0.080148 0.456 0.41944 -0.075326 -0.90465
-0.0319 -0.07913 0.455 0.45588 -0.016279 -0.88989
-0.0319 -0.078289 0.455 0.47945 0.039197 -0.87669
-0.0319 -0.077447 0.455 0.4726 0.069277 -0.87855
-0.03183 -0.076437 0.454 0.52534 0.14059 -0.8392
-0.03176 -0.07543 0.453 0.56199 0.20106 -0.80234
-0.03169 -0.074427 0.452 0.58007 0.24118 -0.77804
-0.03169 -0.073591 0.452 0.58294 0.25075 -0.77286
-0.03162 -0.072594 0.451 0.58756 0.28541 -0.75717
-0.03155 -0.0716 0.45 0.60472 0.3159 -0.73111
-0.03155 -0.070768 0.45 0.57005 0.28357 -0.77112
-0.03148 -0.06978 0.449 0.58858 0.32533 -0.74009
-0.03148 -0.068949 0.449 0.50414 0.28088 -0.81667
-0.030077 -0.043654 0.429 0.037273 0.7956 -0.60467
-0.030077 -0.04286 0.429 0.079157 0.79753 -0.59806
-0.030077 -0.042067 0.429 0.074547 0.79907 -0.59659
-0.030077 -0.041273 0.429 0.063199 0.79971 -0.59705
-0.030007 -0.040385 0.428 -0.014392 0.75433 -0.65634
-0.030007 -0.039593 0.428 0.012556 0.751 -0.66019
-0.030007 -0.038801 0.428 0.0010517 0.75193 -0.65924
-0.030077 -0.038098 0.429 -0.040882 0.79888 -0.6001
-0.030077 -0.037304 0.429 -0.082743 0.79723 -0.59798
-0.030077 -0.036511 0.429 -0.13639 0.7893 -0.59867
-0.030077 -0.035717 0.429 -0.19141 0.77338 -0.60435
-0.030077 -0.034923 0.429 -0.21991 0.7513 -0.62225
-0.030077 -0.03413 0.429 -0.21681 0.72377 -0.65509
-0.030148 -0.033414 0.43 -0.15328 0.7535 -0.63933
-0.030148 -0.032618 0.43 -0.085314 0.72779 -0.68048
-0.030218 -0.031896 0.431 0.089712 0.69836 -0.7101
-0.030218 -0.031099 0.431 0.20556 0.66365 -0.71925
-0.030218 -0.030302 0.431 0.30945 0.62369 -0.71781
-0.030148 -0.029436 0.43 0.33457 0.61379 -0.71507
-0.030077 -0.028574 0.429 0.39265 0.55573 -0.7328
-0.030077 -0.02778 0.429 0.45239 0.52709 -0.71939
-0.030007 -0.026923 0.428 0.45569 0.47668 -0.75175
-0.029937 -0.02607 0.427 0.44154 0.44197 -0.78084
-0.029937 -0.02528 0.427 0.44983 0.45263 -0.76992
-0.029867 -0.024433 0.426 0.41393 0.438 -0.79801
-0.029867 -0.023645 0.426 0.3896 0.45331 -0.8017
-0.029867 -0.022857 0.426 0.35835 0.46515 -0.80946
-0.029797 -0.022017 0.425 0.30036 0.46509 -0.83276
-0.029797 -0.02123 0.425 0.27059 0.48564 -0.83123
-0.029797 -0.020444 0.425 0.23456 0.50023 -0.83352
-0.029797 -0.019658 0.425 0.19837 0.51081 -0.83649
-0.029797 -0.018871 0.425 0.14334 0.52412 -0.8395
-0.029727 -0.018043 0.424 0.091906 0.54022 -0.83649
-0.029727 -0.017258 0.424 0.036188 0.54835 -0.83546
-0.029727 -0.016474 0.424 -0.0035054 0.55844 -0.82953
-0.029797 -0.015726 0.425 -0.032906 0.56909 -0.82162
-0.029797 -0.01494 0.425 -0.069117 0.58289 -0.80961
-0.029797 -0.014154 0.425 -0.091122 0.59234 -0.80052
-0.029797 -0.013367 0.425 -0.11521 0.59942 -0.7921
-0.029797 -0.012581 0.425 -0.12935 0.60362 -0.78671
-0.029797 -0.011795 0.425 -0.14658 0.60624 -0.78165
-0.029797 -0.011008 0.425 -0.16154 0.60954 -0.77612
-0.029797 -0.010222 0.425 -0.17963 0.6046 -0.77601
-0.029797 -0.0094357 0.425 -0.20964 0.58997 -0.77974
-0.029867 -0.0086698 0.426 -0.27844 0.59681 -0.75252
-0.029867 -0.0078816 0.426 -0.32753 0.57671 -0.74842
-0.029867 -0.0070934 0.426 -0.35667 0.54862 -0.75618
-0.029867 -0.0063053 0.426 -0.36966 0.49912 -0.78373
-0.029937 -0.0055301 0.427 -0.45573 0.51318 -0.72729
-0.030007 -0.0047512 0.428 -0.5098 0.54186 -0.6682
-0.030077 -0.0039685 0.429 -0.52931 0.57649 -0.62249
-0.030148 -0.0031822 0.43 -0.53446 0.60133 -0.59393
-0.030218 -0.0023922 0.431 -0.52453 0.63771 -0.56409
-0.030218 -0.0015948 0.431 -0.47666 0.62372 -0.61949
-0.030288 -0.00079926 0.432 -0.4525 0.66684 -0.59209
-0.030288 0 0.432 -0.39012 0.6404 -0.66158
-0.030498 0.0040241 0.435 -0.57151 0.5795 -0.58099
-0.030849 0.0081406 0.44 -0.51674 0.65773 -0.54806
-0.031129 0.012322 0.444 -0.75136 0.44425 -0.48796
-0.032461 0.013706 0.463 -0.39318 0.61694 -0.68175
-0.032531 0.014594 0.464 -0.25961 0.60838 -0.74998
-0.032601 0.015486 0.465 -0.16753 0.57717 -0.79925
-0.032601 0.016346 0.465 -0.23781 0.58971 -0.77181
-0.032601 0.017206 0.465 -0.28977 0.60294 -0.7433
-0.032601 0.018067 0.465 -0.30105 0.61316 -0.73034
-0.032601 0.018927 0.465 -0.31054 0.60203 -0.73561
-0.032672 0.01983 0.466 -0.32166 0.5847 -0.74475
-0.032672 0.020692 0.466 -0.2958 0.5823 -0.75725
-0.032742 0.0216 0.467 -0.38986 0.58582 -0.71051
-0.032742 0.022464 0.467 -0.3227 0.57772 -0.74974
-0.032742 0.023328 0.467 -0.22811 0.57406 -0.7864
-0.03031 -0.11336 0.444 -0.11567 0.62074 -0.77544
-0.03031 -0.11254 0.444 -0.18196 0.58823 -0.78796
-0.03031 -0.11172 0.444 -0.24436 0.54559 -0.80164
-0.03031 -0.1109 0.444 -0.30262 0.5034 -0.80933
-0.03031 -0.11008 0.444 -0.32735 0.47182 -0.81868
-0.03031 -0.10925 0.444 -0.33359 0.45266 -0.82693
-0.030378 -0.10868 0.445 -0.24718 0.50276 -0.82833
-0.030378 -0.10785 0.445 -0.24519 0.48638 -0.83864
-0.030378 -0.10703 0.445 -0.23611 0.47281 -0.84894
-0.030446 -0.10645 0.446 -0.25647 0.44684 -0.85706
-0.030446 -0.10562 0.446 -0.28289 0.41877 -0.86291
-0.030446 -0.1048 0.446 -0.29943 0.41125 -0.86094
-0.030515 -0.1042 0.447 -0.3677 0.36123 -0.85692
-0.030515 -0.10338 0.447 -0.38395 0.36378 -0.84867
-0.030515 -0.10255 0.447 -0.40197 0.37534 -0.83519
-0.030583 -0.10195 0.448 -0.48951 0.30502 -0.81691
-0.030651 -0.10052 0.449 -0.54313 0.2693 -0.79529
-0.03072 -0.099075 0.45 -0.55409 0.26706 -0.78846
-0.030856 -0.097843 0.452 -0.61698 0.042704 -0.78582
-0.030993 -0.097436 0.454 -0.57134 -0.31016 -0.75985
-0.031061 -0.096809 0.455 -0.48417 -0.42105 -0.767
-0.031061 -0.095967 0.455 -0.48326 -0.3558 -0.79991
-0.031129 -0.095334 0.456 -0.35413 -0.4906 -0.79618
-0.031197 -0.094698 0.457 -0.21944 -0.59054 -0.7766
-0.031197 -0.093852 0.457 -0.2163 -0.56086 -0.79915
-0.031197 -0.093006 0.457 -0.18843 -0.53172 -0.82569
-0.031197 -0.092161 0.457 -0.16895 -0.51607 -0.83972
-0.031197 -0.091315 0.457 -0.14641 -0.50288 -0.85187
-0.031197 -0.09047 0.457 -0.12418 -0.49686 -0.8589
